ncols 443
nrows 32
xllcorner    425032
yllcorner    540732
cellsize     2
NODATA_value -9999
83.245 83.235 83.093 82.975 82.86 82.71 82.565 82.508 82.498 82.495 82.45 82.418 82.355 82.308 82.34 82.335 82.348 82.203 82.048 81.868 81.8 81.738 81.655 81.688 81.633 81.453 81.363 81.353 81.353 81.263 81.203 81.138 81.08 80.953 80.835 80.743 80.643 80.52 80.395 80.268 80.135 80.02 79.948 79.863 79.76 79.66 79.518 79.355 79.213 79.1 78.963 78.785 78.675 78.533 78.39 78.28 78.14 78.04 77.923 77.858 77.768 77.693 77.655 77.575 77.52 77.465 77.368 77.31 77.263 77.17 77.13 77.073 77.01 76.983 76.925 76.853 76.74 76.663 76.61 76.568 76.508 76.43 76.418 76.418 76.37 76.375 76.335 76.293 76.25 76.233 76.128 76.003 75.838 75.738 75.743 75.728 75.875 75.85 75.783 75.7 75.623 75.573 75.478 75.395 75.3 75.153 75.025 74.903 74.77 74.685 74.575 74.488 74.408 74.363 74.278 74.238 74.15 74.05 73.993 73.929 73.87 73.808 73.792 73.79 73.747 73.688 73.47 73.332 73.283 73.301 73.238 73.173 73.305 73.337 73.297 73.195 73.072 72.965 72.897 72.815 72.722 72.667 72.565 72.427 72.355 72.235 72.13 72.012 71.907 71.782 71.69 71.557 71.435 71.335 71.22 71.125 71.01 70.89 71.002 70.99 70.66 70.53 70.417 70.34 70.905 71.757 70.325 69.99 71.292 72.62 74.032 75.312 76.415 76.84 76.86 76.84 76.695 75.86 74.915 74.705 72.412 70.28 69.67 68.167 67.587 67.79 67.597 66.932 66.585 66.51 66.495 66.397 66.352 66.347 67.265 66.937 69.87 72.877 73.94 73.905 72.672 69.457 68.842 68.682 66.892 65.772 66.35 65.852 65.48 65.555 65.715 67.61 71.05 72.017 72.227 70.585 66.427 64.7 64.63 64.532 64.317 64.2 64.087 63.895 63.787 63.667 63.587 63.535 63.445 63.497 63.355 63.275 63.217 63.762 63.347 64.427 64.95 64.332 64.59 63.015 62.97 62.96 62.93 62.74 62.772 62.812 62.735 62.652 62.63 62.515 62.452 62.385 62.325 62.327 62.332 62.402 62.53 62.575 62.867 62.632 62.677 62.627 62.392 62.337 62.345 62.29 62.272 62.277 62.24 62.202 62.2 62.21 62.227 62.267 62.335 62.975 62.18 62.117 62.072 62.095 62.085 61.997 61.962 61.93 61.917 61.817 61.752 61.7 61.675 61.7 61.705 61.617 61.557 61.5 61.437 61.39 61.387 61.372 61.295 61.185 61.11 61.395 61.075 60.462 60.27 60.092 60.055 60.11 63.197 68.83 69.927 60.35 59.875 71.305 73.927 67.367 59.002 59.005 59.152 60.002 61.772 59.257 58.55 58.552 58.505 58.455 58.437 58.42 58.41 58.35 58.267 58.29 58.297 58.245 58.205 58.18 58.172 58.155 58.19 58.222 58.25 58.295 58.305 58.315 58.357 58.385 58.417 58.437 58.46 58.517 58.697 59.09 58.725 58.777 60.715 62.585 63.26 65.117 61.23 59.377 59.355 59.385 59.377 59.375 59.352 59.292 59.282 59.27 59.255 59.19 59.01 58.802 58.775 58.732 58.615 58.557 58.472 58.418 58.372 58.319 58.286 58.312 58.335 58.33 58.302 58.332 58.402 58.18 57.89 57.806 57.974 60.368 62.229 66.486 67.24 65.655 58.95 60.638 58.211 58.694 59.285 60.305 61.391 62.747 63.929 64.961 65.817 66.177 66.243 66.461 66.598 66.62 66.473 66.32 66.205 66.022 65.89 65.752 65.592 65.442 65.422 65.765 66.177 66.432 66.622 66.797 67.005 67.232 67.655 68.297 68.9 69.405 70.692 72.227 72.122 72.67 73.105 73.437 73.602 73.69 73.972 74.352 74.752
83.31 83.265 83.088 83.06 82.925 82.828 82.748 82.533 82.463 82.408 82.408 82.413 82.368 82.325 82.285 82.278 82.273 82.27 82.27 82.1 81.928 81.85 81.763 81.76 81.563 81.443 81.435 81.408 81.375 81.305 81.263 81.188 81.083 80.97 80.883 80.8 80.753 80.643 80.513 80.405 80.258 80.095 79.915 79.808 79.755 79.638 79.593 79.488 79.368 79.185 79.04 78.913 78.74 78.59 78.498 78.345 78.24 78.118 78.013 77.925 77.835 77.753 77.675 77.57 77.498 77.44 77.383 77.328 77.283 77.225 77.158 77.108 77.053 77.008 76.995 76.86 76.773 76.69 76.665 76.59 76.575 76.49 76.47 76.46 76.433 76.428 76.385 76.378 76.34 76.315 76.24 76.115 75.898 75.81 75.758 75.773 75.825 75.948 75.9 75.838 75.755 75.663 75.555 75.463 75.35 75.245 75.118 75.003 74.893 74.795 74.695 74.623 74.538 74.493 74.408 74.325 74.21 74.148 74.058 73.966 73.909 73.835 73.851 73.841 73.808 73.634 73.493 73.417 73.429 73.416 73.346 73.355 73.463 73.469 73.382 73.242 73.16 73.087 73.03 72.945 72.842 72.76 72.637 72.522 72.435 72.315 72.17 72.082 71.975 71.85 71.74 71.602 71.46 71.357 71.222 71.155 71.047 70.967 71.372 71.845 70.712 70.575 70.487 70.427 70.98 70.787 70.187 71.117 71.617 72.752 74.665 76.207 76.477 76.83 76.912 76.877 76.665 75.832 75.125 74.037 71.535 70.272 69.03 68.567 67.66 67.747 67.73 66.995 66.66 66.6 66.54 66.417 66.452 66.42 67.322 68.46 71.732 73.485 74.33 73.227 68.942 68.277 68.127 68.735 68.177 66.697 66.295 65.605 65.87 67.02 69.072 70.472 71.657 72.932 71.955 69.39 65.295 65.202 64.74 64.4 64.275 64.137 64.07 63.912 63.785 63.675 63.595 63.512 63.445 63.337 63.34 63.287 63.132 63.165 64.192 63.925 65.272 65.177 63.967 63.032 63.01 63.132 62.977 62.882 63.417 63.512 62.785 62.715 62.645 62.5 62.435 62.367 62.33 62.362 62.37 62.357 62.7 63.08 62.747 62.425 63.4 64.862 64.317 63.335 62.272 62.227 62.205 62.185 62.142 62.172 62.177 62.175 62.155 62.137 62.94 62.595 62.1 62.075 62.007 62.01 62.012 62 61.977 61.927 61.837 61.765 61.767 61.687 61.665 61.692 61.635 61.61 61.54 61.447 61.405 61.432 61.442 61.412 61.32 61.272 61.24 61.142 61.25 62.15 62.315 61.565 60.09 60.032 60.232 61.217 64.512 60.047 59.945 68.17 72.072 63.11 59.257 59.135 59.025 61.115 62.03 59.17 58.642 58.577 58.537 58.475 58.425 58.422 58.43 58.377 58.335 58.285 58.302 58.322 58.272 58.245 58.242 58.207 58.257 58.31 58.365 58.337 58.345 58.395 58.417 58.442 58.48 58.505 58.54 58.567 58.675 58.827 58.762 61.062 62.552 66.785 69.645 60.477 61.762 59.36 59.355 59.375 59.355 59.312 59.3 59.262 59.267 59.252 59.23 59.197 59.155 59.12 59.197 59.135 58.942 58.822 58.707 58.554 58.435 58.348 58.253 58.25 58.292 58.399 58.262 58.219 58.27 58.258 58.028 57.95 57.098 59.404 64.355 67.496 65.625 66.828 62.417 61.976 57.838 57.794 59.507 59.634 60.745 62.279 63.616 66.496 65.693 66.314 65.453 65.533 65.842 66.364 66.111 65.986 65.927 65.797 65.697 65.555 65.455 65.352 65.367 65.825 66.24 66.54 66.692 66.892 67.075 67.282 67.657 68.23 68.777 69.272 70.097 71.257 71.95 72.505 72.96 73.297 73.492 73.577 73.722 74.215 74.6
83.405 83.235 83.17 83.093 82.99 82.91 82.773 82.64 82.523 82.4 82.345 82.338 82.328 82.335 82.248 82.245 82.19 82.168 82.163 82.213 82.175 82.085 81.933 81.805 81.593 81.5 81.53 81.5 81.415 81.368 81.303 81.195 81.07 81.013 80.95 80.87 80.778 80.65 80.545 80.448 80.32 80.17 80.033 79.878 79.738 79.608 79.535 79.463 79.383 79.285 79.21 79.05 78.893 78.755 78.6 78.43 78.315 78.215 78.113 78.023 77.898 77.77 77.675 77.6 77.498 77.43 77.388 77.318 77.245 77.198 77.153 77.118 77.098 77.053 76.985 76.93 76.888 76.768 76.723 76.67 76.618 76.573 76.523 76.505 76.475 76.45 76.45 76.438 76.388 76.383 76.343 76.328 76.015 75.855 75.818 75.805 75.815 75.963 75.995 75.928 75.873 75.763 75.645 75.563 75.41 75.285 75.215 75.083 74.975 74.908 74.845 74.72 74.68 74.593 74.528 74.428 74.31 74.205 74.13 74.061 73.974 73.925 73.929 73.893 73.776 73.652 73.592 73.566 73.566 73.508 73.462 73.55 73.599 73.6 73.442 73.37 73.27 73.177 73.125 73.027 72.942 72.865 72.742 72.602 72.517 72.387 72.255 72.147 72.045 71.902 71.777 71.645 71.49 71.387 71.272 71.2 71.152 71.33 71.87 71.342 70.82 70.67 70.562 70.527 71.982 70.467 70.135 70.625 71.172 72.597 74.915 76.69 76.512 76.832 76.927 76.85 76.81 76.735 74.627 72.997 71.43 70.315 69.62 68.005 67.747 67.947 67.745 66.8 66.705 66.675 66.58 66.532 66.51 66.847 67.007 70.575 72.952 73.98 74.04 71.562 66.912 67.132 66.812 68.317 66.945 66.715 65.552 65.475 66.037 66.22 68.017 71.197 72.137 72.377 71.577 67.277 64.865 64.79 64.855 64.725 64.412 64.145 64.08 63.9 63.797 63.755 63.712 63.575 63.42 63.345 63.56 63.337 63.11 63.117 63.302 63.687 65.17 64.967 63.137 63.04 63.012 62.915 64.12 63.5 64.552 64.867 64.042 63.235 62.65 62.59 62.46 62.357 62.405 62.42 62.4 62.46 62.56 62.725 62.545 62.352 64.29 65.147 65.255 64.985 62.21 62.197 62.205 62.212 62.152 62.152 62.18 62.147 62.11 62.022 62.267 62.06 62.025 62.017 62 61.95 61.945 61.95 61.935 61.902 61.812 61.782 61.772 61.722 61.675 61.697 61.612 61.57 61.48 61.4 61.387 61.457 61.46 61.415 61.342 61.327 61.32 61.252 61.177 61.432 63.39 62.942 60.63 60.215 60.08 59.945 60.21 60.067 60.065 59.942 62.565 60.177 59.49 59.38 59.167 59.015 59.315 60.335 58.725 58.637 58.597 58.55 58.472 58.462 58.475 58.42 58.402 58.43 58.382 58.362 58.35 58.355 58.32 58.315 58.757 58.755 58.497 58.422 58.412 58.42 58.42 58.437 58.495 58.555 58.582 58.555 58.665 58.71 62.34 70.627 72.245 69.492 69.942 61.082 59.417 59.372 59.365 59.35 59.36 59.31 59.252 59.18 59.212 59.242 59.225 59.24 59.355 59.442 59.46 59.452 59.382 59.202 59.122 59.027 58.755 58.471 58.398 58.412 58.54 58.716 58.306 58.255 58.179 58.2 58.145 57.972 57.536 57.536 62.525 67.156 66.57 66.041 66.857 65.75 60.897 58.424 60.051 62.678 60.058 62.295 62.802 64.59 64.485 64.437 64.461 64.639 64.888 65.292 65.641 65.715 65.6 65.537 65.465 65.4 65.307 65.317 66.91 66.737 66.242 66.555 66.747 66.902 67.097 67.332 67.702 68.267 68.875 69.422 70.012 71.032 71.765 72.38 72.81 73.107 73.357 73.46 73.57 74.07 74.475
83.455 83.278 83.278 83.118 83.055 83.065 83.39 83.143 82.84 82.493 82.438 82.258 82.288 82.253 82.275 82.22 82.228 82.173 82.095 82.135 82.115 82.055 81.945 81.718 81.623 81.573 81.608 81.568 81.485 81.45 81.54 81.443 81.118 81.015 80.973 80.898 80.785 80.655 80.57 80.465 80.353 80.23 80.113 79.943 79.793 79.69 79.573 79.435 79.328 79.275 79.215 79.143 79.065 78.915 78.72 78.568 78.413 78.303 78.193 78.105 77.958 77.813 77.718 77.628 77.56 77.475 77.42 77.343 77.245 77.21 77.16 77.14 77.095 77.065 77.005 76.953 76.885 76.845 76.785 76.758 76.713 76.625 76.58 76.523 76.523 76.495 76.47 76.468 76.438 76.42 76.408 76.455 76.275 75.97 75.898 75.865 75.853 75.863 76.043 75.983 75.918 75.81 75.72 75.633 75.475 75.353 75.248 75.158 75.068 75.003 74.893 74.84 74.81 74.74 74.63 74.523 74.41 74.315 74.188 74.136 74.095 74.035 74.008 73.906 73.792 73.748 73.721 73.704 73.663 73.588 73.635 73.721 73.751 73.654 73.505 73.41 73.367 73.262 73.227 73.055 73.002 72.935 72.797 72.667 72.602 72.49 72.342 72.192 72.097 71.967 71.83 71.695 71.55 71.437 71.317 71.22 71.32 71.672 71.102 70.86 70.785 70.732 70.662 71.785 72.082 70.265 70.062 70.235 71.445 72.98 75.287 76.702 76.56 76.81 76.86 76.842 76.715 75.987 74.737 73.042 71.355 70.397 69.387 68.052 67.837 67.877 67.305 66.805 66.735 66.755 66.642 66.575 66.552 66.562 68.1 71.815 73.632 74.997 73.46 70.44 68.342 67.465 66.56 66.737 65.975 65.567 65.545 65.75 65.505 65.73 69.657 71.657 72.545 72.072 70.467 65.587 65.062 64.772 64.637 64.517 64.377 64.312 64.105 63.877 63.745 63.707 63.617 63.57 63.595 63.36 63.252 63.23 63.217 63.387 63.85 64.167 63.805 63.862 63.025 63.03 62.947 62.88 63.12 63.145 64.325 64.955 65.12 63.797 62.642 62.62 62.57 62.515 62.457 62.45 62.435 62.472 62.597 62.59 62.4 62.322 62.93 63.995 64.595 63.605 62.222 62.19 62.185 62.167 62.175 62.157 62.172 62.135 62.087 61.985 61.952 61.972 61.96 61.975 61.967 61.93 61.917 61.9 61.905 61.835 61.785 61.805 61.8 61.76 61.692 61.67 61.552 61.475 61.407 61.387 61.432 61.455 61.412 61.387 61.36 61.355 61.322 61.287 61.285 61.302 61.395 62.492 61.635 60.775 61.795 60.222 59.987 59.937 59.935 59.865 59.992 63.707 61.742 59.635 59.592 59.085 59.072 58.902 58.852 58.765 58.707 58.765 58.745 59.102 59.58 58.997 58.605 58.467 58.487 58.462 58.372 58.43 58.442 58.46 58.547 58.67 58.515 58.477 58.485 58.495 58.5 58.515 58.55 58.595 58.605 58.635 58.72 58.735 60.822 65.23 69.407 70.895 65.627 61.422 59.41 59.395 59.37 59.337 59.335 59.307 59.257 59.27 59.28 59.252 59.285 59.362 59.725 59.93 59.865 59.932 59.847 59.65 59.52 59.279 59.068 58.827 58.692 58.711 59.387 59.191 58.505 58.458 58.301 58.217 58.219 58.223 57.993 57.538 61.625 62.352 64.969 67.26 -9999 -9999 -9999 57.777 59.41 59.63 62.163 61.112 62.201 63.155 63.511 63.344 63.306 63.465 63.807 64.358 64.944 65.292 65.415 65.3 65.227 65.212 65.132 65.007 67.352 66.577 66.16 66.492 66.68 66.875 67.147 67.435 67.827 68.46 69.07 69.637 70.105 70.89 71.645 72.182 72.557 72.84 73.127 73.33 73.455 73.865 74.34
83.43 83.38 83.315 83.16 83.253 84.675 85.493 84.608 83.463 82.783 82.65 82.408 82.265 82.19 82.2 82.228 82.233 82.2 82.148 82.075 82.015 81.998 81.825 81.735 81.643 81.678 81.695 81.635 81.565 82.083 82.933 82.243 81.565 81.063 80.993 80.92 80.808 80.685 80.543 80.468 80.365 80.26 80.365 80.443 80.173 79.743 79.665 79.563 79.398 79.288 79.205 79.145 79.078 78.998 79.293 78.848 78.575 78.425 78.323 78.185 78.043 77.905 77.778 77.685 77.6 77.52 77.475 77.425 77.323 77.245 77.203 77.158 77.115 77.068 77.02 76.98 76.95 76.883 76.813 76.798 76.768 76.7 76.653 76.598 76.563 76.513 76.498 76.49 76.473 76.438 76.443 76.485 76.388 76.18 75.975 75.928 75.863 75.883 75.968 76.058 75.975 75.878 75.778 75.673 75.54 75.418 75.293 75.215 75.143 75.07 74.998 74.943 74.905 74.84 74.763 74.635 74.515 74.44 74.36 74.27 74.206 74.141 74.064 73.966 73.905 73.872 73.845 73.805 73.737 73.747 73.821 73.863 73.82 73.688 73.6 73.527 73.51 73.44 73.327 73.132 73.067 72.977 72.867 72.787 72.685 72.555 72.422 72.28 72.152 72.01 71.892 71.747 71.62 71.495 71.387 71.327 71.715 71.567 71.257 70.925 70.777 70.692 70.747 72.355 70.795 70.25 70.66 70.695 72.467 73.317 74.86 76.112 76.562 76.8 76.892 76.865 76.672 76.127 75.245 72.887 71.342 70.83 68.865 68.22 68.22 67.765 66.995 66.905 66.855 66.807 66.712 66.62 66.537 66.507 67.75 71.277 74.025 74.232 72.53 69.28 69.15 69.035 67.24 66.307 66.025 65.577 65.622 67.257 66.43 67.072 70.952 72.2 72.587 71.617 67.012 64.887 64.925 64.972 64.597 64.512 64.402 64.307 64.125 63.92 63.812 63.617 63.53 63.565 63.402 63.377 63.28 63.27 63.45 63.477 64.585 65.095 65.055 63.18 63.04 63.317 63.59 62.845 62.762 63.1 64.42 64.315 63.635 62.74 62.485 62.487 62.502 62.495 62.557 62.532 62.507 62.512 62.58 62.587 62.355 62.26 62.197 62.142 62.262 62.4 62.147 62.165 62.162 62.12 62.127 62.135 62.135 62.1 62.155 62.167 61.9 61.885 61.915 61.925 61.937 61.89 61.872 61.91 61.885 61.757 61.712 61.702 61.742 61.712 61.66 61.547 61.472 61.427 61.382 61.387 61.427 61.41 61.365 61.342 61.332 61.33 61.277 61.247 61.292 61.237 62.057 63.542 63.152 61.232 61.312 60.905 60.475 60.152 59.925 59.822 59.832 61.05 60.8 59.935 62.43 59.725 60.397 59.017 59.1 58.882 59.585 59.692 59.417 60.245 60.137 60.125 59.727 58.867 58.53 58.522 58.477 58.467 58.515 58.52 58.522 58.54 58.502 58.477 58.49 58.52 58.515 58.532 58.582 58.612 58.672 58.665 58.732 58.845 59.002 59.325 61.322 62.335 59.932 59.392 59.427 59.39 59.412 59.382 59.332 59.302 59.257 59.317 59.345 59.325 59.362 59.425 59.815 60.072 60.24 60.327 60.347 60.18 60.012 59.622 59.461 59.221 58.93 58.856 59.624 59.005 58.656 58.661 58.564 58.716 58.287 58.297 58.284 57.707 57.735 58.687 61.966 -9999 -9999 -9999 -9999 61.963 58.547 58.668 59.213 62.957 62.315 62.225 62.375 62.21 62.099 62.295 62.802 63.441 64.133 64.677 64.882 65.035 65.075 65.017 64.957 64.785 65.26 66.682 66.27 66.485 66.702 66.955 67.287 67.657 68.15 68.677 69.262 69.827 70.28 70.792 71.56 72.022 72.3 72.585 72.82 73.17 73.43 73.615 74.017
83.433 83.46 83.308 83.24 83.39 85.043 87.073 85.36 84.27 83.133 83.568 83.415 82.308 82.228 82.17 82.105 82.108 82.178 82.088 82.098 82.018 81.943 81.85 81.793 81.663 81.668 81.688 81.658 81.578 81.52 81.693 81.803 81.323 81.113 81.043 80.94 80.85 80.745 80.598 80.485 80.38 80.263 80.448 80.293 80.345 80.095 79.648 79.608 79.51 79.413 79.315 79.148 79.058 78.993 79.058 78.815 78.735 78.613 78.485 78.3 78.165 78.013 77.938 77.78 77.665 77.593 77.548 77.47 77.36 77.288 77.258 77.213 77.16 77.078 77.06 77.04 76.975 76.9 76.863 76.828 76.785 76.745 76.733 76.693 76.668 76.6 76.553 76.51 76.458 76.455 76.498 76.5 76.46 76.385 76.138 75.975 75.905 75.863 75.875 76.025 76 75.92 75.85 75.713 75.6 75.48 75.405 75.308 75.185 75.14 75.08 75.065 74.995 74.948 74.833 74.705 74.603 74.52 74.425 74.355 74.308 74.212 74.118 74.061 74.017 73.976 73.943 73.882 73.878 73.947 73.964 73.975 73.861 73.785 73.747 73.697 73.612 73.52 73.425 73.255 73.147 73.04 72.927 72.85 72.75 72.612 72.497 72.347 72.207 72.072 71.93 71.802 71.665 71.565 71.442 71.52 72.742 71.862 71.372 71.032 70.982 70.785 71.12 72.547 70.307 70.162 70.55 71.257 71.59 72.737 74.107 75.335 76.5 76.79 76.915 76.827 76.637 76.222 75.585 72.755 71.855 71.392 68.93 68.577 68.96 67.42 67.002 66.975 66.92 66.825 66.797 66.7 66.61 66.475 66.38 66.325 67.372 70.99 69.19 68.727 69.172 68.912 66.647 66.36 65.635 65.572 65.93 67.485 68.25 69.94 71.8 73.267 72.232 70.362 65.345 65.01 65.002 64.767 64.622 64.512 64.372 64.295 64.147 63.965 63.982 63.745 63.595 63.522 63.44 63.427 63.38 63.257 64.235 63.98 64.842 65.125 64.337 63.057 63.087 64.147 64.985 64.362 63.73 62.912 62.74 62.825 62.652 62.56 62.53 62.462 62.46 62.46 62.585 62.582 62.485 62.525 62.55 62.527 62.37 62.27 62.192 62.212 62.197 62.145 62.087 62.032 62.04 62.07 62.072 62.115 62.095 62.075 61.96 61.942 61.82 61.802 61.805 61.852 61.852 61.84 61.842 61.835 61.755 61.715 61.687 61.66 61.642 61.63 61.602 61.507 61.477 61.45 61.38 61.357 61.39 61.365 61.33 61.317 61.322 61.272 61.235 61.215 61.217 61.24 63.787 63.77 63.045 60.877 60.817 60.907 62.577 60.825 60.215 59.947 59.805 59.735 59.777 59.83 60.682 59.937 62.562 65.122 62.945 59.3 59.825 59.72 59.62 59.552 59.81 60.375 60.617 60.055 58.877 58.527 58.485 59.065 58.55 58.522 58.545 58.607 58.587 58.577 58.572 58.577 58.677 58.837 58.672 58.595 58.68 58.68 58.76 59.062 59.095 59.237 60.177 60.732 59.847 59.372 59.382 59.43 59.45 59.422 59.38 59.312 59.302 59.34 59.34 59.38 59.475 59.787 60.252 60.122 60.32 60.52 60.72 60.607 60.305 60.025 59.86 59.546 59.268 59.073 59.054 58.735 58.685 59.943 63.726 63.951 61.91 58.562 58.23 58.012 57.522 57.686 -9999 -9999 -9999 -9999 -9999 68.215 60.916 60.563 58.789 59.914 61.078 61.519 61.333 61.231 61.077 61.304 61.912 62.554 63.18 63.909 64.635 64.912 64.895 64.895 64.755 64.702 65.31 66.465 66.117 66.42 66.722 67.077 67.46 67.87 68.33 68.787 69.367 69.925 70.41 70.827 71.505 71.927 72.135 72.355 72.565 72.97 73.322 73.517 73.775
83.473 83.49 83.308 83.298 83.555 84.258 85.733 84.148 83.388 83.095 83.063 83.605 83.723 83.695 82.218 82.153 82.073 82.083 82.1 82.075 82.063 82.02 81.92 81.833 81.693 81.603 81.593 81.58 81.553 81.478 81.395 81.34 81.255 81.17 81.075 81.01 80.9 80.785 80.663 80.508 80.4 80.305 80.243 80.355 80.313 80.725 79.648 79.605 79.548 79.49 79.395 79.258 79.148 79.043 78.898 78.815 78.735 78.653 78.595 78.503 78.385 78.273 78.07 77.913 77.79 77.653 77.578 77.478 77.435 77.38 77.318 77.26 77.193 77.145 77.108 77.07 77.02 76.93 76.88 76.853 76.84 76.805 76.798 76.768 76.718 76.643 76.61 76.535 76.485 76.55 76.58 76.545 76.535 76.425 76.323 76.08 75.985 75.89 75.855 75.9 76.028 75.968 75.84 75.703 75.608 75.498 75.438 75.348 75.25 75.24 75.225 75.145 75.095 74.993 74.875 74.75 74.66 74.61 74.538 74.443 74.342 74.272 74.195 74.154 74.247 74.052 74.003 73.994 74.078 74.099 74.117 74.04 73.952 73.888 73.847 73.77 73.697 73.617 73.5 73.34 73.255 73.142 73.012 72.897 72.777 72.672 72.53 72.402 72.275 72.1 71.975 71.84 71.732 71.61 71.5 72.362 72.427 71.377 71.44 71.495 71.242 70.887 71.995 71.477 70.29 70.167 70.185 71.325 71.27 72.792 74.177 75.442 76.525 76.767 76.84 76.79 76.582 75.787 74.91 72.965 71.445 73.525 69.795 68.967 68.977 67.142 67.115 67.067 66.985 66.907 66.85 66.73 66.615 66.54 66.412 66.285 66.165 67.005 66.577 66.337 66.885 67.715 68.642 66.757 66.03 65.565 65.84 66.08 69.507 71.255 72.265 72.66 71.727 67.815 64.895 65.02 65.082 64.785 64.605 64.46 64.352 64.235 64.102 64 63.84 64.025 63.64 63.51 63.435 63.48 63.617 63.34 63.592 64.757 65.127 64.505 63.357 63.075 63.102 64.777 64.69 63.945 64.545 63.087 62.8 62.747 62.592 62.535 62.53 62.485 62.477 62.475 62.48 62.757 62.647 62.507 62.467 62.447 62.42 62.327 62.22 62.22 62.19 62.157 62.105 62.022 61.995 61.965 62 62.037 62.09 62.072 61.975 61.845 61.792 61.74 61.72 61.745 61.75 61.795 61.832 61.782 61.695 61.69 61.67 61.675 61.657 61.625 61.535 61.512 61.477 61.437 61.387 61.362 61.37 61.317 61.272 61.245 61.24 61.247 61.22 61.197 61.172 61.442 63.182 63.72 61.937 60.88 60.847 60.79 60.695 60.677 60.66 62.925 60.055 59.852 59.737 59.69 59.74 60.462 66.412 69.77 60.625 59.395 59.412 59.47 59.642 59.872 59.13 59.16 59.815 60.465 60.197 59.322 58.552 58.502 58.507 58.537 58.525 58.572 58.642 58.622 58.582 58.597 58.77 58.92 58.735 58.63 58.652 58.722 58.715 58.917 59.122 59.072 59.275 59.372 59.357 59.392 59.43 59.97 60.265 59.49 59.455 59.297 59.337 59.352 59.347 59.417 59.485 60.36 60.462 60.58 60.57 60.645 60.652 60.537 60.322 60.022 59.835 59.596 59.655 60.003 59.362 58.988 58.708 60.39 66.062 67.267 65.53 60.672 58.218 58.149 57.94 57.609 -9999 -9999 -9999 70.377 68.494 70.51 68.512 63.818 61.742 62.098 60.158 60.532 60.398 60.354 60.234 60.345 61.112 61.717 63.329 63.055 63.631 64.152 64.742 64.707 64.577 64.612 64.862 65.455 65.95 66.33 66.622 67.01 67.45 67.905 68.315 68.73 69.282 69.902 70.427 70.86 71.345 71.842 72.01 72.145 72.332 72.722 73.177 73.42 73.625
83.523 83.538 83.338 83.37 83.435 83.53 83.613 83.56 83.363 83.21 83.078 83.08 83.263 83.288 82.68 82.34 82.148 82.085 82.02 81.995 82.023 82.01 81.96 81.855 81.8 81.683 81.528 81.5 81.44 81.438 81.37 81.34 81.26 81.14 81.068 80.98 80.893 80.743 80.618 80.528 80.428 80.288 80.138 80.11 80.01 79.868 79.68 79.58 79.513 79.48 79.43 79.285 79.18 79.088 78.98 78.898 78.785 78.663 78.54 78.453 78.405 78.395 78.283 78.085 77.903 77.753 77.69 77.585 77.488 77.438 77.348 77.27 77.233 77.245 77.155 77.105 77.053 76.988 76.928 76.88 76.873 76.868 76.83 76.778 76.73 76.708 76.678 76.588 76.55 76.608 76.653 76.6 76.558 76.468 76.368 76.225 76.05 75.96 75.903 75.84 75.878 75.993 75.9 75.778 75.645 75.553 75.485 75.398 75.335 75.305 75.263 75.21 75.143 75.06 74.98 74.83 74.713 74.608 74.544 74.477 74.421 74.33 74.291 74.239 74.177 74.127 74.143 74.234 74.259 74.251 74.196 74.138 74.071 73.998 73.907 73.837 73.765 73.71 73.58 73.447 73.325 73.212 73.082 72.952 72.817 72.682 72.537 72.397 72.26 72.122 71.99 71.87 71.745 71.667 71.662 72.46 71.66 71.372 71.227 71.217 71.09 71.542 72.42 70.887 70.345 70.237 70.442 72.185 71.627 73.092 74.505 75.607 76.595 76.792 76.887 76.832 76.61 75.742 74.55 73.195 71.272 69.77 70.98 71.22 69.62 67.205 67.165 67.15 67.107 67.077 66.94 67.005 67.297 66.535 66.44 66.297 66.187 66.097 66.015 65.985 66.032 67.58 66.647 66.675 65.727 65.672 65.707 65.7 69.467 71.767 72.722 72.335 70.6 65.232 64.957 64.982 64.947 64.755 64.61 64.49 64.385 64.245 64.12 63.97 64.067 63.795 63.67 63.675 63.712 63.605 63.42 63.307 64.29 65.05 65.277 64.157 63.135 63.072 63.062 63.227 63.32 64.592 64.65 64.775 63.68 64.287 63.377 62.587 62.507 62.447 62.445 62.457 62.512 62.765 62.93 62.805 62.565 62.425 62.422 62.407 62.372 62.275 62.152 62.08 62.007 61.995 61.985 62.03 61.987 62.012 62.067 62.047 61.927 61.82 61.802 61.76 61.757 61.735 61.69 61.715 61.745 61.685 61.67 61.675 61.687 61.695 61.642 61.587 61.5 61.49 61.46 61.395 61.392 61.37 61.345 61.29 61.262 61.267 61.245 61.24 61.187 61.147 61.22 61.612 63.355 61.91 60.92 60.85 60.807 60.745 60.647 60.55 60.457 60.435 60.352 60.242 60.205 59.81 59.647 59.612 60.535 62.172 59.72 59.59 59.832 59.352 59.447 60.197 59.117 59.035 59.122 59.882 60.147 60.175 59.735 58.6 58.59 58.582 58.55 58.527 58.585 58.617 58.59 58.627 58.755 58.79 58.75 58.65 58.695 58.777 58.762 58.857 59.01 59.107 59.305 59.467 59.442 59.5 59.512 60.04 59.812 59.81 59.61 59.317 59.372 59.365 59.35 59.402 59.487 59.93 60.36 60.702 60.765 60.705 60.472 60.235 60.24 59.997 59.587 59.442 59.523 59.544 59.245 59.183 58.705 59.875 61.994 68.425 65.184 61.623 58.397 58.195 58.23 57.905 -9999 -9999 -9999 69.379 69.184 68.643 71.197 62.638 59.649 58.64 59.212 59.684 59.635 59.442 59.444 59.771 60.002 60.637 61.515 62.007 62.878 63.836 64.032 65.325 65.087 64.555 64.905 65.455 65.902 66.265 66.56 66.91 67.272 67.717 68.135 68.567 69.095 69.655 70.237 70.73 71.17 71.685 71.86 71.985 72.152 72.45 72.905 73.25 73.417
83.595 83.535 83.378 83.713 83.755 83.648 83.608 83.538 83.42 83.253 83.19 83.113 83.37 83.513 83.253 83.45 82.428 82.25 82.078 82 81.968 81.938 81.968 81.915 81.893 81.748 81.675 81.545 81.44 81.288 81.253 81.213 81.13 81.05 80.975 80.925 80.8 80.675 80.58 80.473 80.388 80.248 80.103 80.02 79.918 79.8 79.698 79.588 79.498 79.468 79.388 79.29 79.203 79.103 79.028 78.958 78.903 78.793 78.618 78.45 78.37 78.318 78.243 78.193 78.118 77.985 77.86 77.703 77.603 77.538 77.43 77.33 77.27 77.263 77.215 77.11 77.063 77.033 77.008 76.955 76.913 76.873 76.805 76.753 76.76 76.788 76.748 76.615 76.565 76.628 76.638 76.603 76.568 76.488 76.458 76.343 76.203 76.035 75.943 75.855 75.795 75.8 75.848 75.805 75.683 75.593 75.505 75.438 75.42 75.403 75.32 75.238 75.12 74.993 74.885 74.788 74.755 74.69 74.612 74.538 74.46 74.427 74.376 74.31 74.249 74.302 74.394 74.413 74.377 74.341 74.272 74.214 74.127 74.055 74.002 73.917 73.845 73.752 73.655 73.54 73.422 73.317 73.145 72.995 72.845 72.72 72.552 72.422 72.257 72.115 72 71.867 71.76 71.66 71.962 73.775 71.762 71.707 71.6 71.445 71.442 72.195 74.112 76.395 72.02 70.305 70.87 72.3 71.735 73.315 74.747 75.84 76.642 76.767 76.865 76.777 76.547 75.847 74.645 73.027 71.025 70.025 73.415 69.232 67.697 67.28 67.282 67.227 67.147 67.117 67.012 67.082 67.027 66.565 66.417 66.362 66.24 66.12 66.035 65.922 65.822 65.87 66.5 65.772 65.702 66.537 65.83 67.572 70.962 72.257 72.735 71.467 67.667 65.047 65.087 65.097 64.98 64.95 64.615 64.497 64.38 64.267 64.18 64.057 63.937 63.71 63.687 63.657 63.687 64.092 63.817 63.987 65.115 65.28 65.32 63.41 63.125 63.082 63.015 63.085 63.142 64.657 64.525 64.277 62.857 64.002 64.51 64.475 63.827 62.85 62.442 62.457 62.502 62.832 62.712 62.825 62.457 62.437 62.467 62.375 62.392 62.365 62.242 62.09 61.995 61.955 61.997 62.005 61.992 62.05 62.105 62.002 61.872 61.832 61.82 61.777 61.772 61.74 61.655 61.647 61.622 61.585 61.595 61.645 61.665 61.702 61.622 61.517 61.477 61.475 61.437 61.39 61.392 61.402 61.337 61.255 61.272 61.275 61.257 61.227 61.175 61.162 61.365 62.305 63.32 61.015 60.917 60.857 60.795 60.727 60.682 60.58 60.46 60.34 60.227 60.14 60.415 60.38 59.94 59.692 59.62 59.602 59.625 59.677 59.687 59.572 59.855 60.212 59.567 59.045 59.51 59.845 60.442 60.287 59.975 59.217 58.68 58.637 58.632 58.612 58.595 58.617 58.607 58.622 58.635 58.722 58.63 58.67 58.782 58.87 58.915 59.062 59.072 59.082 59.285 59.427 59.48 59.477 59.567 59.472 59.88 60.075 59.632 59.397 59.715 59.765 59.477 61.69 59.472 60.217 60.107 60.49 60.672 60.67 60.577 60.432 60.312 60.052 59.737 59.567 59.306 59.168 59.028 58.92 58.655 59.212 61.18 64.933 64.066 60.336 58.414 58.21 58.248 58.137 57.576 57.712 -9999 -9999 67.274 65.874 66.044 67.118 64.673 65.779 58.636 58.965 59.224 59.709 59.066 59.177 59.334 59.823 60.517 61.461 62.828 62.868 64.062 64.415 64.98 65.022 64.932 65.47 65.897 66.232 66.46 66.805 67.197 67.51 67.887 68.312 68.892 69.495 70.042 70.547 70.985 71.407 71.652 71.767 71.91 72.15 72.58 72.945 73.075
83.66 83.585 83.508 84.585 85.773 83.808 83.745 83.825 83.57 83.418 83.203 83.315 83.178 83.975 86.053 84.288 83.9 84.135 83.503 82.843 82.038 81.998 81.885 81.9 81.878 81.84 81.703 81.588 81.53 81.375 81.235 81.028 80.995 80.92 80.883 80.823 80.713 80.638 80.533 80.438 80.343 80.203 80.113 80.025 79.925 79.788 79.68 79.603 79.488 79.415 79.358 79.283 79.198 79.093 79.035 79.01 78.963 78.87 78.783 78.648 78.485 78.345 78.223 78.145 78.093 78.043 77.978 77.893 77.785 77.635 77.503 77.423 77.388 77.33 77.288 77.225 77.178 77.123 77.08 76.998 76.955 76.91 76.845 76.833 76.848 76.848 76.793 76.668 76.638 76.675 76.608 76.565 76.54 76.538 76.528 76.415 76.323 76.193 76.008 75.888 75.81 75.738 75.68 75.645 75.648 75.575 75.533 75.453 75.368 75.245 75.17 75.125 75.055 75.005 74.968 74.893 74.795 74.736 74.692 74.623 74.562 74.488 74.448 74.426 74.477 74.502 74.521 74.519 74.472 74.439 74.356 74.306 74.208 74.13 74.07 74.002 73.895 73.79 73.72 73.602 73.512 73.422 73.257 73.107 72.88 72.745 72.575 72.405 72.242 72.135 72.02 71.892 71.8 72.192 72.052 72.13 72.212 72.052 72.042 71.982 72.572 73.507 76.082 79.455 75.46 70.377 71.175 71.66 71.807 73.335 74.757 75.822 76.565 76.77 76.88 76.772 76.715 75.555 74.232 72.762 71.522 69.64 69.267 68.082 67.405 67.422 67.367 67.3 67.25 67.237 67.36 67.395 68.36 66.62 66.445 66.887 66.907 66.707 66.022 65.96 65.907 65.855 65.792 65.705 65.66 66.737 67.827 70.132 71.765 72.887 72.387 70.442 65.337 65.407 65.03 65.02 64.802 64.762 64.777 64.65 64.357 64.262 64.205 64.13 63.992 63.83 63.712 63.617 63.67 63.85 65.065 64.88 65.312 65.107 63.88 63.222 63.145 63.125 63.037 64.25 64.867 64.495 63.922 62.987 63.072 62.777 62.89 63.39 64.14 63.932 62.527 62.642 63.175 63.067 62.635 62.52 62.402 62.412 62.427 62.407 62.645 62.327 62.287 62.205 62.1 61.992 61.97 61.957 61.982 62.067 62.115 61.935 61.817 61.8 61.777 61.745 61.735 61.742 61.66 61.63 61.595 61.537 61.53 61.557 61.607 61.65 61.572 61.46 61.457 61.475 61.452 61.407 61.39 61.362 61.275 61.285 61.265 61.27 61.247 61.24 61.18 61.405 61.497 61.55 61.66 60.942 60.917 60.892 60.822 60.757 60.707 60.577 60.447 60.34 60.215 60.135 60.027 60.235 60.547 60.01 59.775 59.647 59.565 59.56 59.58 59.672 60.05 60.707 59.69 59.672 60.63 60.475 59.877 59.417 60.13 59.295 58.67 58.75 58.695 58.687 58.66 58.635 58.67 58.662 59.312 62.83 61.672 58.725 58.837 58.952 58.99 59.222 59.155 59.147 59.222 59.277 59.367 59.57 59.912 59.77 59.86 59.697 59.48 59.35 61.552 62.617 62.402 65.69 63.31 62.712 59.882 60.212 60.445 60.227 60.402 61.665 60.19 59.582 59.37 59.545 59.382 59.269 59.246 59.05 58.649 58.571 59.433 59.819 59.543 59.835 58.534 58.274 58.21 58.261 58.021 57.29 -9999 -9999 65.536 66.472 66.889 67.269 61.491 62.123 58.537 58.57 58.671 58.706 59.418 58.996 59.198 59.434 59.675 60.225 60.963 62.764 64.32 63.932 64.052 64.912 65.115 65.4 65.792 66.15 66.392 66.742 67.11 67.417 67.725 68.115 68.655 69.277 69.88 70.45 70.897 71.18 71.462 71.542 71.787 71.915 72.185 72.577 72.705
83.653 83.618 83.68 85.195 85.433 86.223 84.378 84.215 84.72 83.713 83.223 83.66 83.495 83.145 86.393 83.898 82.953 83.83 83.948 84.39 83.468 82.24 82.005 81.89 81.8 81.768 81.753 81.623 81.54 81.425 81.323 81.165 81.01 80.84 80.735 80.658 80.6 80.518 80.423 80.358 80.275 80.185 80.108 80.035 79.955 79.798 79.65 79.568 79.493 79.38 79.32 79.24 79.198 79.11 79.04 79.013 78.948 78.905 78.818 78.698 78.608 78.498 78.373 78.238 78.11 78.015 77.928 77.875 77.86 77.83 77.72 77.583 77.445 77.4 77.363 77.31 77.258 77.203 77.123 77.045 76.978 76.958 76.938 76.938 76.933 76.92 76.845 76.748 76.718 76.688 76.648 76.608 76.575 76.53 76.478 76.448 76.425 76.315 76.145 75.945 75.86 75.795 75.72 75.62 75.56 75.515 75.47 75.438 75.355 75.288 75.238 75.21 75.15 75.075 75 74.945 74.868 74.81 74.741 74.67 74.617 74.602 74.664 74.682 74.612 74.575 74.614 74.586 74.577 74.559 74.514 74.396 74.31 74.245 74.257 74.077 73.97 73.855 73.767 73.667 73.595 73.487 73.377 73.197 73.01 72.792 72.582 72.42 72.287 72.15 72.027 71.88 71.902 74.577 73.762 72.605 72.815 72.322 72.335 72.785 73.865 75.64 78.34 77.665 77.17 71.037 70.51 70.962 71.907 73.445 74.75 75.752 76.602 76.755 76.82 76.777 76.577 75.53 74.187 72.457 71.455 69.647 68.68 67.655 67.522 67.52 67.442 67.362 67.302 67.362 67.222 70.6 72.94 72.42 69.817 67.352 66.505 66.967 66.167 66.022 65.922 65.887 65.835 65.73 65.632 65.637 66.237 70.762 72.262 72.717 71.855 68.415 65.317 65.082 65.19 64.892 64.802 64.717 64.66 64.547 64.42 64.37 64.27 64.172 64.025 63.88 63.845 63.73 63.66 64.517 65.572 65.675 64.77 64.892 63.355 63.185 63.162 63.155 63.465 65.015 65.365 65.175 64.995 63.045 62.717 62.635 62.612 62.535 62.545 62.64 62.572 62.817 63.65 63.155 62.47 62.402 62.357 62.35 62.322 62.345 62.31 62.29 62.337 62.445 62.215 62.12 62.065 62.145 62.11 62.097 62.015 61.825 61.792 61.765 61.73 61.71 61.662 61.662 61.665 61.607 61.565 61.545 61.515 61.517 61.557 61.58 61.502 61.417 61.387 61.412 61.412 61.405 61.382 61.32 61.262 61.27 61.25 61.27 61.247 61.24 61.195 61.675 61.615 61.28 61.105 60.975 60.925 60.897 60.857 60.81 60.74 60.627 60.482 60.345 60.21 60.112 60.04 59.975 59.96 60.082 60.002 60.05 59.692 59.585 59.59 59.532 59.675 59.96 59.977 60.84 61.18 60.485 62.605 61.875 62.162 58.91 58.76 58.75 58.845 58.782 58.78 58.675 58.655 58.92 62.797 68.44 63.977 58.905 58.875 58.945 59.182 59.457 59.355 59.175 59.28 59.315 59.307 59.51 60.212 60.317 59.88 59.622 59.447 59.452 62.987 67.905 69.01 68.285 67.865 63.927 59.847 60.065 60.137 59.89 59.697 60.127 60.497 59.315 58.99 59.185 59.018 59.024 59.015 58.816 58.886 58.907 58.642 58.483 58.558 58.606 58.595 58.496 58.206 58.245 58.172 57.672 58.047 59.797 62.63 64.754 65.58 67.895 66.691 59.661 60.772 58.485 58.46 58.48 58.809 59.124 58.885 59.093 59.379 60.122 60.58 61.923 62.581 62.88 63.905 67.382 66.375 65.237 65.65 66.02 66.307 66.69 67.042 67.357 67.637 67.957 68.572 69.112 69.567 70.16 70.547 70.732 70.762 70.85 71.102 71.35 71.6 71.78 71.995
83.643 83.65 83.698 84.705 84.373 84.2 85.695 86.695 85.5 83.473 83.2 83.173 83.455 84.073 84.845 83.693 82.95 82.783 82.653 82.985 83.808 83.7 82.638 82.065 81.938 81.828 81.695 81.598 81.563 81.493 81.355 81.26 81.09 80.968 80.788 80.613 80.428 80.393 80.325 80.253 80.178 80.14 80.08 80.03 79.923 79.8 79.643 79.558 79.49 79.428 79.338 79.228 79.16 79.105 79.05 78.993 78.93 78.9 78.875 78.795 78.733 78.63 78.538 78.405 78.28 78.16 77.993 77.883 77.823 77.823 77.76 77.733 77.663 77.52 77.438 77.375 77.3 77.268 77.205 77.12 77.043 77.033 77.03 77.013 77.045 77.053 76.96 76.825 76.78 76.735 76.7 76.66 76.638 76.58 76.515 76.448 76.405 76.403 76.35 76.205 75.99 75.88 75.785 75.73 75.675 75.625 75.558 75.503 75.46 75.423 75.355 75.31 75.235 75.168 75.078 75.008 74.951 74.864 74.823 74.838 74.872 74.875 74.818 74.756 74.691 74.69 74.744 74.712 74.691 74.688 74.62 74.531 74.44 74.33 74.245 74.172 74.067 73.94 73.797 73.712 73.65 73.56 73.412 73.28 73.127 72.912 72.765 72.86 72.32 72.175 72.045 71.94 72.017 72.915 74.225 73.355 73.662 72.65 72.555 72.275 73.255 73.807 76.527 75.535 77.73 72.41 70.332 70.507 71.692 73.335 75.76 76.235 76.625 76.72 76.837 76.77 76.675 75.145 73.667 72.04 70.75 70.122 68.205 67.575 67.595 67.547 67.497 67.435 67.377 67.722 68.777 72.64 74.38 75.28 74.415 71.642 67.147 66.242 66.265 66.535 65.86 65.83 65.772 65.71 65.627 65.795 66.375 65.752 67.742 69.665 70.87 65.627 65.232 65.027 64.987 64.885 64.777 64.76 64.637 64.547 64.482 64.467 64.402 64.357 64.017 63.917 63.837 63.775 63.74 65.337 65.737 65.587 64.555 63.352 63.287 63.232 63.642 63.692 63.37 64.682 68.292 69.86 65.702 62.845 62.79 62.69 62.59 62.52 62.527 62.655 62.635 62.722 62.815 62.727 62.61 62.445 62.52 62.345 62.337 62.312 62.282 62.237 62.197 62.225 62.21 62.147 62.122 62.155 62.25 62.187 61.945 61.792 61.765 61.715 61.665 61.662 61.607 61.605 61.602 61.6 61.567 61.542 61.537 61.585 61.545 61.527 61.435 61.392 61.37 61.387 61.37 61.372 61.35 61.29 61.237 61.227 61.242 61.24 61.227 61.212 61.222 62.422 61.427 61.25 61.132 61.042 60.99 60.952 60.927 60.837 60.807 60.695 60.542 60.4 60.257 60.14 60.042 59.965 59.92 59.92 59.932 59.982 59.847 59.742 59.615 59.562 59.492 59.602 60.07 60.802 61.01 61.85 61.422 63.922 61.58 60.237 60.912 59.2 58.89 59.045 58.89 58.795 58.69 58.645 58.88 61.42 59.37 58.97 58.932 59.067 59.062 59.36 59.242 59.157 59.372 59.55 59.52 59.437 59.89 59.885 59.882 59.645 59.622 59.53 62.065 68.51 68.575 70.707 68.595 60.517 59.76 59.977 60.14 59.897 59.787 60.375 61.367 60.042 59.347 59.122 58.875 58.925 58.868 58.661 58.79 59.009 58.44 58.455 58.515 58.62 58.658 58.578 58.292 58.21 58.231 58.01 -9999 -9999 66.187 66.647 64.504 67.346 61.92 63.405 60.5 58.56 58.495 58.43 58.496 60 58.808 58.991 59.377 59.803 60.359 61.361 61.963 62.562 63.525 65.235 64.652 64.8 65.322 65.73 66.135 66.482 66.85 67.242 67.577 67.932 68.947 69.095 69.14 69.817 69.905 70.095 70.125 70.567 70.735 71.045 71.257 71.345 71.522
83.585 83.703 83.72 83.835 84.083 83.978 84.273 85.755 84.225 83.385 83.27 83.18 83.125 83.138 83.528 84.143 83.02 82.82 82.735 82.675 83.195 83.968 84.24 84.183 82.248 81.903 81.838 81.67 81.533 81.448 81.355 81.263 81.123 81.008 80.885 80.733 80.538 80.37 80.193 80.128 80.088 80.048 80.003 79.943 79.853 79.758 79.633 79.56 79.513 79.458 79.373 79.243 79.155 79.108 79.05 78.99 78.968 78.905 78.918 78.873 78.808 78.725 78.643 78.533 78.425 78.335 78.225 78.075 77.978 77.825 77.785 77.705 77.678 77.605 77.583 77.56 77.51 77.515 77.395 77.218 77.203 77.15 77.12 77.103 77.108 77.09 76.98 76.903 76.833 76.738 76.733 76.675 76.663 76.613 76.515 76.475 76.473 76.445 76.455 76.423 76.273 76.08 75.913 75.843 75.773 75.728 75.673 75.615 75.553 75.498 75.425 75.348 75.275 75.213 75.165 75.128 75.104 75.112 75.155 75.147 75.12 75.02 74.884 74.818 74.78 74.779 74.804 74.802 74.806 74.783 74.741 74.647 74.54 74.433 74.34 74.255 74.145 74.037 73.897 73.785 73.685 73.597 73.5 73.377 73.227 73.055 72.962 73.87 72.382 72.227 72.09 72.057 72.285 72.627 72.93 73.222 72.915 72.93 72.605 72.685 73.887 71.725 70.825 71.425 72.742 70.472 71.052 70.915 71.925 73.805 76.937 76.325 76.64 76.747 76.815 76.76 76.725 74.495 73.717 74.255 71.135 68.837 67.805 67.69 67.667 67.622 67.595 67.522 67.672 67.882 71.257 74.08 75.55 75.312 73.622 69.45 66.945 66.455 66.167 66.022 65.85 65.82 65.74 65.687 65.605 65.545 65.595 65.377 65.527 66.142 65.802 65.315 65.14 65.09 65.015 64.902 64.825 64.752 64.632 64.537 64.512 64.432 64.3 64.217 64.417 64.365 63.85 63.827 64.75 65.542 65.527 65.24 63.555 63.325 63.297 63.267 63.625 64.785 63.092 64.66 69.777 71.232 65.472 62.695 62.692 62.68 62.612 62.577 62.537 62.73 62.912 62.897 62.955 62.702 62.592 62.742 63.847 62.417 62.387 62.317 62.255 62.195 62.177 62.115 62.077 62.047 62.052 62.052 62.017 62.032 61.835 61.772 61.742 61.7 61.655 61.61 61.562 61.565 61.56 61.577 61.54 61.565 61.625 61.605 61.595 61.485 61.402 61.337 61.327 61.325 61.317 61.322 61.305 61.232 61.2 61.22 61.227 61.23 61.192 61.197 61.22 61.47 61.217 61.147 61.115 61.047 61.02 60.97 60.97 60.925 60.827 60.717 60.575 60.422 60.317 60.197 60.08 60.017 59.96 59.945 59.935 59.942 59.94 59.817 59.74 59.612 59.615 59.495 59.487 59.755 60.242 60.407 60.242 60.415 59.945 59.937 62.02 61.915 59.525 65.475 64.737 58.912 58.79 58.622 58.81 59.057 60.675 61.215 59.005 59.257 59.057 59.075 59.132 59.11 59.285 59.835 59.64 59.605 59.687 59.735 59.662 59.905 59.61 59.535 59.847 63.475 66.622 70.262 66.27 60.662 59.497 59.817 59.942 59.617 59.552 60.02 59.97 59.99 59.822 59.152 58.882 58.85 58.818 58.524 58.559 58.495 58.304 58.437 58.559 58.655 58.912 58.61 58.389 58.143 58.258 58.195 57.812 59.567 -9999 -9999 64.892 64.838 66.349 61.757 61.826 59.252 58.456 58.428 58.468 58.84 58.691 58.947 59.384 59.948 60.439 60.972 61.465 62.042 62.837 63.977 64.49 64.522 65.025 65.462 65.83 66.127 66.415 66.8 67.155 67.647 69.487 69.22 68.29 69.18 69.305 69.517 69.827 70.257 70.445 70.802 71.125 71.355 71.832
83.635 83.75 83.798 83.948 84.093 83.94 83.773 83.923 83.568 83.428 83.325 83.23 83.175 83.08 83.008 83.03 82.99 83.203 82.873 82.75 82.725 82.613 83.515 84.465 83.46 82.163 81.868 81.768 81.633 81.508 81.298 81.2 81.1 81.02 80.865 80.78 80.58 80.448 80.285 80.115 79.98 79.87 79.835 79.803 79.773 79.703 79.62 79.573 79.525 79.488 79.368 79.31 79.363 79.115 79.068 79.02 79.01 78.978 78.925 78.88 78.815 78.748 78.68 78.628 78.518 78.445 78.335 78.215 78.14 78.055 77.93 77.815 77.708 77.608 77.588 77.555 77.533 78.45 77.47 77.345 77.215 77.198 77.183 77.145 77.143 77.123 77.028 76.945 76.863 76.773 76.755 76.698 76.643 76.643 76.593 76.555 76.495 76.498 76.52 76.483 76.433 76.41 76.305 76.098 75.96 75.83 75.745 75.695 75.6 75.563 75.493 75.43 75.403 75.375 75.345 75.364 75.322 75.288 75.265 75.216 75.181 75.092 74.976 74.901 74.885 74.879 74.915 74.931 74.924 74.94 74.859 74.758 74.62 74.55 74.415 74.312 74.212 74.122 73.977 73.867 73.747 73.66 73.602 73.48 73.332 73.147 72.952 72.722 72.482 72.295 72.2 72.375 72.81 72.715 73.09 73.342 73.32 73.265 73.177 72.322 72.962 74.047 70.82 70.727 70.687 70.522 71.66 72.405 72.525 73.68 75.347 75.982 76.647 76.7 76.822 76.797 76.93 73.302 72.712 71.795 70.477 68.427 67.8 67.757 67.75 67.702 67.697 67.592 67.837 68.805 72.932 74.647 75.522 74.717 72.645 69.997 68.235 66.437 66.807 66.675 66.122 65.867 65.725 65.642 65.56 65.512 65.475 65.39 65.34 65.592 65.457 65.247 65.147 65.255 65.117 64.972 64.885 64.802 64.71 64.622 64.535 64.41 64.285 64.29 64.227 64.795 64.922 64.017 64.79 65.43 65.78 65.037 63.732 63.39 63.345 63.367 63.87 65.44 65.252 65.967 66.515 66.175 64.195 62.795 62.795 62.717 62.625 62.595 62.725 62.845 62.825 62.882 63.367 63.295 62.56 63.415 63.477 62.36 62.37 62.342 62.23 62.132 62.14 62.087 62.047 62.012 62.03 62.077 62.09 62.007 61.91 61.812 61.772 61.732 61.64 61.597 61.55 61.54 61.527 61.545 61.542 61.575 61.617 61.607 61.567 61.457 61.38 61.33 61.297 61.292 61.277 61.29 61.265 61.205 61.182 61.197 61.197 61.215 61.185 61.127 61.435 61.257 61.14 61.097 61.075 61.047 60.977 60.957 60.977 60.935 60.83 60.707 60.607 60.467 60.335 60.227 60.15 60.087 59.985 59.95 59.93 59.962 59.99 59.877 59.847 59.735 59.68 59.507 59.4 59.43 59.592 59.96 61.155 61.735 61.4 60.86 60.007 60.432 60.435 70.217 63.325 62.085 59.605 58.707 58.767 58.87 58.892 59.137 59.182 59.122 59.027 58.962 59.057 59.102 59.22 59.565 59.517 59.715 59.815 59.647 59.995 60.002 59.822 59.852 59.582 61.737 65.405 63.865 61.692 59.312 59.39 59.665 59.752 59.655 59.632 59.68 59.377 59.332 59.282 59.102 58.862 58.842 58.793 58.506 58.461 58.372 58.178 58.362 59.014 58.834 59.606 58.738 58.47 58.226 58.241 58.233 58.075 -9999 -9999 59.117 64.882 65.317 61.114 60.034 58.844 59.163 58.488 58.507 58.505 58.572 58.814 59.137 59.508 59.997 60.404 60.816 61.466 62.032 62.752 63.427 63.937 64.46 65.035 65.387 65.585 65.85 66.147 66.532 66.585 66.687 67.76 67.9 67.887 68.505 68.95 69.412 69.76 70.03 70.292 70.715 71.125 71.43 73.16
83.76 83.775 83.828 83.96 84.118 84.26 83.843 83.748 83.61 83.51 83.405 83.328 83.235 83.143 83.055 82.973 82.88 82.955 83.125 83.273 83.228 82.658 82.773 83.23 83.838 82.28 81.993 81.843 81.688 81.57 81.428 81.215 80.99 80.943 80.843 80.765 80.625 80.453 80.323 80.22 80.058 79.89 79.765 79.675 79.645 79.62 79.568 79.525 79.49 79.435 79.605 80.265 80.078 79.768 79.143 79.088 79.06 79.023 78.958 78.898 78.838 78.79 78.668 78.768 79.185 78.53 78.398 78.323 78.22 78.15 78.088 78.018 77.883 77.765 77.62 77.563 77.518 77.495 77.465 77.45 77.413 77.328 77.275 77.208 77.123 77.128 77.035 77.003 76.888 76.815 76.753 76.708 76.67 76.67 76.658 76.585 76.555 76.575 78.188 78.205 77.198 76.548 76.49 76.355 76.213 76.108 76.025 75.955 75.895 75.825 75.763 75.688 75.598 75.54 75.489 75.451 75.421 75.404 75.364 75.278 75.233 75.142 75.129 75.077 75.031 75.031 75.04 75.029 75.018 75.015 74.939 74.83 74.74 74.62 74.527 74.44 74.297 74.192 74.067 73.962 73.85 73.737 73.665 73.55 73.417 73.24 73.03 72.827 72.607 72.412 72.582 72.937 74.34 73.762 73.727 72.887 72.86 72.647 72.915 74.992 72.297 71.777 70.885 70.785 70.78 70.585 70.475 70.9 72.237 73.742 74.787 75.962 76.67 76.747 76.825 76.742 76.46 73.247 72.017 70.675 69.145 68.052 67.89 67.852 67.847 67.8 67.745 67.685 67.745 71.115 74.195 75.28 75.29 74.1 70.122 69.57 67.455 67.645 68.417 66.827 66.835 65.917 66.485 65.747 65.62 65.512 65.41 65.33 65.33 65.272 65.212 65.205 65.2 65.257 65.447 65.247 64.972 64.825 64.75 64.695 64.64 64.605 64.422 64.345 64.315 64.255 64.712 65.207 64.312 64.117 64.135 65.247 64.045 63.5 63.422 63.635 64.242 64.24 64.785 65.482 63.51 63.435 62.995 62.885 62.86 62.705 62.617 62.69 63.11 62.945 62.957 62.995 64.185 63.217 62.64 63.66 63.902 62.622 62.385 62.342 62.257 62.205 62.13 62.08 62.055 62.032 62.037 62.112 62.022 61.88 61.852 61.752 61.717 61.735 61.685 61.617 61.585 61.532 61.512 61.512 61.505 61.545 61.63 61.622 61.517 61.39 61.352 61.3 61.28 61.265 61.277 61.227 61.192 61.165 61.165 61.155 61.17 61.177 61.152 61.147 61.427 61.122 61.112 61.067 60.98 60.992 60.947 60.952 60.95 60.89 60.785 60.685 60.56 60.475 60.342 60.24 60.147 60.057 59.987 59.97 59.96 59.865 59.915 59.822 60.185 60.712 59.935 59.535 59.392 59.37 59.4 59.422 60.067 60.237 59.877 60.337 60.652 59.547 59.877 60.332 60.125 61.127 59.75 58.915 58.885 58.94 58.927 58.892 59.03 58.947 58.97 59.125 58.98 59.082 59.282 59.455 59.565 59.577 59.585 59.782 59.845 59.91 59.87 59.762 59.57 60.327 61.857 61.66 59.725 59.315 59.317 59.465 59.512 59.485 59.417 59.287 59.335 59.392 59.305 59.297 58.977 58.742 58.934 58.871 58.58 58.373 58.165 58.189 58.913 58.591 58.732 58.643 58.49 58.317 58.199 58.237 58.147 57.542 56.612 59.412 59.957 -9999 63.064 60.434 58.317 59.174 59.531 58.58 58.532 58.627 59 59.293 59.637 60.038 60.451 60.938 61.688 62.27 62.81 63.235 64.01 64.687 65.025 65.17 65.257 65.467 65.867 66.167 66.282 66.455 66.817 67.227 67.745 68.285 68.885 69.29 69.645 69.847 70.007 70.452 71.09 71.455 72.342
83.838 83.83 83.92 84.05 84.065 84.03 83.97 83.833 83.663 83.588 83.478 83.39 83.303 83.213 83.125 83.068 82.965 82.878 82.818 82.86 83.248 83.678 84.438 84.45 82.773 82.19 82.068 81.968 81.83 81.655 81.485 81.298 81.145 80.968 80.79 80.665 80.575 80.493 80.373 80.223 80.135 79.998 79.853 79.73 79.56 79.473 79.418 79.425 79.413 79.353 79.433 79.928 80.378 80.408 79.145 79.118 79.095 79.095 79.048 78.99 78.91 78.805 78.775 78.813 78.953 78.855 78.528 78.413 78.355 78.298 78.218 78.185 78.113 78.035 77.915 77.783 77.635 77.528 77.445 77.42 77.375 77.355 77.345 77.298 77.16 77.133 77.063 77.045 76.948 76.87 76.798 76.783 76.708 76.71 76.705 76.658 76.62 77.525 79.563 79.705 79.553 78.235 77.47 76.473 76.38 76.263 76.168 76.115 76.063 75.968 75.933 75.84 75.74 75.673 75.614 75.558 75.543 75.508 75.453 75.363 75.296 75.24 75.236 75.269 75.282 75.323 75.17 75.163 75.138 75.096 75.032 74.933 74.848 74.753 74.632 74.485 74.39 74.26 74.175 74.047 73.925 73.817 73.745 73.622 73.477 73.325 73.145 72.96 72.737 72.665 73.032 72.862 73.542 73.185 73.33 72.932 72.905 72.905 74.835 75.312 72.3 71.082 70.947 70.987 71.075 70.67 70.607 70.75 72.792 73.802 74.887 75.95 76.602 76.665 76.742 76.685 77.052 72.515 71.217 70.735 68.71 67.985 67.97 67.967 67.875 67.852 67.805 68.005 68.962 72.927 74.725 75.672 74.88 71.725 67.862 67.152 66.927 66.982 67.08 66.555 66.35 66.177 67.427 68.035 67.587 66.742 65.637 65.352 65.282 65.25 65.232 65.225 65.222 65.16 65.13 65.227 65.18 64.982 64.862 64.78 64.722 64.712 65.212 65.417 64.43 64.29 64.312 64.345 64.147 64.065 63.842 63.775 63.705 63.572 63.587 63.76 63.857 63.532 63.262 63.517 63.227 63.167 62.96 62.842 62.975 62.82 62.677 62.837 63.115 63.12 63.147 63.245 63.17 62.752 62.655 62.665 62.785 62.457 62.442 62.342 62.35 62.242 62.167 62.117 62.077 62.095 62.147 62.38 62.022 61.922 61.802 61.757 61.7 61.702 61.73 61.702 61.652 61.595 61.537 61.51 61.495 61.555 61.615 61.577 61.442 61.36 61.315 61.275 61.232 61.25 61.25 61.165 61.147 61.132 61.122 61.105 61.12 61.152 61.325 61.555 61.412 61.502 61.422 61.227 60.902 60.937 60.947 60.91 60.892 60.817 60.73 60.647 60.525 60.45 60.342 60.265 60.122 60.052 60.035 59.977 59.98 59.895 59.82 59.875 60.275 61.085 61.285 59.497 59.405 59.342 59.295 59.252 59.267 59.452 59.545 59.47 59.87 59.695 61.01 61.092 60.015 60.752 61.08 58.92 58.975 59.082 59.247 59.022 58.87 58.912 58.965 59.245 58.942 59.102 59.26 59.375 59.41 59.51 59.627 59.84 59.78 59.767 59.682 59.675 59.745 59.472 59.51 59.61 59.53 59.692 59.605 59.535 59.53 59.587 59.26 58.925 58.892 58.957 59.02 59.232 59.217 59.295 59.191 59.093 59.054 58.657 58.307 58.124 58.271 58.505 58.57 58.574 58.534 58.46 58.226 58.183 58.084 57.854 56.952 56.582 -9999 -9999 -9999 58.293 56.88 59.406 59.37 58.501 58.624 58.841 59.138 59.366 59.67 60.052 60.719 61.691 62.001 62.295 62.812 63.425 64.275 64.835 65.042 65.03 65.097 65.252 65.69 65.97 66.207 66.407 66.587 66.812 67.507 68.272 68.857 69.167 69.495 69.67 69.8 70.12 70.917 71.455 71.992
83.855 83.895 83.98 84.108 84.138 84.075 84.365 83.823 83.705 83.61 83.535 83.45 83.36 83.28 83.205 83.113 83.018 82.925 82.865 82.758 82.668 82.575 83.023 82.895 82.318 82.203 82.068 81.983 81.9 81.793 81.61 81.403 81.193 81.045 80.893 80.723 80.493 80.39 80.303 80.228 80.138 80.02 79.878 79.78 79.685 79.55 79.38 79.325 79.28 79.29 79.235 79.233 79.225 79.305 79.15 79.09 79.105 79.115 79.065 79.018 78.95 78.885 78.785 78.73 78.758 78.775 78.52 78.495 78.485 78.423 78.388 78.348 78.265 78.193 78.123 78.015 77.918 77.798 77.608 77.488 77.385 77.345 77.313 77.28 77.253 77.215 77.163 77.075 77.028 76.925 76.885 76.818 76.795 76.763 76.74 76.708 76.663 78.393 79.665 77.52 78.278 79.638 79.195 77.885 77.745 76.77 76.38 76.313 76.178 76.08 76.005 75.91 75.855 75.779 75.747 75.692 75.629 75.588 75.508 75.435 75.375 75.353 75.356 75.356 75.494 75.58 75.375 75.604 75.262 75.173 75.115 75.035 74.938 74.798 74.697 74.58 74.482 74.325 74.245 74.137 74.042 73.987 73.81 73.685 73.54 73.415 73.27 73.077 73.115 72.885 73.522 73.28 73.827 73.012 72.965 72.982 73.027 72.965 73.46 72.595 71.762 71.397 70.977 70.837 70.815 70.995 70.557 70.792 72.927 74.227 75.117 76.017 76.582 76.655 76.787 76.722 76.892 71.722 70.682 69.482 68.447 68.072 68.082 68.005 67.967 67.952 67.882 68.29 72.002 74.4 75.495 75.525 74.3 68.3 67.092 68.195 67.33 66.97 66.615 66.235 66.107 66.282 66.252 68.055 71.71 72.197 70.852 65.497 65.357 65.265 65.212 65.205 65.182 65.172 65.13 65.112 66.077 66.055 65.27 65.175 65.052 64.76 64.74 64.997 64.515 65.32 65.295 64.422 64.21 64.192 63.995 63.955 63.807 63.652 63.805 64.27 65.717 65.187 63.615 63.217 63.04 62.967 62.985 63.155 62.967 62.897 62.852 62.927 63.36 63.265 63.362 63.285 62.822 62.882 63.15 62.61 62.56 62.507 62.41 62.33 62.272 62.27 62.207 62.187 62.2 62.165 62.8 62.775 61.962 61.907 61.835 61.697 61.692 61.647 61.645 61.69 61.74 61.715 61.63 61.547 61.525 61.55 61.607 61.55 61.442 61.372 61.287 61.265 61.185 61.22 61.205 61.155 61.12 61.127 61.105 61.09 61.112 61.165 62.405 62.84 61.562 61.575 61.185 60.927 60.907 60.915 60.892 60.842 60.795 60.742 60.65 60.552 60.462 60.407 60.322 60.222 60.127 60.037 60.025 59.965 59.947 59.852 59.735 59.645 59.572 59.632 59.617 59.482 59.385 59.357 59.327 59.267 59.21 59.205 59.272 59.21 59.27 59.267 59.51 59.52 59.635 59.47 60.71 59.02 59.067 59.267 59.495 59.262 59.202 59.187 58.912 59.072 59.18 59.512 59.267 59.107 59.022 59.645 59.135 59.48 59.782 59.592 59.412 59.512 59.51 59.807 59.375 59.415 59.487 59.542 59.305 59.312 59.45 59.482 59.687 59.617 59.232 58.98 58.78 58.667 58.742 58.765 58.883 58.956 59.13 58.754 58.274 58.194 58.665 58.483 58.501 58.516 58.566 58.531 58.301 58.186 58.209 57.996 57.029 56.601 56.364 -9999 56.397 56.594 56.817 57.662 58.304 58.318 58.52 58.885 59.619 59.322 59.899 60.251 61.104 61.288 62.249 62.45 63.127 63.817 64.447 65.135 65.277 65.09 64.995 65.137 65.432 65.752 66.18 66.417 66.51 66.767 67.375 68.037 68.607 68.985 69.365 69.537 69.767 70.455 70.577 71.387 72.022
83.895 83.905 84.03 84.108 84.45 84.113 85.025 83.903 83.725 83.635 83.598 83.523 83.425 83.335 83.255 83.145 83.033 82.985 82.92 82.83 82.728 82.615 82.513 82.423 82.29 82.173 82.06 81.945 81.86 81.783 81.655 81.493 81.313 81.11 80.898 80.725 80.62 80.42 80.24 80.138 80.083 79.988 79.928 79.83 79.728 79.618 79.51 79.388 79.228 79.158 79.088 79.113 79.125 79.14 79.098 79.078 79.045 79.043 79.053 79.018 78.96 78.918 78.833 78.7 78.658 78.638 78.588 78.565 78.545 78.5 78.503 78.455 78.363 78.298 78.26 78.175 78.103 77.98 77.845 77.728 77.575 77.445 77.318 77.22 77.225 77.23 77.2 77.19 77.125 77 76.95 76.943 76.893 76.865 76.823 76.753 76.863 78.488 78.583 76.76 76.78 76.828 77.195 77.193 78.615 78.23 77.298 76.58 76.33 76.178 76.055 75.99 75.94 75.889 75.879 75.934 75.785 75.714 75.601 75.515 75.47 75.424 75.426 75.408 75.426 75.392 75.432 75.664 75.318 75.244 75.205 75.12 75.008 74.873 74.755 74.652 74.555 74.422 74.315 74.23 74.125 74.032 73.885 73.73 73.642 73.512 73.342 73.207 73.335 73.347 73.212 73.047 73.027 73.03 73.005 72.982 73.03 73.612 72.44 71.867 71.967 72.185 71.795 70.96 71.287 74.317 73.817 71.57 74.927 76.462 75.642 76.06 76.497 76.66 76.772 76.69 76.947 72.022 70.282 68.89 68.37 68.215 68.152 68.12 68.045 68.015 68.075 69.275 73.347 75.075 76.052 75.19 72.977 70.342 68.287 67.89 66.88 67.047 66.565 66.267 66.387 66.06 67.162 69.925 72.365 73.265 73.01 70.83 66.482 65.415 65.202 65.175 65.127 65.24 65.122 65.132 65.43 65.8 65.335 65.702 65.327 64.897 64.825 64.707 64.69 66.472 66.987 65.467 64.252 64.77 66.395 64.742 63.91 63.955 64.055 64.325 64.352 65.7 64.062 63.36 63.31 63.187 63.132 63.112 63.04 62.93 62.915 62.975 63.542 63.435 63.345 63.1 62.83 63.267 64.252 63.65 62.802 62.63 62.495 62.397 62.327 62.305 62.922 62.83 62.187 62.25 62.675 62.652 61.972 61.932 61.842 61.76 61.722 61.65 61.64 61.63 61.642 61.657 61.667 61.65 61.617 61.61 61.63 61.592 61.45 61.39 61.357 61.312 61.225 61.175 61.132 61.075 61.095 61.107 61.105 61.105 61.142 61.167 62.562 61.512 61.125 61.282 61.18 60.902 60.895 60.892 60.847 60.785 60.73 60.652 60.58 60.512 60.402 60.302 60.225 60.172 60.087 60.042 60.03 59.982 59.922 59.83 59.732 59.687 59.555 59.512 59.437 59.407 59.365 59.382 59.367 59.335 59.252 59.157 59.107 59.042 59.1 59.177 59.242 59.38 59.392 59.347 59.297 59.08 59.142 59.327 59.375 59.2 59.38 59.742 59.162 59.382 59.535 59.465 59.322 59.012 58.662 58.53 58.44 58.497 59.017 59.337 60.155 60.472 59.52 59.382 59.27 59.205 59.232 59.362 59.472 59.42 59.292 59.225 59.655 59.715 59.372 59.082 58.962 58.817 58.825 58.765 58.587 58.505 59.025 58.423 58.274 58.2 58.085 58.37 58.409 58.468 58.543 58.517 58.374 58.173 58.143 58.052 57.387 56.565 56.418 56.395 56.278 57.856 56.754 57.71 58.138 58.254 58.329 58.86 60.397 59.314 59.449 60.284 60.948 61.546 62.242 63.25 63.337 64.032 64.802 65.145 65.155 65.012 64.92 64.862 65.207 65.75 66.132 66.265 66.405 66.695 67.17 67.807 68.357 68.642 69.015 69.325 69.422 69.707 70.292 71.122 71.665
83.915 83.918 84.01 84.085 84.118 84.808 85.21 83.828 83.688 83.648 83.58 83.533 83.463 83.375 83.265 83.158 83.093 83.058 82.96 82.843 82.78 82.655 82.54 82.428 82.285 82.173 82.07 81.953 81.833 81.778 81.668 81.54 81.403 81.225 81.023 80.798 80.575 80.41 80.32 80.165 80.025 79.913 79.858 79.775 79.723 79.645 79.543 79.473 79.295 79.253 79.1 79.048 78.973 78.968 78.983 79.018 78.988 78.968 78.975 78.973 78.928 78.913 78.853 78.808 78.758 78.73 78.67 78.628 78.58 78.565 78.55 78.513 78.448 78.408 78.363 78.28 78.193 78.098 77.998 77.893 77.783 77.665 77.858 78.863 78.118 77.26 77.205 77.188 77.205 77.168 77.098 76.995 76.943 76.928 76.913 76.863 76.805 76.738 76.813 76.79 76.798 76.773 76.885 76.733 76.795 78.59 78.368 78.18 77.298 76.753 76.438 76.175 76.025 75.944 75.885 76.153 75.833 75.791 75.711 75.636 75.53 75.513 75.498 75.471 75.455 75.446 75.435 75.424 75.35 75.315 75.253 75.178 75.073 74.97 74.852 74.767 74.62 74.525 74.422 74.33 74.18 74.06 73.965 73.852 73.722 73.6 73.41 73.287 73.107 73.835 73.255 73.08 73.057 73.047 73.04 73.077 73.14 73.812 73.852 72.02 71.695 71.165 72.155 70.84 71.025 74.595 74.26 70.78 72.085 74.77 75.65 75.94 76.51 76.657 76.722 76.705 76.785 70.86 69.685 68.472 68.285 68.332 68.22 68.142 68.19 68.115 67.902 71.422 74.38 75.64 75.84 74.667 71.922 70.432 69.38 69.777 68.512 66.897 67.19 66.337 66.56 66.48 70.182 71.882 73.135 73.842 72.44 67.567 65.91 66.21 65.212 65.277 65.197 65.395 65.765 65.07 65.035 65.047 65.03 65.207 65.555 65.022 65.155 65.027 65.622 67.145 66.365 66.95 66.312 66.082 66.36 64.297 64.07 64.025 64.3 65.78 64.912 64.765 63.595 63.48 63.472 63.42 63.432 63.215 63.065 63.042 63.032 63.1 63.587 63.302 63.122 63.215 63.107 63.04 63.145 63.13 62.737 62.58 62.63 62.522 62.452 62.367 63.037 63.062 62.242 62.437 62.75 63.63 62.897 61.952 61.892 61.812 61.752 61.685 61.635 61.642 61.637 61.642 61.635 61.682 61.725 61.69 61.71 61.642 61.482 61.422 61.402 61.365 61.267 61.192 61.167 61.055 61.042 61.072 61.087 61.115 61.135 61.89 62.597 61.125 61.1 61.055 60.977 60.91 60.872 60.852 60.8 60.75 60.635 60.555 60.472 60.415 60.352 60.282 60.162 60.102 60.005 59.977 59.945 59.942 59.897 59.787 59.632 59.557 59.402 59.415 59.377 59.345 59.335 59.34 59.38 59.325 59.247 59.197 59.115 59.002 59.007 59.045 59.115 59.202 59.247 59.207 59.13 59.027 59.117 59.3 59.315 59.22 60.182 59.217 59.172 59.155 59.35 59.37 59.327 59.142 58.825 58.375 58.225 58.125 58.18 58.75 61.15 61.727 59.622 59.297 59.077 59.045 59.112 59.157 59.505 59.71 59.472 59.452 59.48 59.582 58.925 58.855 58.787 58.57 58.67 58.972 59.605 58.875 58.439 58.398 58.8 58.491 58.498 58.387 58.289 58.441 58.567 58.547 58.443 58.223 58.167 58.206 57.744 56.766 56.457 56.406 56.437 57.613 58.046 56.979 58.067 58.41 58.406 58.514 59.349 59.442 60.381 60.15 60.586 61.839 62.403 62.905 63.275 63.735 65.22 65.652 64.862 64.965 64.657 64.61 64.955 65.622 65.952 66.055 66.257 66.55 66.882 67.487 68.125 68.5 68.7 69 69.322 69.7 70.27 70.905 71.405
83.96 83.903 84.025 84.085 84.02 84.325 85.503 83.985 83.735 83.67 83.58 83.518 83.455 83.403 83.305 83.183 83.105 83.06 82.97 82.883 82.78 82.648 82.53 82.41 82.298 82.178 82.075 81.975 81.88 81.785 81.658 81.563 81.475 81.365 81.18 80.995 80.793 80.6 80.405 80.213 80.08 79.93 79.793 79.668 79.648 79.59 79.548 79.425 79.348 79.26 79.188 79.145 79.003 78.903 78.858 78.898 78.863 78.898 78.935 78.948 78.888 78.89 78.858 78.825 78.768 78.76 78.735 78.68 78.655 78.633 78.593 78.533 78.475 78.473 78.445 78.385 78.303 78.215 78.108 78.058 77.933 78.248 78.695 80.173 77.875 77.38 77.47 77.48 77.16 77.175 77.218 77.163 77.143 77.045 76.973 76.935 76.88 76.813 76.843 76.835 76.838 76.803 78.748 79.16 77.888 77.738 78.178 78.418 78.385 78.298 78.083 77.12 76.652 76.39 76.044 75.899 75.837 75.818 75.831 75.744 75.665 75.565 75.572 75.556 75.579 75.541 75.478 75.468 75.412 75.37 75.323 75.22 75.138 75.055 74.937 74.832 74.737 74.625 74.52 74.43 74.287 74.185 74.07 73.947 73.82 73.68 73.51 73.285 73.17 73.265 73.085 73.122 73.165 73.162 73.095 73.125 73.195 72.922 72.512 72.067 71.312 71.237 71.012 71.242 70.882 71.162 71.57 70.73 71.78 73.572 75.032 75.88 76.565 76.642 76.777 76.69 76.532 70.51 69.602 68.385 68.395 68.317 68.287 68.28 68.272 68.325 69.337 73.382 75.06 75.967 75.265 72.562 68.117 68.235 67.125 67.41 67.59 67.192 66.675 66.85 67.83 66.73 70.007 72.572 73.457 73.172 71.46 66.725 66 65.537 65.292 65.247 66.245 65.842 65.195 65.325 66.01 65.39 65.015 65.012 64.995 65.2 65.877 65.352 65.092 66.372 65.98 67.21 65.527 66.147 65.39 64.285 64.772 66.087 64.307 64.525 63.89 63.695 63.612 63.6 63.572 63.492 63.405 63.417 63.33 63.235 63.25 63.422 63.607 63.307 63.182 63.132 63.112 63.135 63.35 62.895 62.645 62.592 62.542 62.545 62.55 62.42 62.365 62.335 62.342 62.512 63.602 64.142 63.25 61.972 61.925 61.875 61.822 61.742 61.68 61.632 61.627 61.625 61.64 61.717 61.772 61.777 61.765 61.697 61.572 61.467 61.417 61.37 61.312 61.282 61.215 61.142 61.105 61.047 61.09 61.102 61.532 63.137 61.265 61.107 61.085 61.042 60.945 60.88 60.83 60.79 60.762 60.68 60.567 60.49 60.415 60.332 60.26 60.177 60.122 60.04 59.93 59.86 59.835 59.84 59.812 59.74 59.575 59.547 59.382 59.312 59.335 59.297 59.295 59.32 59.36 59.285 59.212 59.145 59.055 59 59.03 59.065 59.055 59.06 59.067 59.075 59.045 58.95 59.09 59.43 59.322 59.502 59.62 59.522 60.07 59.49 59.622 59.535 59.325 59.272 58.74 58.435 58.325 58.305 58.387 58.52 59.652 59.122 59.057 59.05 59.067 58.912 58.955 58.872 59.077 59.292 59.385 59.58 59.44 58.805 58.24 58.285 58.422 58.387 58.612 58.85 58.955 59.372 59.094 58.356 58.401 58.372 58.55 58.961 58.246 58.362 58.494 58.544 58.52 58.303 58.132 58.255 58.058 56.965 56.44 56.434 56.415 56.39 58.136 59.652 58.111 58.371 58.461 58.513 58.768 59.451 59.84 60.426 60.634 61.475 62.024 62.907 63.36 65.185 66.907 65.677 64.932 64.532 64.342 64.385 64.715 65.255 65.55 65.757 66.032 66.412 66.747 67.242 67.75 68.712 68.655 68.847 69.225 69.832 70.352 70.852 71.367
84.063 83.918 84.025 84.095 84.003 84.328 84.67 83.8 83.73 83.668 83.608 83.505 83.438 83.395 83.295 83.19 83.113 83.018 82.94 82.85 82.733 82.61 82.503 82.378 82.273 82.16 82.05 81.973 81.85 81.76 81.665 81.583 81.483 81.433 81.383 81.205 80.998 80.755 80.585 80.4 80.165 80.003 79.878 79.753 79.588 79.498 79.468 79.46 79.375 79.318 79.265 79.183 79.108 79.033 78.963 78.793 78.793 78.765 78.783 78.785 78.825 78.86 78.848 78.82 78.79 78.77 78.755 78.725 78.698 78.685 78.643 78.578 78.548 78.533 78.65 78.413 78.353 78.263 78.213 78.12 78.048 78.545 79.74 79.825 78.158 78.655 78.483 78.168 77.42 77.458 77.198 77.155 77.143 77.125 77.123 77.05 76.983 76.878 76.898 76.9 76.895 76.848 79.703 79.84 78.178 76.625 76.51 77.075 78.045 78.368 77.778 76.463 76.605 77.105 76.745 77.341 76.203 75.935 75.923 75.887 75.965 75.623 75.614 75.627 75.669 75.616 75.565 75.541 75.48 75.433 75.378 75.295 75.198 75.133 75.042 75.04 74.815 74.735 74.62 74.507 74.392 74.272 74.17 74.04 73.917 73.765 73.565 73.397 73.822 73.207 73.12 73.137 73.25 73.265 73.112 73.192 73.197 72.82 72.252 72.09 71.34 71.222 71.057 71.007 70.945 71.057 70.952 70.74 71.73 73.305 75.952 76.032 76.617 76.65 76.785 76.675 76.765 69.897 68.975 68.455 68.48 68.377 68.372 68.372 68.47 68.565 68.65 74.005 75.795 75.88 74.677 71.715 68.442 67.21 67.17 67.405 67.027 66.63 66.572 67.38 69.27 69.225 71.995 73.275 73.922 72.697 68.48 65.53 65.49 65.315 65.275 65.62 69.88 71.895 69.58 65.987 65.382 65.28 64.957 64.985 65.017 65.007 65.01 64.96 64.875 64.93 65.177 65.917 64.827 64.895 64.865 64.5 66.075 67.182 66.402 65.55 64.025 63.79 63.705 63.67 63.652 63.615 63.547 63.54 63.572 63.592 63.525 63.69 63.602 63.435 63.327 63.257 63.19 63.115 63.04 63.065 62.732 62.63 62.552 62.517 62.575 62.407 62.32 62.355 62.485 63.027 64.237 64.215 62.125 61.927 61.897 61.885 61.855 61.802 61.74 61.657 61.627 61.66 61.732 61.79 61.82 61.805 61.772 61.715 61.67 61.6 61.502 61.407 61.35 61.312 61.247 61.19 61.185 61.152 61.16 61.145 62.682 63.257 61.13 61.062 61.04 60.985 60.902 60.855 60.8 60.722 60.677 60.617 60.535 60.425 60.345 60.27 60.192 60.092 60.02 59.952 59.895 59.807 59.777 59.755 59.74 59.7 59.555 59.915 59.6 59.477 59.42 59.367 59.337 59.33 59.322 59.287 59.175 59.087 59.012 59.017 59.032 59.065 59.042 59.025 59.05 59.037 59.025 58.915 59.062 59.69 59.397 59.335 59.46 59.307 59.56 59.59 59.567 59.47 59.84 59.142 58.937 58.837 58.757 58.562 58.472 58.457 58.452 58.335 58.39 58.715 58.99 58.737 59.04 58.522 58.622 58.78 58.92 59.007 59.282 58.495 57.975 58.192 58.34 58.277 58.387 58.527 58.777 58.625 58.272 58.347 58.29 58.209 58.368 58.97 58.271 58.285 58.38 58.502 58.491 58.382 58.191 58.212 58.233 57.228 56.477 56.392 56.422 56.44 58.57 61.08 61.761 57.765 58.365 58.45 58.582 58.895 59.161 59.566 59.904 61.144 62.288 62.957 63.517 63.925 65.295 64.547 64.057 64.147 64.182 64.325 64.69 65 65.205 65.577 65.837 66.212 66.625 66.98 67.305 68.732 68.675 68.882 69.352 69.88 70.26 70.645 71.34
84.76 83.998 84.075 84.03 83.955 83.998 83.87 83.79 83.713 83.685 83.615 83.53 83.44 83.363 83.288 83.17 83.058 82.975 82.893 82.793 82.688 82.58 82.48 82.365 82.263 82.123 82.025 81.93 81.815 81.735 81.63 81.458 81.3 81.27 81.308 81.345 81.23 81.035 80.833 80.595 80.403 80.203 79.993 79.798 79.673 79.545 79.385 79.34 79.285 79.248 79.233 79.2 79.108 79.08 79.023 78.943 78.903 78.775 78.713 78.683 78.698 78.715 78.783 78.815 78.818 78.813 78.788 78.768 78.77 78.728 78.708 78.673 78.63 78.608 78.555 78.463 78.418 78.328 78.258 78.2 78.205 78.238 78.583 78.158 79.313 78.795 79.343 78.748 77.535 78.213 77.918 78.255 77.22 77.153 77.125 77.12 77.058 77.03 76.98 77.195 76.988 78.63 81.298 80.088 76.775 76.535 76.473 76.423 76.378 76.843 76.303 76.218 76.224 76.32 76.29 76.412 76.857 76.729 76.458 76.427 76.048 75.7 75.682 75.7 75.722 75.682 75.609 75.603 75.555 75.498 75.423 75.353 75.248 75.218 75.252 76.257 74.985 74.817 74.705 74.567 74.462 74.385 74.267 74.135 73.98 73.805 73.575 73.547 73.922 73.225 73.205 73.155 73.197 73.142 73.152 73.215 73.27 72.83 73.902 74.545 72.28 71.19 71.087 71 70.98 71.025 70.99 70.655 72.05 74.795 76.832 76.855 76.617 76.667 76.735 76.692 76.302 70.137 68.612 68.567 68.487 68.452 68.447 68.502 68.562 68.24 68.087 68.63 71.97 73.18 73.71 70.99 69.42 67.337 67.37 68.38 66.872 67.382 66.835 68.035 67.367 70.695 72.772 73.642 73.432 72.207 66.475 65.557 65.472 65.37 65.602 67.265 71.145 72.367 72.78 71.077 68.092 66.082 65.11 64.967 65.052 64.982 64.965 64.982 64.932 64.912 64.87 64.857 64.842 64.79 64.715 64.972 66.962 66.81 66.33 66.172 66.265 64.81 64.067 63.772 63.717 63.71 63.747 63.74 63.76 63.702 63.73 63.887 63.815 63.725 63.5 63.362 63.28 63.222 63.12 63.025 62.885 62.82 62.667 62.502 62.46 62.437 62.415 62.39 62.795 63.78 64.412 63.845 62.015 62.037 61.892 61.877 61.867 61.832 61.765 61.725 61.69 61.722 61.785 61.857 61.822 61.777 61.727 61.685 61.64 61.585 61.545 61.512 61.445 61.342 61.25 61.197 61.212 61.23 61.232 61.515 63.587 62.212 61.06 61.02 61.002 60.902 60.857 60.807 60.747 60.69 60.612 60.52 60.43 60.357 60.257 60.192 60.095 60.01 59.902 59.842 59.772 59.722 59.722 59.7 59.677 59.64 59.557 59.857 59.66 59.487 59.435 59.42 59.447 59.377 59.237 59.207 59.117 59.027 58.995 59.037 59.05 59.06 59.072 59.045 59.047 59.02 58.975 58.82 59.027 59.557 59.15 59.25 59.305 59.295 60.16 59.705 59.56 59.54 59.322 58.975 58.917 59.617 58.895 58.965 58.665 58.875 58.717 58.48 58.38 58.452 58.495 58.362 58.562 58.087 57.962 57.942 57.972 58.205 58.242 58.217 58.157 58.235 58.342 58.207 58.29 58.452 58.515 58.352 58.127 58.18 58.199 58.134 58.093 58.29 58.421 58.269 58.331 58.479 58.522 58.408 58.245 58.125 58.214 57.668 56.665 56.437 56.437 56.483 57.896 58.152 60.003 57.662 58.391 58.309 58.403 58.789 58.942 59.087 60.007 61.065 62 62.73 63.52 63.407 63.775 64.045 63.772 64.002 64.087 64.355 64.62 64.827 65.017 65.302 66.047 66.13 66.532 66.772 67.035 67.8 68.505 68.985 69.395 69.837 70.137 70.45 71.15
84.388 84.275 84.043 84.073 84.108 84.103 83.843 83.773 83.735 83.65 83.595 83.483 83.403 83.32 83.245 83.145 83.045 82.938 82.868 82.75 82.648 82.538 82.438 82.328 82.248 82.128 82.008 81.91 81.798 81.698 81.46 81.19 80.928 80.853 80.925 81.035 81.138 81.188 81.143 80.918 80.678 80.49 80.27 80.015 79.793 79.588 79.46 79.38 79.235 79.168 79.163 79.16 79.128 79.13 79.108 79.038 78.965 78.898 78.825 78.765 78.635 78.635 78.655 78.66 78.693 78.768 78.78 78.775 78.783 78.773 78.743 78.715 78.69 78.653 78.595 78.518 78.458 78.393 78.325 78.25 78.228 79.158 79.215 77.833 78.705 78.153 79.47 78.4 78.363 79.44 78.9 79.895 77.438 77.22 77.123 77.1 77.11 77.115 77.07 77.13 77.23 80.79 81.653 80.02 76.753 76.543 76.423 76.41 76.4 76.415 77.943 76.3 76.298 76.305 76.304 76.205 76.245 76.273 76.792 76.917 75.924 75.772 75.779 75.827 75.788 75.714 75.644 75.673 75.643 75.548 75.485 75.385 75.3 75.238 75.187 75.387 74.975 74.882 74.772 74.64 74.57 74.472 74.332 74.205 74.035 73.87 73.75 74.462 73.457 73.345 73.237 73.19 73.162 73.21 73.215 73.152 73.255 73.035 75.2 79.672 79.685 71.572 71.077 71.025 70.982 71.222 71.15 71.06 73.845 77.722 76.547 76.32 76.58 76.657 76.737 76.672 75.885 69.542 68.67 68.677 68.627 68.547 68.575 68.615 68.517 68.282 68.22 68.142 68.045 67.932 68.79 69.812 67.812 67.315 67.165 67.037 67.127 67.477 67.43 70.795 70.642 72.047 73.415 74.11 73.03 68.425 65.755 65.552 65.475 65.422 65.795 69.685 71.975 72.847 72.415 71.46 69.927 66.087 65.71 65.572 65.08 64.99 64.932 64.917 64.942 64.947 64.927 64.867 64.847 64.845 64.84 64.74 64.96 65.332 65.685 65.527 66.21 66.482 66.452 65.105 64.005 63.857 63.87 63.91 63.887 63.887 63.96 64.085 64.07 64.08 63.91 63.6 63.415 63.317 63.157 63.055 62.947 62.83 62.8 62.742 62.605 62.467 62.487 62.665 63.28 64.317 64.532 62.965 61.98 61.942 61.875 61.897 61.87 61.822 61.78 61.765 61.797 61.825 61.852 61.852 61.78 61.732 61.695 61.647 61.602 61.562 61.522 61.515 61.492 61.455 61.362 61.287 61.222 61.21 61.225 61.75 62.942 61.127 61.032 61.02 60.932 60.867 60.792 60.752 60.68 60.597 60.495 60.405 60.317 60.212 60.152 60.092 60.047 59.932 59.835 59.762 59.687 59.642 59.632 59.595 59.64 59.622 59.512 59.645 59.617 59.497 59.445 59.395 59.355 59.37 59.242 59.175 59.092 59.017 59.015 59.055 59.005 59.035 59.057 59.082 59.025 59.027 58.965 58.78 58.93 59.09 58.942 58.98 59.197 59.315 60.145 60.625 60.382 59.612 59.417 59.21 59.765 58.962 59.242 58.897 58.77 58.972 59.047 58.862 58.585 58.382 58.29 58.247 58.332 57.562 57.27 57.197 57.357 57.88 58.33 58.32 58.382 58.212 58.2 58.76 58.252 58.317 58.305 58.17 58.067 58.095 58.292 58.165 58.127 58.408 58.954 58.675 58.295 58.499 58.548 58.448 58.316 58.12 58.216 57.941 56.723 56.342 56.327 56.385 56.916 57.684 57.121 57.155 58.562 58.279 58.303 58.642 59.797 59.638 60.209 61.085 61.997 62.117 62.512 63.012 63.742 63.37 63.37 63.735 64.032 64.372 64.687 64.845 64.922 65.132 65.587 66.122 66.495 66.652 67.085 67.92 68.662 69.03 69.36 69.845 69.972 70.227 70.86
84.18 84.865 84.078 84.055 84.32 84.228 83.873 83.758 83.713 83.64 83.555 83.45 83.365 83.27 83.19 83.115 83.025 82.903 82.798 82.683 82.568 82.498 82.408 82.298 82.19 82.09 81.965 81.88 81.78 81.565 81.265 80.915 80.673 80.578 80.595 80.655 80.793 80.943 81.073 81.088 80.998 80.798 80.593 80.35 80.11 79.828 79.628 79.463 79.293 79.243 79.125 79.063 79.013 79.03 79.068 79.018 79.003 78.965 78.895 78.833 78.768 78.685 78.588 78.565 78.608 78.623 78.65 78.7 78.74 78.745 78.765 78.71 78.698 78.66 78.59 78.578 78.498 78.463 78.368 78.268 78.343 81.068 79.54 78.365 78.738 78.598 77.855 77.763 78.37 78.06 79.85 78.828 77.668 77.51 77.245 77.483 77.203 77.108 77.093 77.065 77.033 77.98 80.393 77.713 76.973 77.47 77.568 76.683 76.478 76.378 77.773 76.289 76.39 76.293 76.265 76.228 76.217 76.202 76.253 76.274 75.94 75.861 75.916 75.929 75.826 75.75 75.72 75.733 75.703 75.575 75.533 75.453 75.345 75.298 75.21 75.135 75.06 74.937 74.822 74.717 74.627 74.52 74.377 74.227 74.077 73.91 75.06 75.252 73.417 73.302 73.262 73.25 73.235 73.347 73.31 73.192 73.012 72.627 72.842 76.7 74.805 71.31 71.14 71.052 70.997 71.127 71.305 70.89 72.62 76.565 77.335 76.21 76.597 76.632 76.692 76.712 75.15 68.765 68.75 68.742 68.692 68.645 68.68 68.737 68.595 68.465 68.322 68.167 68.09 68.002 67.855 68.082 67.57 67.52 67.422 67.035 66.94 66.862 67.645 68.127 71.265 73.057 73.85 73.692 70.407 66.862 65.702 65.645 65.565 65.637 67.25 71.37 72.492 72.947 72.08 68.747 69.577 65.895 65.89 65.607 65.215 65.207 65.195 64.977 64.92 64.907 64.895 64.895 64.907 64.9 64.895 64.877 65.215 65.055 64.922 64.557 65.202 65.665 66.625 65.37 64.247 64.165 64.032 64.012 64.057 64.11 64.177 64.27 64.345 64.182 64.04 63.887 63.64 63.422 63.232 63.115 63.012 62.887 62.785 62.732 62.625 62.582 63.167 62.462 63.71 64.422 63.37 61.935 61.99 61.865 61.82 61.837 61.847 61.805 61.787 61.757 61.802 61.877 61.905 61.837 61.765 61.707 61.707 61.665 61.61 61.567 61.535 61.515 61.465 61.442 61.477 61.417 61.34 61.295 61.237 61.945 61.36 61.065 61.042 61.032 60.91 60.825 60.755 60.69 60.63 60.532 60.43 60.302 60.21 60.117 60.08 59.967 59.895 59.83 59.757 59.69 59.625 59.607 59.555 59.537 59.54 59.552 59.5 59.585 59.742 59.597 59.48 59.297 59.242 59.31 59.287 59.155 59.082 59 59.012 59.067 59.007 58.99 59.037 59.07 59.05 59.05 58.99 58.825 58.93 59.04 58.9 58.952 58.997 59.217 59.962 60.617 60.247 59.382 59.41 59.48 59.385 58.757 59.687 58.792 58.827 58.977 58.92 58.81 58.632 58.427 58.245 58.28 57.992 57.445 57.052 57.062 57.092 57.255 57.69 58.077 58.355 58.315 58.167 58.11 58.085 58.075 58.062 57.97 57.975 58.075 60.717 58.735 58.242 58.429 59.262 58.529 58.24 58.433 58.509 58.486 58.336 58.161 58.188 58.128 56.997 56.373 56.352 56.41 57.297 58.109 58.323 57.613 58.825 58.274 58.279 58.476 58.753 59.16 59.867 60.625 61.43 61.42 61.807 62.405 62.832 62.955 63.197 63.437 63.835 64.335 64.602 64.847 65.105 65.442 65.805 66.335 66.765 67.057 67.442 68.097 68.677 68.917 69.367 69.865 69.855 69.95 70.53
84.175 84.913 84.608 84.028 84.245 84.348 83.915 83.74 83.705 83.64 83.548 83.468 83.35 83.243 83.195 83.118 83.02 82.878 82.748 82.638 82.535 82.465 82.385 82.283 82.175 82.04 81.945 81.853 81.673 81.37 80.993 80.72 80.583 80.533 80.483 80.475 80.475 80.603 80.728 80.84 80.933 80.995 80.908 80.735 80.493 80.258 80.005 79.745 79.53 79.333 79.2 79.105 79.015 78.958 78.92 78.948 78.95 78.938 78.905 78.878 78.863 78.778 78.733 78.705 78.595 78.553 78.555 78.588 78.618 78.655 78.71 78.738 78.72 78.695 78.655 78.55 78.515 78.475 78.423 78.325 79.695 83.403 80.045 80.623 79.033 77.94 80.205 80.03 78.363 79.103 78.13 78.01 77.918 77.443 77.3 77.345 78.58 79.083 77.58 77.02 77.058 77.04 77.035 77.005 77.398 78.328 78.748 78.668 78.16 77.305 76.565 76.433 76.412 76.332 76.284 76.289 76.268 76.246 76.301 76.237 76.038 75.966 76.022 75.95 75.879 75.8 75.755 75.748 75.728 75.618 75.573 75.495 75.433 75.35 75.285 75.2 75.072 74.997 74.892 74.787 74.692 74.567 74.43 74.275 74.092 73.925 74.57 74.407 73.48 73.37 73.39 73.297 73.307 73.27 73.36 73.195 73.082 72.887 72.495 71.925 71.6 71.762 71.185 71.095 71.012 71.07 71.512 71.357 71.99 73.46 76.212 76.067 76.595 76.65 76.742 76.182 71.972 68.875 68.837 68.777 68.742 68.835 68.897 68.83 68.692 68.597 68.407 68.252 68.11 68.01 67.875 67.747 67.64 67.575 67.52 67.267 67.162 67.425 69.202 71.835 72.58 73.682 74.257 73.187 68.292 65.892 65.78 65.632 65.747 66.03 69.905 72.152 73.342 72.617 71.357 68.192 66.057 65.607 65.61 65.23 65.845 65.33 67.142 67.88 65.06 64.99 65.192 65.58 65.09 64.89 64.912 65.04 65.035 64.865 64.867 64.865 65.55 66.515 66.492 64.377 64.362 64.33 64.272 64.275 64.255 64.32 64.33 64.36 64.37 64.187 64.047 63.955 63.805 63.76 63.477 63.28 63.05 62.937 62.81 62.665 62.67 63.652 65.385 62.74 64.222 64.367 62.915 61.995 61.882 61.847 61.8 61.805 61.795 61.767 61.762 61.752 61.797 61.915 61.922 61.815 61.747 61.732 61.702 61.667 61.632 61.582 61.572 61.52 61.452 61.442 61.457 61.46 61.432 61.38 61.802 61.407 61.13 61.04 61.03 60.975 60.895 60.825 60.727 60.655 60.542 60.44 60.345 60.227 60.117 60.035 59.962 59.887 59.782 59.715 59.667 59.617 59.587 59.562 59.565 59.52 59.502 59.487 59.445 60.08 59.917 60.092 60.08 60.242 59.44 59.632 59.215 59.137 59.047 59.007 59.012 59.027 58.955 58.977 58.995 58.997 59.022 59.042 59.015 58.932 58.9 59.025 58.875 59.235 59.602 59.785 59.692 60.68 59.76 59.542 59.767 59.367 58.947 58.62 58.53 58.462 58.477 58.555 58.585 58.84 58.71 58.53 58.26 58.305 58.12 57.407 57.117 57.007 56.9 56.857 56.927 57.355 57.732 58.107 58.135 58.11 58 57.96 57.967 57.995 58.005 58.07 59.865 58.264 58.313 58.381 58.618 58.176 58.167 58.418 58.495 58.484 58.335 58.186 58.166 58.247 57.354 56.518 56.388 57.191 57.822 56.882 57.679 57.817 58.33 58.392 58.302 58.436 58.726 58.927 59.44 60.642 64.885 62.097 61.57 62.015 62.42 62.745 63.01 63.362 63.737 64.267 64.622 65.037 65.547 66.12 67.86 67.002 67.237 67.417 67.595 68.105 68.557 68.865 69.447 69.877 69.727 69.732 70.315
84.168 84.548 85.26 84 84.113 84.39 83.975 83.755 83.71 83.615 83.533 83.418 83.323 83.22 83.17 83.108 83.023 82.868 82.753 82.628 82.5 82.438 82.375 82.253 82.118 82.023 81.938 81.8 81.528 81.208 80.818 80.628 80.535 80.503 80.48 80.458 80.418 80.398 80.433 80.518 80.625 80.758 80.838 80.95 80.913 80.71 80.458 80.183 79.915 79.663 79.485 79.283 79.148 79.02 78.933 78.853 78.835 78.83 78.835 78.885 78.875 78.815 78.82 78.76 78.7 78.668 78.6 78.503 78.48 78.553 78.578 78.615 78.643 78.693 78.68 78.608 78.525 78.483 78.458 78.373 84.508 85.413 84.973 86.03 86.918 83.855 81.755 80.988 80.66 79.66 78.438 78.018 78.003 77.433 77.368 77.44 79.443 79.51 78.518 77.803 77.075 77.035 77.063 77.065 77.16 77.308 77.835 78.548 78.86 78.73 78.42 77.394 76.565 76.426 76.361 76.338 76.338 76.301 76.306 76.227 76.191 76.105 76.109 76.047 75.935 75.82 75.773 75.788 75.735 75.663 75.613 75.525 75.475 75.415 75.342 75.27 75.152 75.042 74.932 74.83 74.735 74.595 74.442 74.325 74.127 74.405 75.422 73.745 73.472 73.415 73.38 73.3 73.352 73.292 73.267 73.21 73.302 72.59 72.115 71.87 71.607 71.81 71.242 71.12 71.012 71.002 71.465 70.892 71.63 74.325 77.835 76.495 76.557 76.62 76.657 76.025 70.325 68.93 68.917 68.865 68.887 68.972 69.362 68.915 68.81 68.667 68.492 68.285 68.102 67.992 67.885 67.807 67.73 67.562 67.472 67.37 67.26 67.15 68.025 70.012 72.562 74.122 73.922 72.85 67.227 65.995 65.8 65.707 65.767 66.93 71.225 72.632 73.112 72.207 69.99 67.185 65.7 65.345 65.24 65.532 67.862 67.315 68.48 71.045 70.985 67.657 65.367 65.942 65.585 64.875 64.932 65.115 64.997 64.87 64.807 64.862 64.805 65.252 65.252 64.442 64.447 64.45 64.45 64.472 64.52 64.877 64.57 64.495 64.432 64.242 64.117 64.065 63.84 63.76 63.685 63.485 63.245 63.012 62.747 62.642 62.67 64.607 62.902 63.847 64.227 63.867 62.17 62.2 62.015 61.902 61.835 61.805 61.772 61.762 61.727 61.732 61.82 61.907 61.915 61.805 61.712 61.705 61.685 61.652 61.63 61.592 61.58 61.53 61.485 61.482 61.427 61.417 61.417 62.027 63.29 61.655 61.12 61.1 61.027 60.927 60.83 60.782 60.73 60.662 60.562 60.39 60.237 60.15 60.025 59.945 59.852 59.782 59.695 59.625 59.557 59.525 59.5 59.495 59.512 59.505 59.495 59.505 59.43 59.685 59.86 61.072 60.122 61.215 61.082 61.2 59.392 59.117 59.055 59.002 59.015 59.03 58.945 58.97 58.935 58.932 58.982 59.027 59.01 58.932 58.847 59.035 58.855 59.115 59.392 59.62 59.385 59.255 59.395 59.652 60.5 59.455 59.055 58.787 58.68 58.495 58.482 58.365 58.36 58.492 58.392 58.472 58.492 58.305 58.075 57.625 57.32 57.152 56.967 56.922 56.915 56.957 57.115 57.29 57.792 58.237 58.092 58.012 57.935 57.98 58.017 58.19 58.28 58.442 58.685 60.089 58.439 58.08 58.136 58.392 58.528 58.521 58.363 58.202 58.165 58.3 57.829 56.662 56.346 58.76 60.124 57.845 56.955 57.732 58.008 58.405 58.292 58.371 58.756 58.912 59.412 60.357 60.885 60.985 61.347 61.732 62.08 62.515 62.902 63.405 63.857 64.322 64.68 65.26 66.015 68.247 69.8 68.415 67.33 67.592 67.752 68.137 68.625 68.962 69.582 69.865 69.662 69.657 70.187
84.16 84.215 84.983 84.465 84.003 84.34 84.035 83.773 83.71 83.633 83.53 83.408 83.343 83.218 83.16 83.08 82.988 82.88 82.763 82.63 82.513 82.44 82.348 82.228 82.105 81.985 81.913 81.725 81.398 81.018 80.715 80.595 80.548 80.493 80.448 80.438 80.43 80.405 80.373 80.36 80.375 80.45 80.538 80.645 80.763 80.825 80.985 80.658 80.363 80.105 79.873 79.61 79.418 79.233 79.088 78.96 78.875 78.808 78.768 78.768 78.828 78.828 78.798 78.755 78.783 78.745 78.728 78.663 78.568 78.478 78.475 78.5 78.508 78.535 78.575 78.603 78.575 78.538 78.468 79.928 86.99 86.57 86.518 87.73 87.198 86.673 86.223 86.365 82.328 80.058 78.14 78.108 78.043 77.743 77.498 78.338 79.703 78.06 77.678 77.698 77.103 77.083 77.138 77.17 77.198 77.238 77.288 77.353 77.54 78.613 79.953 78.976 78.045 76.912 76.469 76.403 76.377 76.465 76.459 76.287 76.257 76.202 76.146 76.094 75.963 75.875 75.803 76.068 75.955 75.678 75.628 75.555 75.518 75.44 75.38 75.302 75.195 75.112 74.985 74.905 74.767 74.612 74.497 74.375 74.317 74.475 75.177 73.6 73.465 73.355 73.397 73.34 73.335 73.315 73.352 73.272 73.105 72.567 72.142 72.02 71.61 71.392 71.235 71.14 71.025 70.932 71.157 71.182 71.427 73.38 76.945 76.142 76.635 76.605 76.637 75.192 71.227 69.042 68.962 69.01 69.082 69.492 69.585 68.975 68.842 68.695 68.517 68.322 68.197 68.065 67.912 67.805 67.735 67.625 67.517 67.422 67.272 67.18 67.112 66.985 66.825 68.827 73.442 67.992 66.23 66.157 65.837 65.797 65.975 68.805 72.242 73.202 72.73 71.382 68.665 66.302 65.76 65.26 65.3 65.41 66.502 67.537 69.89 71.665 72.577 71.5 66.202 65.075 65.007 64.925 64.98 65.092 65.002 64.942 64.905 64.827 64.852 64.772 64.715 64.64 64.56 64.522 64.562 64.617 65.797 66.87 65.54 64.582 64.612 64.417 64.257 64.027 63.927 63.975 63.88 63.647 63.377 63.237 62.91 62.705 62.775 64.572 63.212 63.822 64.257 62.465 62.112 62 62.082 62.115 61.895 61.852 61.83 61.807 61.797 61.812 61.847 61.907 61.862 61.757 61.742 61.705 61.677 61.602 61.59 61.607 61.58 61.56 61.5 61.49 61.417 61.37 61.38 61.982 62.915 61.227 61.122 61.08 61.042 60.97 60.847 60.77 60.667 60.585 60.495 60.39 60.23 60.11 59.962 59.842 59.785 59.71 59.61 59.532 59.455 59.442 59.437 59.44 59.452 59.452 59.447 59.477 59.44 59.4 60.632 60.57 60.05 60.412 59.712 61.647 60.392 59.11 59.042 59.007 59.012 58.98 58.942 58.937 58.867 58.892 58.972 58.995 59 58.927 58.772 59.215 59.36 59.85 59.545 59.147 59.32 59.6 60.04 61.895 59.657 59.087 58.947 58.982 58.915 59.005 59.272 58.52 58.325 58.287 58.35 58.342 58.757 58.845 58.342 57.89 57.552 57.442 57.495 57.355 57.325 57.37 57.605 57.355 57.375 57.885 58.2 58.035 57.915 57.95 58.09 58.24 58.385 59.142 59.147 58.892 58.374 58.018 58.123 58.396 58.556 58.512 58.359 58.215 58.144 58.267 58.045 56.815 56.622 59.347 61.521 61.935 57.612 57.433 58.778 58.701 58.317 58.341 58.564 58.877 59.48 59.867 60.162 60.662 61.065 61.415 61.772 62.225 62.73 63.245 63.785 64.107 64.465 65.362 66.052 66.792 67.865 67.69 67.197 67.605 67.982 68.422 68.815 69.107 69.667 69.785 69.617 69.635 70.05
84.098 84.163 84.455 84.488 83.965 84.243 84.183 83.8 83.738 83.625 83.54 83.465 83.363 83.27 83.153 83.07 83.008 82.883 82.743 82.625 82.508 82.413 82.313 82.158 82.058 81.983 81.835 81.555 81.195 80.86 80.658 80.595 80.568 80.51 80.475 80.45 80.405 80.413 80.39 80.378 80.343 80.35 80.328 80.345 80.425 80.528 80.63 80.733 80.873 80.62 80.323 80.055 79.795 79.573 79.433 79.263 79.09 78.948 78.82 78.748 78.723 78.718 78.755 78.728 78.78 78.793 78.733 78.728 78.643 78.63 78.558 78.475 78.463 79.01 78.585 78.5 78.518 78.525 78.473 83.663 85.875 86.395 87.628 88.32 88.19 87.74 87.278 87.033 84.973 81.19 79.15 78.368 78.143 77.65 77.963 80.005 79.468 77.64 78.593 77.56 77.125 77.13 77.188 77.233 77.4 77.31 77.283 77.313 77.37 78.068 79.106 78.546 77.867 76.989 76.638 76.496 76.489 76.653 76.438 76.364 76.443 76.33 76.198 76.073 75.968 75.903 75.82 76.188 76.013 75.7 75.658 75.59 75.543 75.47 75.375 75.3 75.237 75.15 75.06 74.935 74.802 74.655 74.56 74.585 75.092 74.225 74.152 73.597 73.465 73.417 73.37 73.33 73.355 73.445 73.452 73.365 73.342 72.397 72.22 71.857 71.632 71.457 71.245 71.13 71.035 70.935 71.195 71.592 71.542 72.442 74.227 75.637 76.63 76.592 76.68 75.39 72.755 69.095 69.017 69.245 69.32 69.685 69.757 68.975 68.86 68.765 68.58 68.387 68.237 68.107 67.967 67.882 67.777 67.662 67.54 67.435 67.342 67.27 67.145 67.007 66.852 66.717 67.815 67.907 66.31 66.142 65.967 65.88 67.125 71.43 72.777 73.202 72.402 68.89 68.765 68.515 65.69 65.327 65.297 65.587 65.372 66.615 70.8 72.21 72.577 71.647 66.782 65.172 65.092 64.997 65.18 65.102 65.05 65.017 64.965 64.89 64.877 64.785 64.797 64.762 64.747 64.73 64.64 66.732 70.862 70.252 64.842 64.582 64.555 64.415 64.612 64.722 65.012 64.632 64.15 63.64 63.525 63.185 63.052 63.11 63.96 63.27 62.332 62.365 62.477 62.192 62.115 62.027 62.065 61.98 61.992 62.08 61.897 61.897 61.877 61.875 61.885 61.872 61.84 61.832 61.78 61.715 61.667 61.615 61.605 61.572 61.535 61.54 61.522 61.49 61.39 61.337 61.367 61.937 61.485 61.162 61.11 61.092 61.007 60.962 60.857 60.802 60.687 60.565 60.427 60.3 60.175 60.06 59.93 59.795 59.662 59.55 59.51 59.437 59.417 59.385 59.375 59.36 59.385 59.407 59.412 59.435 59.445 59.335 63.61 62.96 60.185 59.157 61.295 61.45 59.575 59.01 59 59 59.002 58.942 58.895 58.897 58.85 58.83 58.902 58.94 58.952 58.86 58.702 58.922 59.492 59.68 59.832 59.295 59.472 59.08 58.797 59.922 59.555 59.8 60.102 59.64 59.522 59.207 58.942 58.54 58.59 58.4 58.372 58.505 58.57 58.627 58.532 58.09 57.667 58.005 58.19 58.017 58.08 58.06 58.285 58.047 57.76 57.97 58.21 57.965 57.91 57.945 58.267 58.512 58.702 59.76 59.452 58.708 58.404 58.023 58.087 58.419 58.552 58.513 58.34 58.185 58.088 58.202 58.163 56.95 57.371 59.191 63.37 59.762 59.538 57.639 58.05 58.44 58.333 58.364 58.5 59.082 59.51 59.722 60.032 60.465 60.767 61.065 61.407 61.97 62.457 62.972 63.537 63.842 64.175 65.12 65.952 66.305 66.585 66.912 67.18 67.652 68.162 68.607 68.955 69.337 69.702 69.732 69.625 69.612 69.995
84.11 84.125 84.155 84.595 83.963 84.035 84.308 83.903 83.743 83.623 83.533 83.473 83.393 83.303 83.188 83.078 82.973 82.868 82.753 82.608 82.515 82.39 82.26 82.138 82.048 81.923 81.698 81.408 81.013 80.728 80.61 80.588 80.575 80.533 80.488 80.468 80.455 80.443 80.44 80.408 80.375 80.353 80.355 80.325 80.3 80.295 80.323 80.415 80.485 80.548 80.575 80.45 80.27 80.06 79.868 79.668 79.458 79.27 79.043 78.875 78.82 78.705 78.66 78.683 78.683 78.725 78.703 78.73 78.685 78.663 78.645 78.585 78.535 78.955 78.878 78.438 78.468 78.458 78.408 81.95 84.675 85.305 86.91 87.32 87.85 88.22 88.31 88.238 85.923 85.323 84.58 82.52 79.478 78.05 80.193 80.498 78.68 77.945 78.718 77.198 77.203 77.218 77.313 77.318 77.473 77.513 77.298 77.3 77.313 77.28 77.272 77.245 77.271 77.318 77.248 77.166 76.597 76.565 76.495 76.595 76.744 76.41 76.247 76.123 75.998 75.955 75.925 75.86 75.813 75.768 75.695 75.623 75.575 75.48 75.402 75.347 75.287 75.187 75.05 74.927 74.815 74.732 74.65 74.835 75.757 75.227 73.86 73.6 73.465 73.425 73.402 73.365 73.375 73.405 73.467 73.395 73.455 72.717 72.242 71.892 71.65 71.44 71.262 71.162 71.072 71.082 71.5 71.317 71.197 72.175 73.342 74.447 76.667 76.6 76.64 75.125 72.38 69.16 69.172 69.375 69.665 69.727 69.837 68.992 68.865 68.752 68.622 68.47 68.277 68.147 68.03 67.94 67.855 67.71 67.59 67.442 67.327 67.267 67.177 67.035 66.825 66.652 66.57 66.672 66.75 66.147 66.05 66.437 69.885 72.397 73.867 72.915 71.465 66.852 65.687 67.147 65.37 65.412 65.632 67.075 67.335 69.657 71.625 72.565 72.167 70.365 65.672 65.42 65.115 65.155 65.135 65.075 65.042 65.02 65.017 64.972 64.967 64.912 64.842 64.837 64.805 64.717 64.725 66.682 71.935 71.522 67.087 64.65 64.622 64.445 64.322 64.237 64.38 64.272 63.812 63.66 63.435 63.33 63.245 63.317 63.965 62.437 62.352 62.235 62.162 62.132 62.085 62.072 62.027 62.015 62 61.937 61.902 61.912 61.892 61.89 61.895 61.862 61.84 61.832 61.797 61.77 61.72 61.675 61.635 61.59 61.54 61.52 61.497 61.492 61.43 61.432 62.315 62.44 61.27 61.162 61.155 61.067 61 60.93 60.857 60.8 60.682 60.572 60.43 60.26 60.085 59.967 59.875 59.762 59.62 59.5 59.425 59.355 59.302 59.332 59.332 59.307 59.305 59.322 59.35 59.385 59.405 59.32 59.76 61.622 60.392 59.22 60.08 59.19 58.965 58.987 58.962 58.935 58.945 58.902 58.84 58.85 58.885 58.85 58.835 58.88 58.86 58.77 58.6 58.77 59.07 59.517 59.527 59.502 59.432 59.53 59.477 59.592 59.365 59.975 60.442 59.847 59.545 59.14 59.122 58.602 58.65 58.542 58.695 58.47 58.732 58.632 58.545 58.395 57.777 58.08 58.05 57.972 58.192 58.267 58.267 58.122 58 57.992 58.037 57.905 57.835 57.857 58.427 58.962 59.195 60.415 59.525 58.716 58.154 57.966 58.073 58.392 58.551 58.473 58.331 58.153 58.076 58.188 58.15 56.959 57.033 60.015 61.384 67.747 64.42 57.964 57.905 59.407 58.647 58.401 59.273 59.003 59.255 59.545 59.852 60.215 60.472 60.815 61.11 61.76 62.132 62.667 63.267 63.627 64.05 64.58 65.325 65.957 66.337 66.867 67.26 67.707 68.24 68.72 68.962 69.487 69.732 69.755 69.717 69.725 69.975
84.125 84.095 84.138 84.075 83.928 83.93 84.22 84.08 83.733 83.62 83.515 83.46 83.383 83.31 83.203 83.098 82.94 82.825 82.715 82.588 82.473 82.36 82.225 82.12 82.008 81.828 81.523 81.22 80.878 80.683 80.61 80.603 80.558 80.528 80.485 80.493 80.5 80.473 80.443 80.42 80.408 80.37 80.385 80.355 80.325 80.285 80.253 80.258 80.243 80.268 80.345 80.453 80.493 80.575 80.345 80.138 79.918 79.678 79.428 79.253 79.02 78.83 78.725 78.648 78.61 78.6 78.603 78.68 78.705 78.655 78.69 78.635 78.608 78.573 78.54 78.465 78.393 78.38 78.393 78.38 79.09 81.63 85.28 86.26 86.7 87.235 87.798 88.595 87.053 86.553 86.008 85.483 84.89 82.353 81.97 79.788 77.558 77.78 77.35 77.245 77.228 77.318 77.405 77.425 77.563 77.438 77.373 77.333 77.338 77.268 77.238 77.174 77.174 77.177 77.347 77.83 77.476 77.318 76.67 76.721 76.572 76.46 76.369 76.256 76.041 75.98 75.948 75.888 75.86 75.81 75.745 75.668 75.605 75.495 75.425 75.362 75.285 75.195 75.052 74.95 74.872 74.79 74.71 74.992 75.362 75.055 74.122 73.875 73.632 73.51 73.46 73.417 73.41 73.482 73.55 73.76 73.18 72.91 72.262 71.912 71.962 71.675 71.317 71.207 71.12 71.14 71.477 71.355 71.21 72.03 72.275 74.302 76.627 76.567 76.635 74.567 71.715 69.255 69.445 69.742 69.925 69.74 69.97 68.982 68.92 68.767 68.625 68.455 68.31 68.23 68.09 68 67.892 67.78 67.652 67.48 67.387 67.28 67.155 66.99 66.827 66.692 66.61 66.642 66.605 66.307 66.232 68.222 71.607 72.992 73.487 72.62 68.69 67.807 67.815 66.327 65.547 65.452 66.907 70.427 70.215 71.22 72.34 72.577 71.642 67.875 65.225 65.147 65.142 65.28 65.152 65.11 65.095 65.022 65.062 65.022 64.99 64.955 64.865 64.857 64.835 64.812 64.807 64.792 69.567 67.182 65.707 64.892 65.415 64.607 64.367 64.277 64.195 64.05 63.795 63.635 63.485 64.172 63.677 63.242 62.79 62.527 62.512 62.322 62.172 62.085 62.055 62.16 61.982 61.975 61.975 61.92 61.917 61.955 61.942 61.915 61.962 61.88 61.857 61.792 61.782 61.732 61.737 61.697 61.68 61.602 61.535 61.51 61.512 61.502 61.44 61.565 63.027 61.48 61.23 61.185 61.135 61.04 60.965 60.895 60.812 60.75 60.672 60.54 60.387 60.267 60.132 59.992 59.832 59.692 59.565 59.49 59.425 59.325 59.272 59.237 59.242 59.245 59.257 59.235 59.287 59.287 59.347 59.367 59.367 61.042 59.87 59.582 59.52 58.945 58.985 58.967 58.9 58.882 58.877 58.862 58.82 58.865 58.887 58.79 58.787 58.82 58.767 58.667 58.5 58.622 59.057 59.357 59.445 59.445 59.427 58.952 59.337 59.045 58.872 59.655 59.457 59.512 59.185 59.732 58.99 58.547 58.585 58.48 58.487 58.345 58.44 58.542 58.565 58.212 57.95 57.962 58.142 58.1 57.97 58.21 58.107 57.965 58.047 57.925 57.807 57.797 57.642 57.73 58.042 58.665 59.382 59.847 59.878 59.566 58.053 57.899 58.076 58.398 58.535 58.453 58.288 58.132 58.088 58.151 57.921 57.924 64.846 61.095 64.899 68.998 66.747 59.107 58.808 59.608 58.999 60.357 58.897 58.599 58.992 59.35 59.672 59.997 60.29 60.645 60.9 61.295 61.77 62.397 63.447 63.822 64.162 64.425 64.672 65.097 65.725 66.75 67.27 67.665 68.137 68.665 69.1 69.597 69.797 69.852 69.87 69.885 70.027
85.035 84.08 84.095 84.083 83.908 83.91 84.048 84.238 83.775 83.608 83.533 83.48 83.388 83.283 83.18 83.068 82.948 82.825 82.678 82.56 82.458 82.305 82.203 82.073 81.938 81.65 81.365 81.058 80.785 80.655 80.638 80.608 80.58 80.553 80.52 80.495 80.493 80.463 80.448 80.41 80.398 80.388 80.4 80.385 80.345 80.31 80.275 80.255 80.218 80.198 80.173 80.208 80.268 80.385 80.658 80.513 80.425 80.188 79.873 79.678 79.438 79.23 79.018 78.818 78.678 78.573 78.593 78.56 78.565 78.573 78.665 78.598 78.61 78.623 78.588 78.588 78.508 78.428 78.848 79.25 78.925 78.335 79.055 81.043 85.083 85.133 86.665 86.188 86.673 87.145 87.098 86.683 86.105 85.61 85.028 82.553 80.653 77.993 77.353 77.29 77.325 77.418 77.475 77.478 77.525 77.718 77.73 77.508 77.368 77.33 77.239 77.189 77.193 77.174 77.117 77.082 77.196 77.182 76.943 76.831 76.747 76.846 76.618 76.293 76.095 75.995 75.955 75.913 75.875 75.865 75.805 75.728 75.628 75.513 75.46 75.382 75.312 75.192 75.097 75.007 74.937 74.922 75.007 76.037 74.93 74.462 74.257 74.18 74.047 73.857 73.67 73.535 73.482 73.597 73.675 73.945 73.25 73.002 72.215 72.002 71.97 71.602 71.482 71.28 71.132 71.082 71.47 71.102 71.122 71.685 71.43 74.577 76.717 76.595 76.635 74.28 70.94 69.335 69.62 69.94 69.935 69.692 69.905 69.057 69.01 68.85 68.692 68.527 68.395 68.29 68.182 68.065 67.935 67.84 67.732 67.57 67.437 67.295 67.157 66.985 66.862 66.732 66.705 67.497 66.6 66.515 66.612 70.627 72.605 73.487 73.127 72.397 69.192 65.797 66.447 66.482 65.505 66.275 66.235 69.82 71.4 71.85 72.822 72.315 70.182 65.417 65.422 65.202 65.185 65.272 65.207 65.107 65.082 65.115 65.092 65.082 64.995 64.982 64.927 64.862 64.852 64.845 64.797 64.787 64.78 65.58 64.727 64.71 64.782 64.527 65.017 64.367 64.547 64.125 63.905 63.695 63.75 64.587 64.202 63.385 62.657 62.59 62.607 62.337 62.17 62.072 62.025 61.962 61.932 61.927 61.94 61.9 61.937 61.93 61.917 61.952 61.967 61.897 61.85 61.82 61.78 61.732 61.7 61.69 61.682 61.637 61.59 61.545 61.52 61.485 61.427 62.852 63.145 61.392 61.187 61.175 61.135 61.04 60.97 60.9 60.81 60.712 60.605 60.497 60.375 60.245 60.137 60.03 59.885 59.735 59.547 59.46 59.367 59.31 59.26 59.225 59.167 59.162 59.187 59.197 59.205 59.2 59.242 59.332 59.297 59.642 60.13 60.307 59.862 58.97 58.957 58.917 58.847 58.82 58.857 58.85 58.83 58.867 58.885 58.822 58.792 58.81 58.692 58.64 58.492 58.512 58.777 59.51 59.382 59.165 59.457 59.942 59.08 59.007 59.23 59.39 59.307 58.837 59.145 59.23 59.127 58.497 58.412 58.352 58.31 58.332 58.412 58.455 58.492 58.23 57.892 58.137 57.992 57.915 57.91 57.957 57.902 57.877 57.837 57.78 57.78 57.767 57.702 57.817 58.087 58.45 58.385 59.458 59.411 59.088 57.985 57.917 58.073 58.394 58.499 58.418 58.276 58.138 58.135 58.171 57.992 59.986 68.785 64.224 63.404 66.162 61.707 58.052 58.184 58.445 58.978 58.342 58.322 58.375 58.617 59.08 59.572 59.727 60.09 60.387 60.67 60.9 61.412 62.742 65.242 64.555 64.122 64.305 64.462 64.595 65.142 66.55 67.215 67.61 68.125 68.765 69.215 69.55 69.787 69.892 69.975 70.042 70.137
85.355 84.155 84.043 84.08 83.965 83.89 83.888 84.203 83.908 83.578 83.51 83.475 83.37 83.255 83.14 83.04 82.93 82.823 82.663 82.543 82.43 82.293 82.173 82.04 81.803 81.498 81.18 80.895 80.723 80.653 80.605 80.583 80.583 80.563 80.57 80.53 80.505 80.463 80.45 80.435 80.423 80.395 80.385 80.39 80.388 80.338 80.303 80.268 80.238 80.2 80.183 80.173 80.148 80.133 80.165 80.29 80.395 80.468 80.36 80.155 79.95 79.693 79.488 79.23 79.025 78.758 78.638 78.6 78.56 78.515 78.513 78.523 78.545 78.563 78.578 78.553 78.563 78.515 78.455 78.433 78.393 78.973 79.058 78.335 78.245 80.785 83.76 84.888 85.393 86.035 86.565 87.095 87.215 87.14 86.283 85.595 84.675 78.403 77.395 77.365 77.413 77.483 77.515 77.505 77.483 77.475 77.658 77.875 77.92 77.63 77.323 77.224 77.202 77.204 77.172 77.154 77.125 77.083 77.049 77.065 77.066 77.095 76.844 76.443 76.222 76.135 76.068 75.97 75.963 75.953 75.905 75.788 75.663 75.558 75.492 75.42 75.317 75.235 75.152 75.05 74.987 75 75.175 75.12 74.67 74.457 74.352 74.262 74.137 74.072 74.002 73.852 73.697 73.752 73.85 74.227 73.322 73.05 72.24 73.152 72.772 71.865 71.892 71.375 71.162 71.195 71.542 71.182 71.19 71.115 70.77 74.047 76.952 76.552 76.69 75.6 72.435 69.665 69.857 70.1 69.93 69.712 69.677 69.095 69.067 68.922 68.765 68.605 68.49 68.38 68.252 68.115 67.995 67.902 67.77 67.637 67.495 67.347 67.18 67.035 66.987 66.885 66.862 66.927 66.557 67.25 67.795 72.087 73.127 73.615 72.775 70.39 71.142 68.042 65.792 65.702 65.577 67.43 67.522 67.465 71.132 72.382 72.815 71.837 68.987 66.2 65.42 65.232 65.317 65.26 65.18 65.122 65.072 65.125 65.112 65.08 65.052 65.037 64.96 64.922 64.882 64.805 64.797 64.745 64.772 64.77 64.71 64.6 64.577 64.632 64.887 64.322 64.345 64.095 63.947 63.742 63.697 63.932 64.022 62.925 62.7 62.572 62.49 62.287 62.172 62.062 61.995 61.962 61.905 61.902 61.88 61.885 61.887 61.92 61.927 61.935 61.897 61.86 61.835 61.807 61.76 61.702 61.692 61.707 61.7 61.665 61.64 61.612 61.572 61.537 61.66 64.017 62.657 61.27 61.18 61.185 61.132 61.072 60.995 60.915 60.825 60.705 60.585 60.472 60.34 60.232 60.135 59.997 59.865 59.72 59.6 59.485 59.362 59.275 59.24 59.207 59.177 59.147 59.145 59.125 59.115 59.115 59.16 59.235 59.282 59.215 60.087 61.95 59.407 58.967 58.942 58.9 58.812 58.767 58.82 58.847 58.87 58.907 58.885 58.88 58.817 58.795 58.715 58.657 58.482 58.36 58.515 58.832 59.392 59.37 59.255 59.695 59.722 59.437 59.365 59.072 59.012 58.995 59.132 59.225 58.782 58.28 58.24 58.222 58.207 58.235 58.325 58.385 58.375 58.315 58.117 58.112 58.015 57.935 58.082 58.15 58.147 57.982 58.837 58.125 57.925 57.937 57.83 57.897 57.942 58.145 58.052 58.394 58.263 57.956 57.911 57.877 58.081 58.368 58.47 58.385 58.243 58.138 58.16 58.151 57.659 59.204 69.419 70.509 66.993 66.247 59.144 57.894 58.176 58.362 58.513 58.309 58.246 58.217 58.234 58.459 59.037 59.405 59.81 60.142 60.622 60.765 61.3 62.395 63.825 63.712 63.952 64.15 64.247 64.375 64.892 66.235 67.075 67.507 68.077 68.837 69.222 69.43 69.645 69.872 70.107 70.245 70.352
