ncols 411
nrows 32
xllcorner    425022
yllcorner    544120
cellsize     2
NODATA_value -9999
76.904 76.941 76.966 77.009 77.074 77.121 77.194 77.246 77.286 77.379 77.444 77.511 77.589 77.631 77.691 77.774 77.834 77.909 77.981 78.026 78.099 78.129 78.171 78.221 78.276 78.311 78.346 78.369 78.419 78.461 78.486 78.514 78.571 78.579 78.629 78.649 78.709 78.719 78.771 78.796 78.821 78.881 78.901 78.951 79.034 79.109 79.146 79.204 79.236 79.261 79.331 79.399 79.434 79.534 79.614 79.731 79.844 79.931 80.069 80.196 80.309 80.506 80.726 80.606 80.641 80.674 80.741 80.736 80.784 80.784 80.789 80.794 80.771 80.766 80.731 80.669 80.644 80.581 80.524 80.539 80.469 80.449 80.434 80.481 80.504 80.531 80.574 80.644 80.699 80.807 80.872 81.022 81.114 81.194 81.337 81.472 81.604 81.712 81.852 81.954 82.094 82.234 82.342 82.467 82.657 82.949 83.239 83.564 83.852 84.127 84.434 84.659 84.862 85.064 85.217 85.314 85.422 85.464 85.492 85.524 85.547 85.542 85.537 85.569 85.547 85.564 85.569 85.629 85.737 85.847 85.982 86.102 86.267 86.442 86.592 86.739 86.947 87.092 87.214 87.399 87.542 87.707 87.882 88.052 88.209 88.409 88.554 88.757 88.937 89.114 89.312 89.542 89.769 89.999 90.219 90.407 90.632 90.824 90.982 91.134 91.272 91.389 91.524 91.669 91.872 92.119 92.384 92.724 93.059 93.402 93.749 94.094 94.407 94.689 94.972 95.212 95.439 95.644 95.789 95.944 96.099 96.297 96.414 96.554 96.684 96.804 96.947 97.097 97.192 97.294 97.464 97.584 97.714 97.854 98.007 98.114 98.209 98.347 99.304 100.627 101.092 100.207 100.007 100.204 100.454 100.822 101.134 101.474 101.919 102.317 102.752 103.179 103.632 104.074 104.504 104.904 105.294 105.732 106.099 106.419 106.684 106.954 107.144 107.342 107.477 107.579 107.642 107.709 107.722 107.769 107.814 107.864 107.944 107.989 108.042 108.132 108.167 108.209 108.242 108.269 108.309 -9999 -9999 -9999 -9999 -9999 -9999 -9999 -9999 -9999 -9999 -9999 -9999 -9999 -9999 -9999 -9999 -9999 -9999 -9999 -9999 -9999 -9999 -9999 -9999 -9999 -9999 -9999 -9999 -9999 -9999 -9999 -9999 -9999 -9999 -9999 -9999 -9999 -9999 -9999 -9999 -9999 -9999 -9999 -9999 -9999 -9999 -9999 -9999 110.604 110.627 110.702 110.752 110.777 110.797 110.792 110.795 110.782 110.797 110.797 110.792 110.782 110.827 111.005 111.2 111.509 111.272 111.725 112.36 112.782 112.867 112.84 112.854 112.942 112.905 112.867 112.835 112.929 112.97 113.037 112.752 112.492 112.165 112.782 112.19 111.61 111.367 111.302 111.312 111.312 111.335 111.335 111.365 111.397 111.45 111.43 111.375 111.3 111.177 111.112 111.06 111.047 111.027 111.02 111.057 111.092 111.197 111.68 112.105 111.87 111.552 111.552 111.567 111.617 111.652 111.685 111.705 111.722 111.71 111.81 112.117 112.43 111.89 111.785 111.785 111.72 111.64 111.62 111.692 111.65 111.617 111.59 111.562 111.487 111.467 111.322 111.265 111.172 111.09 110.995 110.967 110.895 110.845 110.785 110.737 110.667 110.625 110.62 110.6 110.64 110.62 110.635 110.64 110.61 110.58 110.545 110.495 110.505 110.522 110.562 110.647 110.767 110.915 111.112 111.317 111.432 111.615 111.752 111.89 111.947 111.952
76.856 76.886 76.909 76.919 76.954 77.009 77.061 77.124 77.146 77.259 77.306 77.366 77.429 77.511 77.549 77.646 77.696 77.796 77.824 77.891 77.959 77.989 78.034 78.084 78.131 78.146 78.204 78.236 78.294 78.309 78.389 78.406 78.426 78.456 78.496 78.509 78.551 78.581 78.634 78.649 78.689 78.731 78.764 78.831 78.896 78.946 78.989 79.051 79.081 79.144 79.196 79.254 79.336 79.429 79.484 79.576 79.671 79.816 79.946 80.064 80.224 80.521 80.406 80.381 80.454 80.506 80.576 80.594 80.619 80.654 80.656 80.634 80.626 80.616 80.576 80.539 80.489 80.466 80.416 80.386 80.334 80.326 80.336 80.339 80.369 80.401 80.441 80.509 80.591 80.662 80.752 80.882 80.957 81.052 81.154 81.299 81.374 81.512 81.617 81.752 81.884 81.999 82.167 82.357 82.634 82.899 83.239 83.557 83.814 84.092 84.384 84.564 84.812 84.994 85.094 85.227 85.277 85.309 85.367 85.394 85.377 85.384 85.384 85.367 85.357 85.387 85.432 85.462 85.537 85.709 85.807 85.967 86.154 86.302 86.417 86.612 86.784 86.912 87.072 87.269 87.389 87.559 87.732 87.902 88.069 88.224 88.384 88.564 88.744 88.907 89.097 89.292 89.489 89.702 89.952 90.152 90.359 90.527 90.722 90.879 91.034 91.159 91.349 91.519 91.784 92.042 92.362 92.662 93.014 93.349 93.682 94.012 94.337 94.577 94.814 95.054 95.229 95.404 95.584 95.749 95.879 96.044 96.169 96.304 96.422 96.554 96.692 96.834 96.959 97.087 97.207 97.339 97.512 97.637 97.784 97.874 98.024 98.474 100.357 100.637 99.837 99.612 99.792 100.074 100.377 100.709 101.057 101.454 101.877 102.277 102.689 103.152 103.582 103.984 104.409 104.812 105.194 105.564 105.924 106.222 106.457 106.682 106.884 106.992 107.137 107.212 107.269 107.359 107.387 107.429 107.502 107.574 107.667 107.749 107.832 107.922 107.977 108.032 108.084 108.152 108.177 108.173 -9999 -9999 -9999 -9999 -9999 -9999 -9999 -9999 -9999 -9999 -9999 -9999 -9999 -9999 -9999 -9999 -9999 -9999 -9999 -9999 -9999 -9999 -9999 -9999 -9999 -9999 -9999 -9999 -9999 -9999 -9999 -9999 -9999 -9999 -9999 -9999 -9999 -9999 -9999 -9999 -9999 -9999 -9999 -9999 -9999 -9999 -9999 110.576 110.615 110.697 110.785 110.817 110.835 110.857 110.877 110.875 110.86 110.84 110.822 110.812 110.797 110.86 110.947 111.155 111.492 111.327 111.527 112.367 112.772 112.875 112.865 112.9 112.895 112.882 112.937 112.867 112.914 113.03 112.982 112.895 112.592 112.342 112.307 111.552 111.405 111.382 111.38 111.357 111.367 111.357 111.382 111.41 111.43 111.42 111.365 111.292 111.2 111.137 111.09 111.075 111.03 111.072 111.11 111.122 111.205 111.72 112.512 112.442 112.055 112.07 112.092 112.095 112.087 112.042 112.015 111.965 111.925 112.017 112.14 112.185 111.857 111.84 111.782 111.702 111.682 111.652 111.725 111.68 111.585 111.58 111.477 111.377 111.315 111.275 111.172 111.125 111.067 110.97 110.892 110.852 110.845 110.772 110.772 110.71 110.757 110.76 110.735 110.74 110.707 110.71 110.67 110.67 110.645 110.632 110.727 110.855 110.97 111.145 111.317 111.477 111.597 111.765 111.855 111.922 111.957 111.975 111.845 111.66 111.487
76.784 76.839 76.869 76.856 76.904 76.936 76.989 77.051 77.076 77.141 77.191 77.261 77.311 77.361 77.441 77.541 77.599 77.644 77.699 77.756 77.801 77.826 77.909 77.956 78.014 78.054 78.106 78.139 78.201 78.241 78.219 78.261 78.269 78.329 78.359 78.371 78.414 78.456 78.481 78.484 78.546 78.566 78.626 78.684 78.756 78.794 78.869 78.891 78.946 79.026 79.079 79.131 79.219 79.301 79.346 79.451 79.584 79.694 79.841 79.966 80.264 80.356 80.146 80.209 80.276 80.346 80.434 80.451 80.461 80.496 80.536 80.509 80.489 80.449 80.434 80.391 80.351 80.306 80.266 80.249 80.186 80.224 80.199 80.221 80.221 80.259 80.306 80.371 80.439 80.524 80.627 80.717 80.812 80.894 81.027 81.102 81.229 81.312 81.442 81.572 81.694 81.864 82.057 82.327 82.577 82.909 83.184 83.497 83.819 84.024 84.289 84.497 84.704 84.869 84.974 85.069 85.137 85.149 85.202 85.202 85.194 85.182 85.207 85.187 85.187 85.214 85.254 85.304 85.392 85.507 85.669 85.822 85.984 86.114 86.292 86.457 86.612 86.759 86.924 87.094 87.244 87.412 87.572 87.729 87.902 88.027 88.194 88.337 88.519 88.687 88.862 89.039 89.227 89.449 89.674 89.872 90.069 90.269 90.479 90.664 90.804 90.979 91.204 91.437 91.699 91.979 92.302 92.634 92.987 93.317 93.657 93.929 94.222 94.449 94.692 94.894 95.044 95.209 95.372 95.507 95.659 95.807 95.957 96.094 96.212 96.327 96.469 96.619 96.699 96.857 96.989 97.129 97.309 97.439 97.524 97.662 97.887 99.057 100.072 99.467 99.212 99.399 99.617 99.932 100.239 100.607 100.982 101.394 101.777 102.217 102.614 103.054 103.479 103.919 104.294 104.687 105.002 105.364 105.704 105.962 106.179 106.349 106.539 106.644 106.722 106.807 106.884 106.954 107.002 107.047 107.162 107.224 107.379 107.504 107.639 107.694 107.794 107.884 107.914 107.997 108.034 108.089 -9999 -9999 -9999 -9999 -9999 -9999 -9999 -9999 -9999 -9999 -9999 -9999 -9999 -9999 -9999 -9999 -9999 -9999 -9999 -9999 -9999 -9999 -9999 -9999 -9999 -9999 -9999 -9999 -9999 -9999 -9999 -9999 -9999 -9999 -9999 -9999 -9999 -9999 -9999 -9999 -9999 -9999 -9999 -9999 -9999 -9999 -9999 110.58 110.619 110.702 110.772 110.837 110.865 110.9 110.927 110.94 110.93 110.895 110.89 110.88 110.845 110.865 110.897 110.979 111.259 111.42 111.07 111.5 112.202 112.84 112.862 112.917 112.94 112.947 112.962 112.952 112.957 112.962 113.012 113.05 113.035 112.772 112.399 111.882 111.97 111.607 111.49 111.425 111.354 111.369 111.365 111.432 111.407 111.384 111.407 111.34 111.244 111.187 111.182 111.085 111.012 111.022 111.067 111.102 111.227 111.78 112.65 112.582 112.597 112.602 112.577 112.457 112.377 112.302 112.26 112.187 112.105 112.097 112.027 111.942 111.93 111.847 111.79 111.737 111.74 111.665 111.627 111.612 111.507 111.465 111.405 111.345 111.262 111.262 111.15 111.1 111.027 110.917 110.847 110.885 110.9 110.872 110.897 110.852 110.847 110.82 110.787 110.782 110.782 110.825 110.867 110.975 111.105 111.267 111.442 111.632 111.74 111.8 111.947 111.99 111.992 111.967 111.817 111.66 111.435 111.227 111.015 110.735 110.552
76.731 76.786 76.814 76.824 76.849 76.894 76.921 76.969 77.031 77.069 77.149 77.186 77.201 77.279 77.339 77.431 77.476 77.544 77.581 77.619 77.681 77.724 77.794 77.859 77.891 77.926 78.011 78.056 78.084 78.121 78.126 78.169 78.171 78.204 78.229 78.251 78.286 78.306 78.314 78.366 78.376 78.456 78.476 78.544 78.596 78.654 78.706 78.729 78.791 78.841 78.924 79.004 79.071 79.121 79.224 79.309 79.459 79.561 79.684 79.856 80.269 79.936 79.971 80.031 80.119 80.206 80.244 80.291 80.326 80.379 80.381 80.391 80.351 80.329 80.306 80.259 80.229 80.219 80.144 80.091 80.084 80.091 80.046 80.106 80.144 80.181 80.219 80.284 80.364 80.419 80.509 80.614 80.682 80.754 80.842 80.957 81.074 81.184 81.309 81.417 81.544 81.772 81.999 82.264 82.539 82.847 83.164 83.447 83.742 83.974 84.239 84.427 84.594 84.729 84.834 84.902 84.979 84.994 85.012 85.007 85.002 85.022 84.972 84.984 84.989 85.044 85.072 85.147 85.279 85.369 85.519 85.659 85.834 85.977 86.152 86.302 86.449 86.584 86.752 86.897 87.069 87.244 87.407 87.562 87.699 87.834 88.002 88.139 88.294 88.449 88.632 88.847 89.022 89.229 89.447 89.679 89.862 90.069 90.267 90.447 90.689 90.902 91.122 91.377 91.669 91.994 92.284 92.589 92.937 93.249 93.554 93.857 94.099 94.329 94.542 94.732 94.877 95.019 95.167 95.352 95.467 95.589 95.757 95.834 95.967 96.122 96.207 96.384 96.502 96.672 96.794 96.944 97.079 97.194 97.319 97.519 98.292 99.452 98.902 98.852 98.989 99.182 99.487 99.807 100.147 100.509 100.882 101.299 101.712 102.127 102.519 102.927 103.357 103.782 104.164 104.527 104.837 105.147 105.417 105.642 105.849 105.992 106.134 106.229 106.324 106.397 106.444 106.549 106.607 106.677 106.837 106.957 107.109 107.234 107.382 107.487 107.599 107.724 107.762 107.837 107.844 107.922 107.927 -9999 -9999 -9999 -9999 -9999 -9999 -9999 -9999 -9999 -9999 -9999 -9999 -9999 -9999 -9999 -9999 -9999 -9999 -9999 -9999 -9999 -9999 -9999 -9999 -9999 -9999 -9999 -9999 -9999 -9999 -9999 -9999 -9999 -9999 -9999 -9999 -9999 -9999 -9999 -9999 -9999 -9999 -9999 -9999 -9999 110.549 110.565 110.64 110.715 110.765 110.825 110.884 110.937 110.979 110.992 110.985 110.975 110.94 110.925 110.895 110.895 110.887 110.912 111.002 111.155 111.657 111.06 111.297 112.06 112.649 112.92 112.937 112.96 112.965 113.027 113.002 112.945 112.96 113.042 113.08 113.075 113.072 112.517 112.095 112.147 111.812 111.61 111.442 111.41 111.412 111.395 111.4 111.365 111.38 111.342 111.26 111.197 111.12 111.037 110.955 110.98 111.055 111.097 111.367 112.005 113.057 112.875 113.02 112.837 112.832 112.647 112.555 112.46 112.367 112.302 112.26 112.11 112.045 112.027 111.957 111.877 111.845 111.795 111.757 111.71 111.652 111.592 111.537 111.47 111.395 111.295 111.295 111.24 111.087 111.087 111.027 111.025 111.045 111.017 110.977 110.962 110.942 110.895 110.89 110.887 110.925 111.037 111.182 111.422 111.672 111.892 111.995 112.082 112.13 112.097 112.07 112.032 111.955 111.77 111.542 111.285 111.027 110.717 110.78 110.387 110.235 110.107 110.39
76.669 76.741 76.744 76.791 76.849 76.861 76.866 76.911 76.939 76.979 77.061 77.066 77.144 77.204 77.259 77.316 77.369 77.444 77.481 77.541 77.586 77.631 77.679 77.741 77.811 77.851 77.926 77.956 77.971 78.019 78.041 78.064 78.104 78.084 78.134 78.141 78.159 78.164 78.196 78.209 78.251 78.321 78.349 78.399 78.441 78.499 78.561 78.601 78.646 78.694 78.789 78.829 78.916 78.976 79.089 79.186 79.316 79.409 79.536 79.816 79.751 79.706 79.761 79.859 79.971 80.059 80.081 80.131 80.216 80.241 80.251 80.231 80.229 80.209 80.139 80.131 80.081 80.069 80.026 79.991 79.989 79.954 79.964 79.969 80.029 80.064 80.109 80.166 80.259 80.317 80.407 80.462 80.567 80.647 80.717 80.812 80.929 81.057 81.152 81.312 81.464 81.712 81.982 82.257 82.512 82.847 83.144 83.409 83.657 83.899 84.117 84.307 84.472 84.599 84.684 84.772 84.797 84.829 84.832 84.854 84.849 84.819 84.802 84.782 84.812 84.829 84.882 84.997 85.032 85.202 85.337 85.489 85.642 85.799 85.989 86.099 86.262 86.407 86.534 86.727 86.889 87.037 87.219 87.382 87.527 87.654 87.787 87.962 88.119 88.249 88.442 88.599 88.842 89.032 89.222 89.462 89.677 89.884 90.129 90.327 90.562 90.812 91.067 91.337 91.659 91.952 92.277 92.567 92.892 93.199 93.482 93.777 93.994 94.247 94.392 94.574 94.684 94.834 94.984 95.134 95.264 95.394 95.537 95.634 95.752 95.899 95.994 96.177 96.312 96.462 96.604 96.757 96.874 96.987 97.152 97.822 99.349 98.739 98.512 98.629 98.804 99.069 99.384 99.704 100.039 100.442 100.809 101.207 101.607 102.009 102.424 102.832 103.229 103.609 103.949 104.277 104.579 104.852 105.092 105.299 105.459 105.574 105.717 105.792 105.867 105.939 106.027 106.159 106.292 106.367 106.489 106.634 106.799 106.942 107.119 107.279 107.392 107.499 107.564 107.619 107.694 107.729 107.754 107.769 -9999 -9999 -9999 -9999 -9999 -9999 -9999 -9999 -9999 -9999 -9999 -9999 -9999 -9999 -9999 -9999 -9999 -9999 -9999 -9999 -9999 -9999 -9999 -9999 -9999 -9999 -9999 -9999 -9999 -9999 -9999 -9999 -9999 -9999 -9999 -9999 -9999 -9999 -9999 -9999 -9999 -9999 -9999 -9999 110.584 110.597 110.68 110.7 110.755 110.825 110.895 110.977 111.035 111.057 111.045 111.032 111.007 111.009 110.972 110.962 110.947 110.915 110.952 111.055 111.322 111.395 111.525 111.465 112.017 112.742 112.927 113.002 112.982 113.002 113.017 113.002 112.967 112.96 112.994 113.1 113.287 113.042 112.762 112.27 111.91 111.717 111.737 111.55 111.442 111.494 111.455 111.395 111.387 111.352 111.274 111.175 111.112 111.03 110.947 111.007 111.057 111.252 111.765 112.355 112.87 113.197 113.115 112.942 112.842 112.737 112.662 112.572 112.417 112.305 112.287 112.17 112.13 112.035 111.942 111.93 111.895 111.825 111.795 111.762 111.732 111.617 111.54 111.457 111.37 111.29 111.255 111.182 111.215 111.16 111.167 111.175 111.192 111.132 111.085 111.022 111.017 111.122 111.29 111.435 111.612 111.812 112.08 112.215 112.28 112.327 112.302 112.202 112.042 111.875 111.612 111.352 111.107 110.825 110.632 110.482 110.28 110.12 110.052 110.02 110.107 109.912 110.04
76.621 76.671 76.714 76.789 76.796 76.826 76.859 76.864 76.884 76.909 76.989 76.991 77.064 77.134 77.149 77.216 77.256 77.344 77.374 77.431 77.486 77.514 77.596 77.644 77.709 77.776 77.791 77.844 77.899 77.906 77.936 77.964 77.984 78.001 77.994 78.004 78.036 78.041 78.074 78.106 78.139 78.174 78.239 78.249 78.294 78.361 78.409 78.469 78.501 78.536 78.621 78.649 78.726 78.809 78.941 79.031 79.134 79.269 79.491 79.586 79.444 79.559 79.586 79.711 79.811 79.841 79.964 80.006 80.036 80.054 80.074 80.091 80.061 80.046 80.016 79.986 79.966 79.956 79.916 79.909 79.896 79.909 79.939 79.941 79.976 79.989 80.031 80.091 80.156 80.227 80.317 80.362 80.429 80.532 80.604 80.674 80.794 80.932 81.087 81.262 81.454 81.677 81.957 82.247 82.514 82.797 83.099 83.337 83.592 83.809 83.999 84.219 84.329 84.454 84.539 84.607 84.642 84.654 84.632 84.652 84.657 84.627 84.594 84.614 84.609 84.669 84.707 84.797 84.884 85.019 85.159 85.322 85.482 85.642 85.817 85.949 86.082 86.219 86.342 86.544 86.707 86.874 87.014 87.159 87.327 87.454 87.582 87.757 87.907 88.092 88.257 88.449 88.639 88.879 89.077 89.307 89.539 89.744 89.962 90.244 90.482 90.739 91.004 91.349 91.619 91.934 92.237 92.564 92.847 93.172 93.432 93.649 93.889 94.089 94.242 94.394 94.514 94.662 94.804 94.919 95.059 95.204 95.314 95.447 95.572 95.692 95.894 95.949 96.154 96.282 96.447 96.584 96.689 96.879 97.312 98.839 98.659 98.209 98.269 98.419 98.669 98.969 99.297 99.592 99.977 100.344 100.709 101.107 101.474 101.894 102.292 102.672 103.044 103.399 103.724 104.009 104.297 104.537 104.734 104.909 105.062 105.167 105.317 105.392 105.474 105.557 105.682 105.764 105.902 106.027 106.129 106.277 106.457 106.654 106.862 107.034 107.187 107.262 107.362 107.444 107.517 107.539 107.594 107.639 -9999 -9999 -9999 -9999 -9999 -9999 -9999 -9999 -9999 -9999 -9999 -9999 -9999 -9999 -9999 -9999 -9999 -9999 -9999 -9999 -9999 -9999 -9999 -9999 -9999 -9999 -9999 -9999 -9999 -9999 -9999 -9999 -9999 -9999 -9999 -9999 -9999 -9999 -9999 -9999 -9999 -9999 -9999 -9999 110.592 110.64 110.69 110.717 110.762 110.842 110.902 110.994 111.022 111.075 111.082 111.095 111.072 111.082 111.05 111.032 111.002 111 111.015 111.017 111.137 111.262 111.735 111.392 111.46 112.067 112.732 112.967 113.012 113.012 112.992 113.054 113 113 112.997 113.06 113.075 113.13 113.244 112.917 112.532 112.142 111.962 111.72 111.552 111.539 111.52 111.5 111.455 111.487 111.527 111.367 111.297 111.71 111.325 111.255 111.242 111.575 112.612 112.887 113.03 113.07 113.005 112.932 112.832 112.695 112.64 112.517 112.475 112.375 112.31 112.237 112.13 112.065 112.005 111.955 111.902 111.912 111.862 111.882 111.785 111.615 111.512 111.44 111.365 111.387 111.362 111.59 111.497 111.317 111.34 111.327 111.31 111.307 111.345 111.417 111.685 111.997 112.212 112.34 112.42 112.432 112.43 112.342 112.257 112.075 111.872 111.525 111.245 111.45 110.69 110.465 110.32 110.16 110.215 110.392 110.215 110.102 109.835 109.792 109.77 109.752 109.795
76.664 76.676 76.701 76.701 76.746 76.786 76.831 76.826 76.884 76.936 76.959 76.981 76.999 77.064 77.109 77.179 77.226 77.246 77.291 77.346 77.396 77.456 77.519 77.571 77.629 77.666 77.719 77.786 77.799 77.839 77.851 77.871 77.859 77.909 77.901 77.919 77.941 77.964 77.966 77.991 78.024 78.081 78.094 78.129 78.161 78.199 78.256 78.259 78.351 78.399 78.446 78.534 78.581 78.649 78.804 78.869 78.969 79.146 79.459 79.224 79.244 79.301 79.454 79.544 79.611 79.676 79.779 79.841 79.896 79.926 79.921 79.926 79.929 79.929 79.879 79.881 79.861 79.804 79.794 79.819 79.804 79.821 79.819 79.851 79.881 79.924 79.941 79.991 80.079 80.094 80.209 80.279 80.349 80.439 80.522 80.637 80.724 80.847 81.017 81.167 81.349 81.639 81.917 82.189 82.502 82.757 83.009 83.262 83.502 83.712 83.887 84.067 84.204 84.307 84.377 84.417 84.449 84.487 84.474 84.464 84.422 84.394 84.382 84.417 84.432 84.489 84.567 84.642 84.754 84.867 85.004 85.159 85.317 85.449 85.609 85.747 85.887 86.034 86.187 86.369 86.529 86.674 86.822 86.949 87.109 87.262 87.402 87.559 87.724 87.914 88.102 88.292 88.532 88.739 88.984 89.202 89.454 89.682 89.944 90.212 90.489 90.737 91.059 91.339 91.629 91.929 92.219 92.539 92.804 93.079 93.324 93.554 93.779 93.962 94.082 94.217 94.347 94.502 94.627 94.764 94.889 95.039 95.117 95.289 95.407 95.557 95.682 95.819 95.969 96.119 96.269 96.382 96.489 96.837 98.717 98.659 97.952 97.994 98.059 98.332 98.597 98.869 99.179 99.527 99.857 100.239 100.602 100.974 101.372 101.742 102.127 102.472 102.842 103.162 103.454 103.719 103.967 104.204 104.374 104.507 104.659 104.792 104.904 105.014 105.109 105.202 105.292 105.407 105.524 105.672 105.774 105.977 106.179 106.387 106.617 106.789 106.934 107.074 107.147 107.229 107.309 107.359 107.409 107.454 107.544 -9999 -9999 -9999 -9999 -9999 -9999 -9999 -9999 -9999 -9999 -9999 -9999 -9999 -9999 -9999 -9999 -9999 -9999 -9999 -9999 -9999 -9999 -9999 -9999 -9999 -9999 -9999 -9999 -9999 -9999 -9999 -9999 -9999 -9999 -9999 -9999 -9999 -9999 -9999 -9999 -9999 -9999 110.599 110.624 110.697 110.732 110.777 110.797 110.867 110.935 110.979 111.05 111.112 111.132 111.152 111.16 111.147 111.132 111.107 111.077 111.057 111.062 111.062 111.067 111.305 111.244 111.492 111.88 111.542 111.987 112.642 113.017 113.042 112.99 113 113.05 113.022 113.022 112.99 112.975 113.082 113.127 113.115 113.057 112.865 112.455 111.985 111.652 111.56 111.537 111.527 111.619 111.977 112.065 111.66 111.352 111.637 111.387 111.457 111.8 112.207 112.867 113.05 113.015 112.982 112.872 112.842 112.745 112.685 112.607 112.55 112.552 112.46 112.385 112.247 112.21 112.132 112.095 112.047 111.962 111.92 111.937 111.772 111.66 111.522 111.5 111.472 111.395 111.465 111.497 111.422 111.367 111.335 111.395 111.592 111.822 111.99 112.26 112.46 112.545 112.617 112.595 112.502 112.4 112.235 112.005 111.79 111.487 111.16 110.842 110.58 110.412 110.402 110.367 110.227 110.065 110.177 110.017 109.955 109.87 109.825 109.797 109.815 109.817 109.81 109.807
76.604 76.719 76.684 76.626 76.669 76.716 76.754 76.814 76.866 76.894 76.934 76.979 77.011 77.034 77.086 77.094 77.124 77.141 77.206 77.249 77.326 77.359 77.421 77.521 77.564 77.636 77.666 77.701 77.726 77.751 77.799 77.816 77.789 77.801 77.816 77.811 77.851 77.851 77.869 77.904 77.909 77.981 77.984 77.996 78.041 78.081 78.094 78.146 78.184 78.239 78.269 78.351 78.409 78.514 78.624 78.714 78.829 79.079 79.044 79.006 79.054 79.156 79.294 79.361 79.449 79.544 79.611 79.676 79.736 79.749 79.746 79.766 79.774 79.736 79.751 79.741 79.711 79.691 79.721 79.719 79.709 79.719 79.749 79.774 79.806 79.806 79.869 79.941 79.971 80.042 80.104 80.187 80.227 80.332 80.404 80.504 80.607 80.784 80.949 81.109 81.334 81.597 81.877 82.164 82.467 82.689 82.957 83.172 83.389 83.594 83.782 83.899 84.014 84.109 84.184 84.239 84.259 84.269 84.289 84.279 84.252 84.212 84.197 84.192 84.214 84.282 84.339 84.444 84.549 84.714 84.822 84.959 85.109 85.287 85.404 85.589 85.729 85.869 86.029 86.159 86.312 86.464 86.574 86.724 86.887 87.064 87.204 87.357 87.564 87.762 87.962 88.219 88.422 88.649 88.909 89.154 89.417 89.654 89.912 90.209 90.442 90.762 91.079 91.322 91.607 91.914 92.214 92.487 92.784 93.024 93.232 93.459 93.637 93.797 93.932 94.044 94.192 94.322 94.452 94.592 94.682 94.834 94.949 95.107 95.249 95.382 95.532 95.669 95.807 95.964 96.067 96.204 96.414 97.089 98.002 97.659 97.707 97.784 97.977 98.219 98.519 98.777 99.104 99.412 99.739 100.119 100.469 100.869 101.204 101.592 101.947 102.289 102.604 102.917 103.169 103.444 103.657 103.839 103.984 104.114 104.279 104.419 104.514 104.609 104.677 104.767 104.867 104.997 105.162 105.354 105.517 105.707 105.892 106.139 106.352 106.547 106.702 106.824 106.907 106.992 107.079 107.174 107.224 107.299 107.397 107.469 -9999 -9999 -9999 -9999 -9999 -9999 -9999 -9999 -9999 -9999 -9999 -9999 -9999 -9999 -9999 -9999 -9999 -9999 -9999 -9999 -9999 -9999 -9999 -9999 -9999 -9999 -9999 -9999 -9999 -9999 -9999 -9999 -9999 -9999 -9999 -9999 -9999 -9999 -9999 -9999 -9999 110.634 110.657 110.727 110.767 110.815 110.85 110.887 110.947 111 111.049 111.115 111.182 111.207 111.247 111.232 111.217 111.177 111.152 111.119 111.119 111.1 111.09 111.125 111.17 111.372 111.507 111.51 112.052 112.09 112.727 113.08 113.104 112.965 113.01 113.08 113.082 113.037 113 113.022 113.03 113.122 113.13 113.185 113.1 112.807 112.357 111.92 111.735 111.632 111.597 111.575 111.592 111.617 111.685 111.815 111.892 112.112 112.572 112.905 113.01 113.025 112.935 113.017 112.807 112.772 112.75 112.767 112.71 112.602 112.555 112.42 112.367 112.297 112.267 112.185 112.127 112.065 111.98 111.89 111.84 111.7 111.707 111.635 111.622 111.5 111.4 111.432 111.535 111.37 111.41 111.66 112.042 112.41 112.77 112.865 112.872 112.8 112.705 112.5 112.265 111.937 111.635 111.335 111.075 110.8 110.602 110.362 110.25 110.215 110.207 110.425 110.21 110.107 109.922 109.857 109.895 109.882 109.877 109.862 109.82 109.815 109.805 109.79 109.79
76.411 76.276 76.541 76.621 76.691 76.696 76.731 76.769 76.834 76.836 76.891 76.939 76.981 76.999 77.046 77.066 77.099 77.101 77.151 77.166 77.241 77.324 77.379 77.421 77.514 77.564 77.609 77.639 77.666 77.704 77.734 77.709 77.724 77.726 77.736 77.741 77.741 77.744 77.781 77.794 77.844 77.851 77.846 77.896 77.926 77.929 77.969 78.001 78.034 78.076 78.109 78.191 78.274 78.354 78.464 78.551 78.751 78.874 78.726 78.799 78.884 78.994 79.119 79.201 79.296 79.371 79.431 79.494 79.539 79.584 79.574 79.609 79.609 79.614 79.644 79.631 79.621 79.626 79.644 79.649 79.624 79.679 79.669 79.686 79.719 79.779 79.806 79.861 79.909 79.942 79.992 80.059 80.169 80.242 80.319 80.427 80.532 80.707 80.844 81.084 81.302 81.552 81.859 82.109 82.369 82.622 82.844 83.064 83.247 83.467 83.609 83.732 83.829 83.914 83.992 84.037 84.039 84.062 84.064 84.052 84.012 83.987 84.002 84.059 84.039 84.112 84.179 84.282 84.379 84.492 84.627 84.769 84.932 85.092 85.242 85.407 85.522 85.692 85.832 85.989 86.132 86.272 86.402 86.559 86.674 86.832 87.012 87.214 87.424 87.637 87.859 88.107 88.404 88.637 88.899 89.154 89.407 89.654 89.939 90.187 90.454 90.769 91.047 91.324 91.609 91.922 92.174 92.439 92.709 92.934 93.174 93.349 93.509 93.637 93.759 93.892 94.022 94.129 94.279 94.424 94.539 94.669 94.807 94.937 95.114 95.254 95.402 95.512 95.667 95.784 95.907 96.057 97.107 97.784 97.392 97.422 97.522 97.704 97.894 98.139 98.412 98.694 99.029 99.309 99.654 100.017 100.374 100.739 101.062 101.419 101.739 102.057 102.347 102.632 102.877 103.109 103.304 103.447 103.612 103.754 103.879 103.989 104.097 104.167 104.249 104.369 104.489 104.644 104.814 105.007 105.204 105.424 105.612 105.844 106.072 106.234 106.417 106.524 106.629 106.729 106.864 106.949 107.054 107.137 107.219 107.382 -9999 -9999 -9999 -9999 -9999 -9999 -9999 -9999 -9999 -9999 -9999 -9999 -9999 -9999 -9999 -9999 -9999 -9999 -9999 -9999 -9999 -9999 -9999 -9999 -9999 -9999 -9999 -9999 -9999 -9999 -9999 -9999 -9999 -9999 -9999 -9999 -9999 -9999 -9999 -9999 -9999 110.659 110.694 110.74 110.812 110.857 110.89 110.922 110.955 111.012 111.08 111.167 111.21 111.265 111.295 111.325 111.312 111.262 111.222 111.225 111.197 111.14 111.18 111.175 111.175 111.292 111.362 111.517 112.252 111.857 112.117 112.892 113.137 113.134 113.08 113.077 113.104 113.077 113.052 113.05 113.015 113.067 113.117 113.117 113.125 113.092 113.077 112.69 112.354 112.149 112.095 112.14 112.237 112.402 112.535 112.592 112.695 112.885 112.98 112.977 113.045 112.95 112.917 112.902 112.855 112.807 112.775 112.73 112.652 112.56 112.557 112.465 112.42 112.405 112.32 112.222 112.162 112.077 111.98 111.907 111.862 111.812 111.775 111.695 111.617 111.455 111.345 111.44 111.357 111.375 111.67 112.287 112.915 113.025 113.032 112.982 112.767 112.477 112.12 111.745 111.46 111.082 110.825 110.555 110.392 110.387 110.27 110.182 110.115 110.047 110.052 109.985 109.95 109.942 109.925 109.927 109.94 109.887 109.865 109.837 109.767 109.775 109.792 109.812 109.83
76.221 75.871 75.916 76.126 76.431 77.144 76.926 76.796 76.779 76.814 76.874 76.884 76.974 76.951 77.004 77.044 77.089 77.099 77.126 77.166 77.174 77.271 77.321 77.394 77.454 77.496 77.541 77.621 77.619 77.664 77.641 77.666 77.684 77.656 77.669 77.671 77.689 77.686 77.689 77.696 77.719 77.719 77.719 77.756 77.781 77.829 77.861 77.876 77.931 77.939 78.016 78.054 78.139 78.196 78.304 78.449 78.614 78.541 78.559 78.616 78.709 78.824 78.939 79.041 79.119 79.209 79.251 79.319 79.364 79.391 79.429 79.444 79.439 79.461 79.516 79.511 79.524 79.541 79.554 79.539 79.584 79.599 79.619 79.606 79.664 79.701 79.744 79.761 79.821 79.852 79.922 79.982 80.089 80.179 80.244 80.374 80.457 80.609 80.802 81.019 81.242 81.507 81.762 81.999 82.279 82.524 82.739 82.962 83.119 83.319 83.454 83.579 83.634 83.722 83.789 83.822 83.842 83.832 83.859 83.807 83.807 83.799 83.827 83.857 83.887 83.922 84.007 84.084 84.189 84.317 84.407 84.577 84.747 84.907 85.052 85.212 85.369 85.489 85.624 85.774 85.914 86.054 86.172 86.319 86.474 86.664 86.842 87.039 87.299 87.589 87.832 88.132 88.369 88.632 88.879 89.157 89.397 89.654 89.927 90.219 90.479 90.762 91.042 91.289 91.604 91.867 92.117 92.374 92.619 92.842 93.019 93.192 93.339 93.459 93.617 93.747 93.829 94.014 94.104 94.229 94.374 94.484 94.659 94.782 94.932 95.112 95.239 95.367 95.519 95.632 95.772 96.897 97.872 97.197 97.179 97.247 97.409 97.602 97.822 98.069 98.327 98.592 98.897 99.234 99.577 99.927 100.217 100.577 100.917 101.219 101.527 101.824 102.109 102.362 102.587 102.777 102.989 103.142 103.259 103.347 103.487 103.567 103.682 103.774 103.889 104.024 104.127 104.287 104.499 104.699 104.907 105.064 105.322 105.564 105.787 105.962 106.114 106.229 106.357 106.492 106.604 106.717 106.822 106.942 107.079 107.257 107.377 -9999 -9999 -9999 -9999 -9999 -9999 -9999 -9999 -9999 -9999 -9999 -9999 -9999 -9999 -9999 -9999 -9999 -9999 -9999 -9999 -9999 -9999 -9999 -9999 -9999 -9999 -9999 -9999 -9999 -9999 -9999 -9999 -9999 -9999 -9999 -9999 -9999 -9999 -9999 110.634 110.662 110.757 110.807 110.857 110.88 110.947 110.985 111.02 111.065 111.082 111.174 111.227 111.265 111.31 111.342 111.375 111.375 111.337 111.305 111.277 111.247 111.267 111.222 111.255 111.287 111.345 111.507 111.68 111.902 112.405 112.337 112.982 113.149 113.037 113.07 113.075 113.102 113.107 113.087 113.047 113.047 113.042 113.097 113.132 113.132 113.125 113.107 113.122 113 112.867 112.997 112.872 112.977 113.045 113.022 113.022 113.057 113.027 113.012 113.025 112.99 113.005 112.932 112.86 112.82 112.787 112.785 112.715 112.645 112.612 112.557 112.497 112.437 112.352 112.31 112.21 112.1 112.03 112.03 111.982 111.912 111.795 111.707 111.55 111.242 111.227 111.22 111.297 111.402 111.995 112.675 112.952 112.957 112.747 112.445 112.045 111.577 111.145 110.775 110.65 110.66 110.555 110.302 110.325 110.46 110.275 110.065 110.055 110.03 110.032 110.012 109.982 109.96 109.935 109.92 109.92 109.902 109.857 109.837 109.82 109.845 109.852 109.815 109.795
76.601 76.151 75.986 75.964 75.891 76.466 77.474 77.224 77.371 77.029 76.926 76.891 76.904 76.944 76.979 77.014 77.034 77.071 77.099 77.154 77.194 77.264 77.291 77.329 77.394 77.449 77.506 77.554 77.571 77.604 77.606 77.609 77.614 77.616 77.631 77.634 77.629 77.609 77.641 77.621 77.631 77.616 77.649 77.651 77.656 77.709 77.726 77.766 77.754 77.811 77.844 77.941 78.019 78.066 78.196 78.456 78.354 78.334 78.396 78.469 78.586 78.684 78.744 78.884 78.969 79.026 79.074 79.126 79.181 79.196 79.256 79.274 79.299 79.359 79.366 79.384 79.396 79.426 79.436 79.464 79.511 79.521 79.539 79.581 79.611 79.629 79.644 79.681 79.739 79.794 79.824 79.892 80.012 80.094 80.194 80.292 80.389 80.577 80.752 80.944 81.189 81.419 81.662 81.924 82.179 82.402 82.629 82.814 82.992 83.149 83.289 83.387 83.419 83.512 83.539 83.582 83.604 83.634 83.639 83.602 83.632 83.639 83.629 83.654 83.689 83.749 83.817 83.914 84.007 84.122 84.229 84.407 84.552 84.694 84.879 85.039 85.199 85.342 85.422 85.577 85.714 85.854 85.957 86.122 86.292 86.502 86.687 86.917 87.219 87.524 87.792 88.097 88.369 88.644 88.907 89.172 89.432 89.682 89.952 90.229 90.519 90.742 91.024 91.287 91.559 91.774 92.052 92.269 92.494 92.709 92.887 93.044 93.182 93.332 93.479 93.564 93.684 93.814 93.947 94.084 94.202 94.312 94.497 94.624 94.802 94.959 95.092 95.254 95.347 95.492 96.289 97.642 97.017 96.944 96.989 97.107 97.284 97.509 97.747 97.979 98.222 98.519 98.814 99.127 99.434 99.764 100.067 100.399 100.704 101.004 101.279 101.567 101.849 102.074 102.287 102.477 102.644 102.797 102.899 102.987 103.094 103.194 103.284 103.427 103.544 103.687 103.844 104.012 104.224 104.424 104.632 104.799 105.092 105.277 105.492 105.732 105.832 105.937 106.102 106.217 106.347 106.484 106.599 106.757 106.904 107.087 107.264 107.386 -9999 -9999 -9999 -9999 -9999 -9999 -9999 -9999 -9999 -9999 -9999 -9999 -9999 -9999 -9999 -9999 -9999 -9999 -9999 -9999 -9999 -9999 -9999 -9999 -9999 -9999 -9999 -9999 -9999 -9999 -9999 -9999 -9999 -9999 -9999 -9999 -9999 -9999 110.612 110.697 110.777 110.81 110.88 110.924 111.002 111.015 111.075 111.107 111.115 111.16 111.235 111.28 111.33 111.352 111.405 111.44 111.432 111.402 111.387 111.357 111.347 111.317 111.352 111.367 111.45 111.49 111.675 111.712 111.922 112.265 113.082 112.897 113.007 113.024 113.08 113.112 113.16 113.119 113.11 113.097 113.065 113.06 113.062 113.085 113.11 113.097 113.11 113.117 113.1 113.08 113.09 113.06 113.062 113.07 113.077 113.062 113.04 113.05 112.992 112.937 112.982 112.917 112.932 112.917 112.832 112.78 112.79 112.737 112.665 112.597 112.557 112.477 112.37 112.332 112.287 112.227 112.167 112.112 112.04 111.9 111.722 111.45 111.252 111.15 111.15 111.185 111.23 111.315 111.76 112.312 112.542 112.345 111.92 111.457 111.065 110.732 110.61 110.527 110.647 110.435 110.575 110.297 110.207 110.195 110.182 110.125 110.117 110.087 110.067 110 109.952 109.962 109.945 109.912 109.902 109.897 109.88 109.85 109.86 109.842 109.822 109.792 109.8
76.656 76.696 76.546 76.234 76.091 76.001 76.486 76.991 78.211 78.194 77.559 77.136 77.006 76.951 76.924 76.951 76.954 77.034 77.099 77.114 77.166 77.226 77.294 77.321 77.411 77.419 77.479 77.489 77.514 77.549 77.561 77.554 77.549 77.559 77.611 77.551 77.569 77.571 77.534 77.566 77.544 77.541 77.559 77.571 77.574 77.589 77.619 77.659 77.664 77.714 77.729 77.809 77.881 77.949 78.124 78.316 78.154 78.211 78.251 78.334 78.471 78.516 78.589 78.704 78.794 78.859 78.896 78.954 78.991 79.054 79.094 79.144 79.191 79.219 79.239 79.269 79.279 79.329 79.324 79.379 79.424 79.479 79.471 79.501 79.526 79.556 79.551 79.569 79.639 79.679 79.779 79.832 79.922 80.037 80.109 80.237 80.359 80.492 80.682 80.862 81.112 81.349 81.577 81.842 82.064 82.289 82.537 82.717 82.877 83.007 83.084 83.172 83.247 83.289 83.329 83.367 83.389 83.394 83.432 83.424 83.414 83.439 83.449 83.487 83.497 83.574 83.652 83.729 83.827 83.957 84.079 84.232 84.329 84.539 84.689 84.834 84.999 85.119 85.254 85.384 85.487 85.639 85.757 85.952 86.099 86.327 86.564 86.864 87.167 87.459 87.762 88.052 88.354 88.632 88.907 89.169 89.427 89.689 89.952 90.209 90.479 90.707 91.007 91.227 91.464 91.722 91.944 92.154 92.377 92.549 92.727 92.884 93.014 93.147 93.274 93.402 93.509 93.634 93.747 93.887 94.029 94.164 94.329 94.507 94.659 94.814 94.962 95.092 95.239 95.572 96.719 96.829 96.712 96.777 96.859 97.024 97.209 97.417 97.632 97.884 98.159 98.439 98.704 98.994 99.312 99.607 99.909 100.194 100.459 100.767 101.029 101.299 101.552 101.804 101.979 102.167 102.329 102.469 102.544 102.647 102.742 102.864 102.947 103.082 103.224 103.387 103.537 103.734 103.912 104.159 104.364 104.594 104.804 105.004 105.194 105.369 105.544 105.692 105.767 105.944 106.077 106.217 106.409 106.572 106.742 106.917 107.097 107.292 107.419 -9999 -9999 -9999 -9999 -9999 -9999 -9999 -9999 -9999 -9999 -9999 -9999 -9999 -9999 -9999 -9999 -9999 -9999 -9999 -9999 -9999 -9999 -9999 -9999 -9999 -9999 -9999 -9999 -9999 -9999 -9999 -9999 -9999 -9999 -9999 -9999 110.529 110.612 110.712 110.782 110.86 110.917 110.972 111.022 111.07 111.1 111.14 111.17 111.202 111.265 111.292 111.365 111.38 111.424 111.455 111.47 111.487 111.47 111.427 111.417 111.427 111.465 111.502 111.542 111.562 111.595 111.6 111.687 112.18 113.342 112.865 112.917 112.965 113.09 113.102 113.115 113.117 113.165 113.125 113.102 113.102 113.092 113.03 113.064 113.085 113.119 113.102 113.095 113.112 113.122 113.13 113.087 113.032 113.02 113.02 113.055 113.012 112.982 113.042 113.032 113.03 112.95 112.93 112.925 112.907 112.852 112.77 112.682 112.61 112.54 112.52 112.4 112.435 112.402 112.342 112.267 112.217 112.032 111.612 111.322 111.217 111.162 111.155 111.167 111.19 111.177 111.18 111.38 111.762 111.785 111.337 111.012 110.755 110.667 110.577 110.685 110.602 110.422 110.317 110.295 110.297 110.267 110.227 110.18 110.147 110.125 110.092 110.045 109.982 109.972 109.992 109.945 109.942 109.932 109.862 109.867 109.865 109.842 109.83 109.79 109.765 109.77
76.589 76.666 76.669 76.554 76.461 76.159 76.014 76.139 77.231 77.161 77.489 77.404 78.334 77.631 77.081 77.006 76.986 76.989 77.044 77.084 77.121 77.214 77.239 77.326 77.371 77.426 77.454 77.476 77.484 77.506 77.516 77.509 77.534 77.569 77.551 77.531 77.486 77.479 77.471 77.476 77.476 77.461 77.476 77.476 77.489 77.494 77.516 77.524 77.554 77.599 77.659 77.739 77.761 77.884 78.151 78.039 78.021 78.061 78.109 78.211 78.264 78.366 78.476 78.526 78.616 78.691 78.744 78.779 78.846 78.909 78.944 79.001 79.081 79.119 79.119 79.149 79.214 79.256 79.291 79.306 79.356 79.396 79.386 79.424 79.439 79.444 79.504 79.521 79.581 79.592 79.672 79.792 79.834 79.949 80.047 80.157 80.292 80.399 80.619 80.802 81.032 81.274 81.517 81.757 81.984 82.207 82.412 82.589 82.729 82.847 82.914 82.967 83.019 83.074 83.079 83.132 83.164 83.177 83.199 83.209 83.234 83.222 83.282 83.337 83.357 83.417 83.499 83.564 83.639 83.737 83.879 84.022 84.157 84.309 84.474 84.622 84.799 84.922 85.059 85.167 85.284 85.412 85.559 85.754 85.947 86.194 86.502 86.782 87.082 87.397 87.727 88.014 88.302 88.567 88.849 89.099 89.389 89.647 89.907 90.212 90.437 90.709 90.944 91.152 91.362 91.617 91.812 92.042 92.219 92.382 92.567 92.719 92.879 92.999 93.114 93.239 93.327 93.464 93.604 93.717 93.852 93.974 94.192 94.369 94.517 94.672 94.797 94.962 95.399 96.519 96.769 96.477 96.517 96.554 96.732 96.922 97.104 97.309 97.572 97.784 98.042 98.309 98.604 98.852 99.142 99.429 99.709 99.999 100.232 100.529 100.787 101.042 101.289 101.499 101.699 101.859 102.014 102.124 102.239 102.359 102.437 102.532 102.664 102.764 102.932 103.092 103.279 103.457 103.687 103.859 104.072 104.312 104.524 104.702 104.882 105.067 105.187 105.304 105.459 105.639 105.812 105.984 106.177 106.354 106.587 106.764 106.964 107.177 107.339 -9999 -9999 -9999 -9999 -9999 -9999 -9999 -9999 -9999 -9999 -9999 -9999 -9999 -9999 -9999 -9999 -9999 -9999 -9999 -9999 -9999 -9999 -9999 -9999 -9999 -9999 -9999 -9999 -9999 -9999 -9999 -9999 -9999 -9999 -9999 110.459 110.539 110.622 110.687 110.787 110.877 110.95 110.982 111.057 111.092 111.155 111.202 111.217 111.255 111.29 111.325 111.347 111.41 111.44 111.465 111.505 111.55 111.53 111.509 111.507 111.52 111.562 111.604 111.622 111.67 111.6 111.527 111.607 111.932 112.384 112.832 112.88 112.96 113.022 113.077 113.08 113.14 113.202 113.197 113.157 113.157 113.115 113.1 113.072 113.072 113.09 113.049 113.052 113.035 113.042 113.032 113.042 113.065 113.112 113.067 113.022 113.047 113.047 113.075 113.025 113.032 113.04 113.007 113.002 113.035 112.907 112.83 112.695 112.695 112.595 112.565 112.57 112.595 112.527 112.442 112.272 111.98 111.582 111.265 111.202 111.205 111.15 111.135 111.187 111.152 111.122 111.065 111.085 111.102 110.925 110.795 110.735 110.682 110.672 110.555 110.447 110.38 110.397 110.382 110.357 110.315 110.282 110.22 110.187 110.155 110.17 110.105 110.04 110.055 110.035 109.987 109.945 109.92 109.88 109.867 109.862 109.872 109.815 109.835 109.807 109.802 109.785
76.479 76.496 76.581 76.586 76.751 76.721 76.649 76.429 76.249 76.141 75.984 76.101 77.574 78.389 78.221 77.556 77.516 77.149 77.056 77.086 77.124 77.194 77.239 77.334 77.359 77.406 77.464 77.484 77.501 77.516 77.546 77.496 77.521 77.499 77.491 77.514 77.479 77.469 77.424 77.404 77.419 77.404 77.364 77.409 77.396 77.421 77.401 77.436 77.481 77.536 77.634 77.636 77.696 77.949 78.046 77.911 77.936 77.969 78.039 78.124 78.169 78.256 78.336 78.429 78.471 78.531 78.581 78.639 78.691 78.749 78.806 78.884 78.911 78.951 79.034 79.061 79.119 79.156 79.189 79.249 79.281 79.309 79.306 79.331 79.341 79.361 79.394 79.449 79.481 79.509 79.634 79.709 79.759 79.862 79.974 80.107 80.219 80.352 80.539 80.734 80.939 81.202 81.419 81.649 81.894 82.114 82.304 82.447 82.584 82.659 82.737 82.784 82.824 82.862 82.914 82.912 82.939 82.977 83.014 83.009 83.049 83.064 83.099 83.149 83.192 83.244 83.344 83.382 83.484 83.567 83.699 83.802 83.949 84.142 84.297 84.447 84.584 84.709 84.834 84.944 85.107 85.234 85.412 85.589 85.804 86.089 86.397 86.674 86.989 87.339 87.607 87.947 88.214 88.482 88.809 89.054 89.337 89.592 89.872 90.099 90.354 90.612 90.829 91.054 91.249 91.449 91.679 91.859 92.052 92.227 92.389 92.549 92.689 92.832 92.942 93.109 93.192 93.317 93.414 93.554 93.674 93.862 94.032 94.234 94.392 94.534 94.644 95.082 96.627 96.847 96.174 96.232 96.279 96.457 96.632 96.824 96.992 97.239 97.484 97.689 97.954 98.194 98.462 98.697 98.992 99.274 99.504 99.777 100.009 100.294 100.562 100.797 101.012 101.222 101.422 101.594 101.732 101.824 101.927 102.059 102.177 102.284 102.392 102.509 102.652 102.807 102.979 103.169 103.367 103.607 103.804 104.017 104.192 104.387 104.597 104.737 104.864 104.974 105.162 105.342 105.529 105.769 105.942 106.182 106.387 106.612 106.874 107.034 107.257 107.427 -9999 -9999 -9999 -9999 -9999 -9999 -9999 -9999 -9999 -9999 -9999 -9999 -9999 -9999 -9999 -9999 -9999 -9999 -9999 -9999 -9999 -9999 -9999 -9999 -9999 -9999 -9999 -9999 -9999 -9999 -9999 -9999 -9999 -9999 110.389 110.487 110.597 110.714 110.799 110.905 110.979 110.994 111.09 111.092 111.2 111.227 111.242 111.289 111.332 111.357 111.387 111.412 111.435 111.47 111.507 111.522 111.57 111.58 111.577 111.587 111.634 111.707 111.752 111.757 111.68 111.59 111.715 112.565 113.065 112.729 112.822 112.907 112.955 113.047 113.05 113.127 113.175 113.19 113.217 113.262 113.207 113.16 113.122 113.11 113.09 113.082 113.067 113.047 113.095 113.072 113.042 113.05 113.025 113.035 113.102 113.095 113.09 113.102 113.095 113.182 113.205 113.14 113.06 113.025 112.945 112.862 112.762 112.69 112.72 112.735 112.697 112.675 112.58 112.335 111.855 111.517 111.332 111.26 111.265 111.232 111.19 111.157 111.135 111.092 111.032 110.99 110.95 110.872 110.79 110.84 110.617 110.525 110.565 110.472 110.465 110.467 110.42 110.38 110.372 110.312 110.28 110.225 110.21 110.17 110.122 110.102 110.08 110.047 110.022 109.987 109.95 109.912 109.877 109.882 109.862 109.84 109.817 109.832 109.81 109.807 109.767
76.461 76.466 76.466 76.504 76.576 76.666 76.751 76.916 76.894 76.686 76.349 76.199 76.234 76.224 76.881 77.864 78.516 78.026 77.311 77.349 77.179 77.151 77.229 77.311 77.344 77.386 77.426 77.459 77.501 77.501 77.509 77.526 77.509 77.499 77.511 77.501 77.466 77.449 77.371 77.394 77.364 77.346 77.324 77.356 77.361 77.371 77.364 77.356 77.409 77.509 77.524 77.574 77.761 78.121 77.809 77.824 77.834 77.911 77.944 78.019 78.076 78.154 78.239 78.299 78.316 78.394 78.436 78.509 78.549 78.599 78.704 78.751 78.816 78.901 78.929 78.991 79.011 79.069 79.111 79.156 79.194 79.204 79.216 79.231 79.231 79.256 79.309 79.326 79.396 79.464 79.537 79.639 79.704 79.814 79.897 80.014 80.152 80.294 80.469 80.682 80.882 81.094 81.349 81.574 81.784 81.997 82.164 82.309 82.417 82.504 82.547 82.619 82.647 82.644 82.679 82.694 82.727 82.774 82.789 82.829 82.869 82.872 82.937 82.987 83.029 83.082 83.139 83.229 83.289 83.382 83.512 83.644 83.769 83.924 84.072 84.257 84.367 84.517 84.624 84.757 84.904 85.059 85.204 85.442 85.692 85.992 86.274 86.574 86.894 87.192 87.522 87.827 88.109 88.377 88.677 88.947 89.224 89.494 89.769 90.002 90.257 90.462 90.684 90.902 91.104 91.312 91.519 91.684 91.839 92.054 92.209 92.349 92.514 92.644 92.752 92.894 93.019 93.114 93.247 93.422 93.514 93.739 93.909 94.112 94.207 94.394 94.622 95.689 96.682 95.899 95.914 96.012 96.144 96.332 96.512 96.699 96.907 97.149 97.347 97.587 97.837 98.067 98.304 98.557 98.792 99.067 99.284 99.564 99.802 100.049 100.299 100.527 100.742 100.934 101.117 101.282 101.387 101.519 101.677 101.814 101.924 102.027 102.154 102.294 102.434 102.559 102.719 102.954 103.124 103.317 103.532 103.704 103.869 104.054 104.252 104.407 104.517 104.652 104.837 105.077 105.247 105.529 105.714 105.962 106.187 106.409 106.652 106.889 107.069 107.284 107.399 -9999 -9999 -9999 -9999 -9999 -9999 -9999 -9999 -9999 -9999 -9999 -9999 -9999 -9999 -9999 -9999 -9999 -9999 -9999 -9999 -9999 -9999 -9999 -9999 -9999 -9999 -9999 -9999 -9999 -9999 -9999 -9999 110.199 110.324 110.464 110.577 110.687 110.794 110.877 110.962 111.022 111.107 111.155 111.21 111.255 111.262 111.305 111.327 111.377 111.405 111.42 111.45 111.505 111.537 111.567 111.602 111.642 111.675 111.682 111.722 111.785 111.842 111.8 111.715 111.69 112.357 113.112 112.687 112.68 112.767 112.85 112.915 113.005 113.062 113.095 113.087 113.155 113.215 113.302 113.322 113.232 113.177 113.157 113.137 113.125 113.104 113.095 113.117 113.047 113.06 113.015 113.05 113.022 113.045 113.082 113.092 113.13 113.122 113.16 113.245 113.24 113.072 113.025 112.935 112.867 112.83 112.822 112.842 112.807 112.775 112.635 112.285 111.9 111.547 111.415 111.315 111.31 111.277 111.255 111.205 111.14 111.097 111.01 110.965 110.945 110.885 110.905 110.662 110.657 110.57 110.557 110.53 110.54 110.492 110.47 110.41 110.412 110.377 110.292 110.272 110.222 110.22 110.167 110.132 110.115 110.07 110.045 110.037 110.002 109.962 109.935 109.902 109.877 109.87 109.86 109.827 109.795 109.795 109.795 109.777
76.484 76.519 76.481 76.501 76.599 76.656 76.721 76.784 76.844 77.016 77.094 77.074 76.794 76.496 76.104 76.069 76.969 77.541 77.894 78.011 78.121 77.684 77.424 77.291 77.324 77.369 77.424 77.441 77.466 77.471 77.466 77.484 77.499 77.486 77.494 77.464 77.454 77.401 77.369 77.354 77.336 77.326 77.289 77.319 77.319 77.281 77.324 77.309 77.346 77.436 77.514 77.574 77.859 77.779 77.706 77.724 77.801 77.839 77.874 77.939 78.006 78.056 78.109 78.141 78.194 78.271 78.321 78.394 78.454 78.519 78.584 78.646 78.714 78.776 78.824 78.884 78.929 78.986 79.029 79.086 79.106 79.109 79.131 79.124 79.171 79.146 79.191 79.226 79.316 79.349 79.482 79.517 79.637 79.747 79.829 79.954 80.077 80.224 80.419 80.582 80.807 81.027 81.239 81.497 81.692 81.889 82.067 82.172 82.269 82.339 82.369 82.414 82.447 82.484 82.477 82.484 82.512 82.572 82.574 82.642 82.657 82.684 82.742 82.812 82.844 82.887 82.977 83.047 83.119 83.204 83.324 83.467 83.617 83.742 83.879 84.047 84.172 84.302 84.427 84.554 84.689 84.832 85.037 85.274 85.549 85.854 86.127 86.417 86.762 87.059 87.382 87.687 87.967 88.244 88.554 88.807 89.107 89.377 89.657 89.879 90.119 90.324 90.567 90.759 90.947 91.157 91.334 91.517 91.669 91.852 92.047 92.174 92.339 92.464 92.609 92.714 92.822 92.939 93.094 93.217 93.399 93.589 93.757 93.932 94.072 94.279 94.969 96.404 95.597 95.577 95.667 95.787 95.992 96.164 96.384 96.622 96.822 97.024 97.217 97.467 97.707 97.919 98.122 98.387 98.609 98.832 99.052 99.314 99.589 99.809 100.084 100.287 100.494 100.657 100.827 100.997 101.142 101.287 101.424 101.522 101.669 101.787 101.932 102.082 102.212 102.354 102.512 102.704 102.872 103.074 103.222 103.407 103.609 103.764 103.927 104.029 104.214 104.377 104.564 104.802 105.014 105.257 105.504 105.707 105.974 106.192 106.447 106.694 106.899 107.117 107.297 107.459 -9999 -9999 -9999 -9999 -9999 -9999 -9999 -9999 -9999 -9999 -9999 -9999 -9999 -9999 -9999 -9999 -9999 -9999 -9999 -9999 -9999 -9999 -9999 -9999 -9999 -9999 -9999 -9999 -9999 -9999 -9999 110.179 110.284 110.364 110.499 110.652 110.759 110.89 110.979 111.037 111.112 111.165 111.212 111.274 111.289 111.312 111.357 111.39 111.405 111.405 111.447 111.485 111.517 111.562 111.625 111.682 111.762 111.815 111.842 111.862 111.872 111.807 111.774 112.052 112.792 112.53 112.672 112.617 112.692 112.792 112.86 112.947 113.13 113.125 113.134 113.085 113.155 113.217 113.337 113.337 113.275 113.22 113.162 113.149 113.125 113.157 113.042 113.032 113.057 113.072 113.052 113.005 113.035 113.062 113.117 113.145 113.14 113.165 113.175 113.182 113.095 113.032 112.95 112.907 112.912 112.932 112.915 112.9 112.72 112.33 111.86 111.65 111.515 111.41 111.35 111.362 111.317 111.242 111.182 111.09 111.047 110.972 110.892 110.957 110.782 110.685 110.68 110.667 110.642 110.58 110.525 110.502 110.47 110.46 110.477 110.415 110.375 110.325 110.28 110.262 110.24 110.202 110.172 110.147 110.077 110.077 110.022 110 109.977 109.942 109.87 109.845 109.865 109.86 109.825 109.815 109.805 109.797 109.767
76.479 76.516 76.544 76.564 76.639 76.686 76.686 76.714 76.756 76.826 76.909 77.069 77.171 77.116 76.886 76.616 76.361 76.181 76.416 76.736 77.841 78.776 79.089 78.346 77.509 77.421 77.364 77.411 77.439 77.439 77.471 77.481 77.479 77.451 77.479 77.451 77.426 77.401 77.366 77.361 77.351 77.324 77.286 77.281 77.246 77.279 77.276 77.276 77.349 77.419 77.486 77.656 77.889 77.604 77.634 77.674 77.729 77.779 77.796 77.851 77.931 77.971 77.996 78.071 78.089 78.176 78.191 78.269 78.346 78.404 78.471 78.544 78.601 78.691 78.741 78.821 78.811 78.891 78.949 78.991 79.031 79.026 79.036 79.054 79.051 79.069 79.109 79.169 79.246 79.297 79.359 79.464 79.582 79.677 79.789 79.889 80.007 80.184 80.329 80.519 80.692 80.922 81.137 81.344 81.577 81.722 81.932 82.014 82.122 82.162 82.167 82.222 82.242 82.267 82.284 82.289 82.322 82.359 82.409 82.439 82.454 82.509 82.559 82.557 82.647 82.712 82.769 82.852 82.922 83.012 83.164 83.259 83.372 83.549 83.727 83.839 83.969 84.109 84.242 84.382 84.482 84.652 84.857 85.114 85.374 85.672 85.939 86.272 86.589 86.884 87.174 87.482 87.764 88.084 88.414 88.669 88.937 89.234 89.507 89.744 89.964 90.172 90.389 90.587 90.757 90.954 91.142 91.324 91.509 91.672 91.842 91.999 92.157 92.344 92.429 92.489 92.644 92.782 92.907 93.082 93.247 93.437 93.617 93.729 93.902 94.579 95.422 95.292 95.192 95.287 95.404 95.597 95.812 96.027 96.269 96.477 96.684 96.884 97.082 97.299 97.554 97.764 97.954 98.157 98.394 98.634 98.854 99.107 99.334 99.572 99.837 100.014 100.217 100.392 100.567 100.737 100.912 101.054 101.152 101.317 101.444 101.549 101.714 101.837 101.974 102.112 102.252 102.459 102.614 102.789 102.934 103.132 103.289 103.459 103.597 103.742 103.904 104.102 104.322 104.532 104.789 105.022 105.234 105.482 105.762 106.019 106.264 106.492 106.707 106.947 107.162 107.352 -9999 -9999 -9999 -9999 -9999 -9999 -9999 -9999 -9999 -9999 -9999 -9999 -9999 -9999 -9999 -9999 -9999 -9999 -9999 -9999 -9999 -9999 -9999 -9999 -9999 -9999 -9999 -9999 -9999 -9999 110.159 110.204 110.304 110.352 110.437 110.559 110.669 110.827 110.975 111.027 111.097 111.149 111.197 111.245 111.295 111.302 111.352 111.387 111.407 111.43 111.46 111.482 111.515 111.557 111.632 111.685 111.792 111.865 111.897 111.917 111.877 111.815 112.142 112.76 112.377 112.384 112.907 112.785 112.652 112.735 112.84 113.022 113.09 113.145 113.155 113.132 113.162 113.255 113.28 113.327 113.375 113.242 113.2 113.177 113.132 113.137 113.072 113.052 113.195 113.29 113.29 113.272 113.197 113.147 113.095 113.13 113.155 113.187 113.172 113.125 113.157 113.047 113.027 112.97 112.972 112.972 112.965 112.747 112.277 111.94 111.757 111.66 111.585 111.465 111.415 111.382 111.297 111.2 111.105 111.082 111.182 110.99 110.845 110.805 110.81 110.792 110.737 110.682 110.647 110.585 110.537 110.505 110.542 110.502 110.457 110.402 110.355 110.335 110.322 110.262 110.242 110.212 110.145 110.13 110.125 110.08 110.022 110.005 109.977 109.91 109.887 109.865 109.852 109.81 109.797 109.805 109.822 109.762 109.782
76.496 76.509 76.549 76.606 76.629 76.669 76.646 76.689 76.716 76.749 76.806 76.864 76.944 77.129 77.266 77.219 77.221 77.131 76.796 76.484 76.141 77.131 78.074 77.801 78.346 78.639 78.214 77.669 77.436 77.456 77.449 77.454 77.434 77.454 77.436 77.416 77.396 77.416 77.396 77.364 77.331 77.296 77.236 77.224 77.206 77.284 77.289 77.306 77.324 77.381 77.491 77.876 77.641 77.529 77.579 77.636 77.671 77.719 77.724 77.801 77.826 77.879 77.934 77.971 78.009 78.066 78.104 78.181 78.261 78.336 78.381 78.456 78.506 78.594 78.641 78.726 78.761 78.801 78.846 78.876 78.906 78.921 78.931 78.946 78.949 78.979 78.996 79.096 79.129 79.212 79.314 79.389 79.492 79.597 79.717 79.812 79.919 80.099 80.249 80.424 80.619 80.814 81.007 81.239 81.427 81.602 81.752 81.877 81.934 81.974 81.997 82.019 82.047 82.052 82.097 82.107 82.127 82.182 82.192 82.249 82.287 82.337 82.374 82.402 82.474 82.517 82.582 82.664 82.749 82.872 82.944 83.097 83.229 83.374 83.509 83.654 83.769 83.894 84.012 84.122 84.262 84.494 84.692 84.927 85.207 85.479 85.782 86.104 86.374 86.674 86.997 87.322 87.612 87.929 88.212 88.499 88.794 89.064 89.322 89.544 89.797 89.967 90.244 90.397 90.567 90.772 90.972 91.144 91.337 91.489 91.647 91.849 91.994 92.137 92.237 92.374 92.492 92.599 92.784 92.904 93.079 93.247 93.404 93.594 93.882 95.149 94.897 94.744 94.907 94.999 95.204 95.462 95.662 95.854 96.097 96.302 96.484 96.684 96.932 97.137 97.344 97.574 97.734 97.947 98.169 98.407 98.637 98.857 99.089 99.312 99.544 99.739 99.924 100.119 100.287 100.464 100.657 100.784 100.922 101.089 101.204 101.334 101.487 101.617 101.767 101.904 102.057 102.219 102.354 102.497 102.659 102.817 102.967 103.124 103.294 103.454 103.637 103.834 104.054 104.242 104.499 104.777 104.989 105.239 105.514 105.759 106.034 106.292 106.574 106.807 107.004 107.237 107.399 -9999 -9999 -9999 -9999 -9999 -9999 -9999 -9999 -9999 -9999 -9999 -9999 -9999 -9999 -9999 -9999 -9999 -9999 -9999 -9999 -9999 -9999 -9999 -9999 -9999 -9999 -9999 -9999 -9999 110.302 110.287 110.332 110.377 110.449 110.502 110.614 110.735 110.857 110.955 111.08 111.142 111.197 111.26 111.265 111.305 111.347 111.39 111.415 111.46 111.477 111.49 111.512 111.582 111.67 111.75 111.802 111.89 111.912 111.89 111.869 112.142 112.877 112.395 112.272 112.817 113.11 112.735 112.612 112.697 112.84 112.962 113.032 113.092 113.149 113.202 113.175 113.18 113.205 113.307 113.34 113.237 113.217 113.177 113.112 113.132 113.272 113.382 113.402 113.432 113.435 113.435 113.427 113.38 113.21 113.097 113.132 113.202 113.235 113.202 113.142 113.122 113.125 113.067 113.04 113.045 112.79 112.34 111.935 111.827 111.765 111.665 111.572 111.495 111.407 111.347 111.275 111.225 111.31 111.13 111.017 110.922 110.935 110.89 110.837 110.782 110.73 110.69 110.68 110.625 110.565 110.527 110.517 110.48 110.435 110.385 110.38 110.315 110.297 110.255 110.247 110.202 110.175 110.15 110.145 110.08 110.037 110 109.94 109.892 109.892 109.87 109.835 109.785 109.805 109.8 109.782 109.757 109.735
76.529 76.521 76.524 76.566 76.631 76.621 76.634 76.641 76.664 76.706 76.789 76.794 76.859 76.944 77.014 77.089 77.199 77.229 77.344 77.339 77.056 76.666 76.339 76.116 76.226 77.861 78.511 78.796 78.226 77.921 77.536 77.426 77.409 77.391 77.396 77.386 77.394 77.384 77.386 77.384 77.336 77.359 77.334 77.286 77.244 77.236 77.269 77.309 77.341 77.386 77.681 77.609 77.444 77.459 77.519 77.534 77.616 77.639 77.691 77.756 77.754 77.816 77.854 77.864 77.929 77.979 78.039 78.101 78.176 78.249 78.331 78.391 78.416 78.509 78.596 78.634 78.661 78.704 78.746 78.759 78.786 78.811 78.811 78.866 78.886 78.896 78.934 78.979 79.051 79.147 79.244 79.324 79.412 79.514 79.629 79.757 79.869 80.012 80.159 80.349 80.534 80.729 80.899 81.127 81.334 81.457 81.592 81.679 81.742 81.782 81.782 81.834 81.864 81.857 81.907 81.939 81.962 81.984 82.019 82.019 82.079 82.127 82.169 82.207 82.272 82.314 82.399 82.457 82.554 82.674 82.792 82.947 83.024 83.189 83.319 83.449 83.572 83.699 83.827 83.924 84.074 84.292 84.472 84.737 84.989 85.274 85.572 85.882 86.179 86.477 86.792 87.127 87.412 87.719 88.007 88.317 88.617 88.867 89.152 89.369 89.592 89.854 90.057 90.234 90.414 90.614 90.794 90.982 91.137 91.347 91.502 91.654 91.769 91.949 92.032 92.169 92.317 92.464 92.594 92.767 92.942 93.117 93.274 93.587 94.567 94.292 94.384 94.474 94.587 94.774 95.002 95.222 95.459 95.692 95.899 96.099 96.334 96.572 96.784 96.934 97.154 97.332 97.532 97.717 97.942 98.162 98.394 98.614 98.842 99.069 99.294 99.494 99.654 99.842 100.029 100.234 100.419 100.569 100.684 100.814 100.987 101.132 101.257 101.384 101.527 101.659 101.822 101.952 102.074 102.199 102.359 102.504 102.682 102.857 103.027 103.192 103.384 103.592 103.799 103.982 104.269 104.494 104.729 104.974 105.262 105.524 105.812 106.087 106.349 106.639 106.889 107.107 107.252 107.396 -9999 -9999 -9999 -9999 -9999 -9999 -9999 -9999 -9999 -9999 -9999 -9999 -9999 -9999 -9999 -9999 -9999 -9999 -9999 -9999 -9999 -9999 -9999 -9999 -9999 -9999 -9999 -9999 110.707 110.999 110.484 110.424 110.499 110.554 110.629 110.687 110.795 110.887 110.982 111.065 111.142 111.215 111.25 111.297 111.32 111.354 111.392 111.435 111.487 111.507 111.552 111.63 111.697 111.802 111.86 111.902 111.91 111.847 112.155 112.89 112.455 112.312 112.685 113.187 112.675 112.482 112.59 112.692 112.722 112.84 112.992 113.085 113.14 113.205 113.172 113.142 113.227 113.272 113.272 113.247 113.237 113.227 113.137 113.242 113.522 113.547 113.555 113.615 113.607 113.562 113.55 113.552 113.39 113.257 113.152 113.285 113.19 113.21 113.187 113.132 113.167 113.147 113.125 112.995 112.44 112.055 111.907 111.86 111.745 111.66 111.57 111.53 111.42 111.352 111.255 111.322 111.24 111.122 111.04 111.03 110.995 110.947 110.897 110.815 110.762 110.727 110.677 110.64 110.577 110.517 110.502 110.472 110.44 110.397 110.387 110.33 110.322 110.302 110.265 110.21 110.215 110.14 110.14 110.07 110.047 110 109.947 109.905 109.9 109.845 109.832 109.812 109.825 109.767 109.747 109.772 109.72
76.501 76.504 76.526 76.561 76.571 76.566 76.581 76.581 76.611 76.651 76.699 76.749 76.831 76.886 76.889 76.936 76.994 77.089 77.144 77.301 77.349 77.421 77.336 77.091 76.726 76.629 77.031 77.134 77.346 78.089 77.646 77.981 77.709 77.449 77.351 77.356 77.356 77.386 77.341 77.336 77.361 77.366 77.379 77.336 77.309 77.291 77.289 77.284 77.316 77.559 77.654 77.359 77.399 77.411 77.429 77.459 77.501 77.541 77.586 77.641 77.671 77.724 77.759 77.821 77.856 77.906 77.976 78.031 78.096 78.181 78.234 78.291 78.351 78.426 78.474 78.516 78.581 78.604 78.659 78.684 78.716 78.701 78.724 78.739 78.754 78.784 78.839 78.869 78.951 79.047 79.119 79.214 79.309 79.424 79.534 79.652 79.812 79.912 80.059 80.264 80.404 80.577 80.792 80.974 81.192 81.319 81.432 81.504 81.559 81.582 81.597 81.637 81.659 81.659 81.714 81.739 81.752 81.779 81.832 81.834 81.904 81.929 81.967 82.024 82.072 82.147 82.207 82.297 82.387 82.514 82.677 82.764 82.889 83.014 83.129 83.252 83.364 83.504 83.632 83.744 83.884 84.099 84.297 84.537 84.814 85.052 85.384 85.679 85.984 86.304 86.569 86.899 87.189 87.529 87.834 88.147 88.427 88.699 88.967 89.194 89.419 89.642 89.827 90.024 90.232 90.427 90.624 90.797 90.972 91.144 91.334 91.472 91.632 91.749 91.857 92.042 92.164 92.292 92.454 92.609 92.744 92.954 93.259 94.427 94.189 93.987 94.062 94.147 94.364 94.589 94.789 95.012 95.254 95.484 95.694 95.889 96.142 96.342 96.537 96.742 96.904 97.137 97.312 97.472 97.697 97.932 98.154 98.374 98.594 98.809 98.997 99.237 99.432 99.607 99.842 100.039 100.222 100.352 100.454 100.604 100.732 100.882 101.019 101.142 101.277 101.399 101.534 101.664 101.787 101.912 102.047 102.204 102.372 102.524 102.729 102.929 103.152 103.317 103.509 103.772 103.974 104.184 104.427 104.732 105.032 105.304 105.619 105.949 106.264 106.527 106.759 106.972 107.134 107.259 107.339 -9999 -9999 -9999 -9999 -9999 -9999 -9999 -9999 -9999 -9999 -9999 -9999 -9999 -9999 -9999 -9999 -9999 -9999 -9999 -9999 -9999 -9999 -9999 -9999 -9999 -9999 109.443 110.002 111.062 111.164 110.862 110.582 110.612 110.692 110.727 110.772 110.845 110.884 110.97 111.07 111.134 111.207 111.267 111.302 111.322 111.357 111.39 111.45 111.492 111.58 111.642 111.75 111.845 111.857 111.89 111.854 112.1 112.979 112.492 112.352 112.652 113.142 112.727 112.45 112.43 112.547 112.632 112.625 112.72 112.935 113.06 113.095 113.21 113.187 113.259 113.215 113.274 113.275 113.244 113.255 113.197 113.255 113.445 113.595 113.667 113.72 113.797 113.822 113.74 113.67 113.61 113.495 113.442 113.21 113.25 113.24 113.252 113.227 113.227 113.265 113.235 113.312 112.75 112.165 111.987 111.925 111.875 111.747 111.672 111.62 111.51 111.435 111.387 111.375 111.415 111.232 111.19 111.137 111.077 111.025 110.982 110.9 110.812 110.755 110.7 110.66 110.63 110.57 110.527 110.505 110.452 110.447 110.44 110.402 110.33 110.32 110.29 110.265 110.22 110.18 110.15 110.157 110.015 110.005 109.967 109.927 109.922 109.905 109.882 109.885 109.807 109.81 109.747 109.757 109.727 109.712
76.579 76.529 76.541 76.551 76.564 76.546 76.499 76.501 76.541 76.551 76.576 76.654 76.726 76.806 76.869 76.929 76.974 76.994 77.039 77.069 77.119 77.234 77.374 77.516 77.544 77.356 77.196 76.561 76.909 77.579 77.991 77.969 78.326 78.346 78.141 77.634 77.379 77.359 77.314 77.331 77.356 77.336 77.349 77.339 77.359 77.329 77.331 77.341 77.339 77.369 77.374 77.314 77.341 77.354 77.364 77.421 77.454 77.501 77.531 77.586 77.616 77.669 77.709 77.759 77.791 77.846 77.914 77.989 78.051 78.096 78.166 78.216 78.269 78.339 78.371 78.461 78.524 78.541 78.559 78.609 78.634 78.626 78.629 78.654 78.681 78.704 78.729 78.794 78.851 78.912 79.024 79.122 79.222 79.354 79.452 79.582 79.672 79.827 80.019 80.162 80.339 80.504 80.702 80.867 80.997 81.154 81.242 81.304 81.362 81.409 81.427 81.447 81.502 81.484 81.529 81.577 81.554 81.617 81.634 81.662 81.727 81.737 81.754 81.837 81.882 81.959 82.034 82.122 82.237 82.354 82.479 82.589 82.737 82.837 82.954 83.059 83.199 83.319 83.399 83.549 83.722 83.884 84.079 84.342 84.614 84.877 85.194 85.444 85.794 86.039 86.402 86.722 86.997 87.329 87.627 87.932 88.229 88.499 88.717 88.989 89.224 89.437 89.652 89.852 90.064 90.267 90.457 90.627 90.837 90.982 91.124 91.307 91.459 91.552 91.692 91.839 91.999 92.159 92.334 92.457 92.692 92.834 93.907 94.249 93.639 93.679 93.782 93.939 94.127 94.349 94.577 94.807 95.012 95.244 95.454 95.689 95.932 96.139 96.334 96.532 96.722 96.894 97.069 97.272 97.477 97.697 97.877 98.107 98.357 98.564 98.787 98.979 99.219 99.407 99.607 99.812 99.974 100.127 100.297 100.432 100.522 100.692 100.807 100.909 101.014 101.132 101.239 101.389 101.562 101.669 101.797 101.957 102.099 102.292 102.477 102.637 102.854 103.072 103.314 103.462 103.714 103.934 104.219 104.497 104.787 105.117 105.452 105.759 106.062 106.382 106.622 106.819 106.977 107.137 107.194 107.253 -9999 -9999 -9999 -9999 -9999 -9999 -9999 -9999 -9999 -9999 -9999 -9999 -9999 -9999 -9999 -9999 -9999 -9999 -9999 -9999 -9999 -9999 -9999 -9999 109.119 109.244 109.434 109.749 110.977 111.369 110.997 110.757 110.677 110.759 110.812 110.85 110.877 110.92 111.002 111.047 111.149 111.185 111.244 111.26 111.287 111.375 111.432 111.515 111.6 111.665 111.767 111.815 111.835 111.802 112.032 112.982 112.497 112.36 112.505 113.482 112.795 112.477 112.367 112.407 112.457 112.575 112.542 112.595 112.765 112.992 113.085 113.174 113.212 113.232 113.207 113.229 113.292 113.267 113.232 113.225 113.36 113.582 113.697 113.767 113.842 113.94 114.025 113.935 113.837 113.702 113.615 113.49 113.285 113.232 113.275 113.31 113.242 113.332 113.29 113.38 113.382 112.572 112.085 112.01 111.94 111.862 111.767 111.697 111.602 111.517 111.45 111.487 111.405 111.285 111.29 111.262 111.17 111.082 111.05 110.952 110.875 110.842 110.775 110.73 110.7 110.627 110.602 110.537 110.5 110.475 110.445 110.43 110.365 110.325 110.317 110.267 110.242 110.2 110.127 110.105 110.062 110.015 110 109.96 109.955 109.965 109.922 109.93 109.905 109.865 109.85 109.795 109.76 109.737 109.73
76.586 76.599 76.566 76.561 76.531 76.491 76.471 76.464 76.429 76.451 76.476 76.546 76.634 76.706 76.804 76.866 76.886 76.956 77.054 77.054 77.064 77.114 77.219 77.356 77.531 77.716 77.686 77.591 77.286 76.836 76.711 76.701 76.674 77.604 78.351 78.406 78.474 77.909 77.439 77.389 77.341 77.339 77.349 77.376 77.341 77.309 77.319 77.341 77.371 77.351 77.299 77.234 77.249 77.291 77.334 77.361 77.381 77.419 77.489 77.479 77.554 77.594 77.636 77.676 77.726 77.784 77.874 77.921 77.939 78.026 78.106 78.161 78.216 78.246 78.319 78.359 78.436 78.479 78.496 78.511 78.536 78.551 78.566 78.564 78.629 78.621 78.634 78.659 78.729 78.834 78.899 79.039 79.122 79.234 79.374 79.489 79.619 79.774 79.899 80.087 80.219 80.422 80.577 80.742 80.889 80.992 81.097 81.149 81.199 81.227 81.249 81.274 81.284 81.342 81.337 81.377 81.394 81.427 81.469 81.474 81.527 81.552 81.574 81.634 81.697 81.757 81.842 81.939 82.067 82.177 82.309 82.417 82.554 82.652 82.774 82.914 83.009 83.089 83.222 83.364 83.507 83.734 83.912 84.142 84.434 84.684 84.957 85.274 85.527 85.872 86.209 86.512 86.817 87.127 87.429 87.757 88.009 88.279 88.549 88.797 89.049 89.297 89.494 89.707 89.902 90.069 90.269 90.462 90.634 90.847 91.002 91.139 91.239 91.389 91.552 91.674 91.897 92.014 92.204 92.369 92.742 93.582 94.122 93.312 93.274 93.382 93.572 93.714 93.912 94.129 94.352 94.594 94.794 94.997 95.227 95.484 95.674 95.889 96.102 96.259 96.472 96.669 96.854 97.042 97.242 97.424 97.642 97.879 98.112 98.354 98.547 98.784 98.984 99.172 99.357 99.544 99.727 99.862 100.019 100.134 100.302 100.439 100.544 100.649 100.759 100.879 100.994 101.134 101.277 101.404 101.544 101.664 101.844 102.052 102.182 102.364 102.597 102.787 102.979 103.217 103.462 103.697 103.939 104.254 104.612 104.929 105.312 105.609 105.919 106.234 106.469 106.704 106.834 106.989 107.097 107.142 -9999 -9999 -9999 -9999 -9999 -9999 -9999 -9999 -9999 -9999 -9999 -9999 -9999 -9999 -9999 -9999 -9999 -9999 -9999 -9999 -9999 -9999 -9999 -9999 108.964 109.107 109.279 109.404 109.622 110.297 111.652 111.434 110.837 110.765 110.79 110.84 110.897 110.917 110.97 111.002 111.06 111.115 111.195 111.222 111.267 111.347 111.42 111.517 111.595 111.675 111.757 111.797 111.77 111.852 112.815 112.407 112.232 112.475 113.342 112.865 112.49 112.345 112.347 112.41 112.43 112.542 112.522 112.525 112.63 112.85 113.035 113.162 113.242 113.267 113.217 113.215 113.327 113.299 113.295 113.29 113.425 113.632 113.75 113.835 113.977 114.06 113.987 113.982 113.95 113.792 113.68 113.562 113.357 113.322 113.327 113.315 113.307 113.34 113.322 113.452 113.49 112.687 112.055 112.005 111.892 111.825 111.765 111.667 111.572 111.492 111.51 111.555 111.38 111.332 111.32 111.297 111.187 111.167 111.062 110.955 110.927 110.857 110.82 110.742 110.682 110.652 110.61 110.552 110.512 110.507 110.465 110.39 110.37 110.345 110.3 110.262 110.237 110.147 110.137 110.102 110.07 110.002 110.01 110.03 109.982 109.965 109.932 109.887 109.885 109.872 109.835 109.792 109.722 109.75 109.715
76.601 76.611 76.609 76.604 76.554 76.529 76.469 76.394 76.391 76.406 76.414 76.444 76.529 76.581 76.701 76.816 76.896 76.959 76.989 77.029 77.121 77.111 77.156 77.206 77.264 77.369 77.486 77.706 77.761 77.636 77.414 77.024 76.539 76.316 76.434 77.919 78.544 78.321 79.286 78.806 78.266 77.624 77.346 77.321 77.319 77.276 77.276 77.289 77.291 77.324 77.301 77.294 77.276 77.281 77.294 77.291 77.366 77.376 77.386 77.429 77.461 77.544 77.564 77.591 77.679 77.716 77.799 77.851 77.919 77.979 78.034 78.094 78.126 78.194 78.254 78.301 78.371 78.389 78.426 78.431 78.456 78.451 78.461 78.446 78.494 78.486 78.506 78.556 78.619 78.704 78.784 78.864 79.007 79.122 79.257 79.387 79.517 79.669 79.839 80.002 80.159 80.342 80.477 80.609 80.744 80.842 80.904 80.987 81.032 81.064 81.067 81.107 81.149 81.167 81.194 81.217 81.242 81.277 81.279 81.304 81.317 81.334 81.407 81.467 81.504 81.589 81.687 81.799 81.922 82.042 82.139 82.227 82.399 82.507 82.639 82.734 82.807 82.932 83.059 83.204 83.367 83.509 83.742 83.957 84.207 84.472 84.767 85.047 85.337 85.654 85.977 86.279 86.609 86.939 87.244 87.579 87.832 88.117 88.369 88.612 88.854 89.094 89.317 89.534 89.709 89.879 90.124 90.309 90.469 90.659 90.847 90.949 91.057 91.274 91.412 91.582 91.747 91.919 92.099 92.419 93.032 93.722 93.032 92.917 92.982 93.129 93.362 93.524 93.722 93.934 94.167 94.369 94.572 94.784 95.002 95.229 95.432 95.659 95.864 96.052 96.227 96.444 96.629 96.807 97.027 97.204 97.437 97.652 97.862 98.107 98.362 98.542 98.754 98.949 99.167 99.337 99.527 99.674 99.774 99.942 100.057 100.182 100.264 100.387 100.507 100.624 100.749 100.884 101.007 101.169 101.292 101.452 101.592 101.757 101.949 102.134 102.357 102.514 102.744 102.949 103.214 103.452 103.742 104.074 104.442 104.764 105.109 105.457 105.749 106.087 106.344 106.542 106.724 106.852 106.957 107.014 107.084 -9999 -9999 -9999 -9999 -9999 -9999 -9999 -9999 -9999 -9999 -9999 -9999 -9999 -9999 -9999 -9999 -9999 -9999 -9999 -9999 -9999 -9999 108.614 108.722 108.914 109.129 109.269 109.429 109.604 109.804 110.527 112.032 111.17 110.84 110.817 110.897 110.912 110.935 110.96 110.987 111.012 111.085 111.167 111.265 111.369 111.42 111.527 111.592 111.665 111.744 111.722 111.747 112.445 112.38 112.064 112.177 113.042 113.012 112.47 112.345 112.337 112.375 112.402 112.455 112.515 112.532 112.517 112.555 112.732 112.985 113.155 113.277 113.337 113.312 113.277 113.342 113.32 113.352 113.272 113.412 113.667 113.762 113.852 114.055 114.15 114.05 114.025 114.022 113.815 113.69 113.625 113.407 113.307 113.352 113.342 113.302 113.375 113.357 113.472 113.792 112.965 112.09 111.972 111.91 111.815 111.742 111.637 111.555 111.54 111.577 111.462 111.42 111.415 111.365 111.28 111.182 111.152 111.08 111.025 110.95 110.885 110.827 110.735 110.717 110.652 110.59 110.552 110.52 110.495 110.437 110.385 110.375 110.312 110.292 110.257 110.2 110.137 110.13 110.135 110.057 110.037 110.027 110.03 109.972 109.972 109.952 109.905 109.862 109.877 109.815 109.79 109.775 109.75 109.685
76.651 76.664 76.631 76.626 76.564 76.526 76.481 76.424 76.386 76.356 76.319 76.376 76.476 76.539 76.614 76.681 76.779 76.879 76.966 77.014 77.051 77.086 77.134 77.256 77.236 77.274 77.314 77.389 77.444 77.569 77.661 77.676 77.621 77.301 76.959 76.519 76.644 77.461 77.899 77.476 78.304 79.136 79.126 78.331 77.506 77.269 77.236 77.299 77.324 77.324 77.309 77.326 77.301 77.294 77.314 77.319 77.324 77.346 77.364 77.421 77.419 77.459 77.496 77.546 77.634 77.651 77.721 77.791 77.836 77.894 77.966 78.031 78.086 78.151 78.179 78.216 78.274 78.314 78.314 78.329 78.356 78.349 78.321 78.361 78.381 78.404 78.429 78.489 78.479 78.579 78.674 78.754 78.894 79.029 79.122 79.277 79.397 79.574 79.717 79.919 80.077 80.217 80.354 80.494 80.614 80.707 80.762 80.842 80.872 80.912 80.939 80.957 80.984 81.007 81.009 81.049 81.059 81.092 81.094 81.122 81.132 81.169 81.194 81.292 81.329 81.442 81.539 81.644 81.767 81.882 82.014 82.112 82.219 82.357 82.462 82.557 82.619 82.787 82.922 83.019 83.162 83.359 83.554 83.782 84.004 84.277 84.584 84.824 85.152 85.484 85.744 86.079 86.397 86.747 87.037 87.372 87.632 87.889 88.174 88.444 88.664 88.884 89.119 89.329 89.524 89.757 89.979 90.159 90.347 90.484 90.644 90.767 90.924 91.112 91.277 91.419 91.582 91.764 91.944 92.447 92.739 92.669 92.534 92.624 92.784 92.992 93.172 93.332 93.542 93.734 93.917 94.152 94.352 94.559 94.759 95.002 95.197 95.449 95.634 95.814 96.014 96.239 96.414 96.589 96.789 96.992 97.242 97.444 97.644 97.899 98.072 98.319 98.544 98.722 98.934 99.107 99.277 99.447 99.582 99.707 99.807 99.962 100.042 100.159 100.267 100.397 100.517 100.642 100.802 100.912 101.052 101.194 101.357 101.512 101.692 101.869 102.067 102.287 102.499 102.714 102.949 103.262 103.549 103.879 104.257 104.602 104.954 105.307 105.652 105.974 106.224 106.432 106.592 106.707 106.797 106.899 106.949 106.954 -9999 -9999 -9999 -9999 -9999 -9999 -9999 -9999 -9999 -9999 -9999 -9999 -9999 -9999 -9999 -9999 -9999 -9999 -9999 -9999 -9999 108.397 108.547 108.712 108.929 109.094 109.289 109.424 109.584 109.807 110.302 111.532 111.785 110.967 110.897 110.92 110.932 110.952 110.982 110.997 111.037 111.127 111.222 111.35 111.475 111.552 111.585 111.657 111.682 111.702 112.127 112.347 111.957 112.005 112.535 113.015 112.477 112.342 112.345 112.387 112.432 112.392 112.52 112.552 112.557 112.555 112.562 112.744 112.95 113.162 113.307 113.354 113.395 113.337 113.332 113.367 113.382 113.31 113.427 113.662 113.772 113.842 113.997 114.25 114.16 114.062 113.987 113.805 113.707 113.665 113.445 113.322 113.38 113.422 113.39 113.36 113.402 113.512 113.86 113.085 112.147 112.007 111.927 111.815 111.72 111.615 111.672 111.76 111.54 111.467 111.492 111.445 111.392 111.292 111.23 111.145 111.082 111.05 110.965 110.88 110.815 110.802 110.752 110.677 110.622 110.58 110.53 110.472 110.415 110.382 110.357 110.297 110.285 110.237 110.172 110.13 110.115 110.082 110.06 110.062 110.052 110.012 110.005 110.022 109.947 109.955 109.887 109.845 109.805 109.775 109.797 109.727 109.722
76.736 76.694 76.681 76.684 76.631 76.584 76.506 76.436 76.394 76.379 76.346 76.326 76.346 76.411 76.486 76.584 76.696 76.731 76.789 76.821 76.909 77.006 77.074 77.154 77.229 77.284 77.321 77.336 77.356 77.409 77.486 77.474 77.566 77.654 77.614 77.556 77.309 76.974 76.574 76.261 76.204 77.461 76.856 78.304 78.131 77.559 77.304 77.334 77.336 77.304 77.311 77.281 77.251 77.249 77.279 77.306 77.354 77.351 77.331 77.356 77.386 77.389 77.441 77.469 77.561 77.596 77.631 77.736 77.769 77.834 77.894 77.941 78.001 78.044 78.086 78.114 78.181 78.216 78.224 78.264 78.246 78.269 78.269 78.294 78.294 78.294 78.324 78.349 78.396 78.489 78.542 78.634 78.767 78.902 79.029 79.142 79.292 79.499 79.619 79.827 79.982 80.117 80.254 80.424 80.497 80.584 80.629 80.709 80.747 80.742 80.767 80.787 80.832 80.869 80.882 80.899 80.902 80.932 80.932 80.942 81.004 81.004 81.072 81.132 81.177 81.274 81.397 81.489 81.597 81.722 81.852 81.959 82.044 82.184 82.264 82.354 82.479 82.617 82.717 82.859 82.997 83.182 83.372 83.614 83.829 84.097 84.399 84.679 84.944 85.262 85.559 85.862 86.217 86.512 86.817 87.127 87.454 87.694 87.979 88.224 88.487 88.684 88.954 89.174 89.367 89.584 89.797 89.954 90.154 90.279 90.432 90.617 90.789 90.912 91.139 91.289 91.477 91.564 91.897 92.567 92.169 92.182 92.264 92.404 92.637 92.804 93.014 93.174 93.357 93.547 93.724 93.929 94.142 94.337 94.584 94.814 95.007 95.219 95.414 95.607 95.802 96.004 96.174 96.374 96.604 96.802 96.999 97.217 97.442 97.689 97.902 98.134 98.352 98.544 98.732 98.904 99.079 99.254 99.357 99.484 99.597 99.727 99.842 99.944 100.062 100.177 100.294 100.427 100.539 100.649 100.807 100.974 101.147 101.264 101.464 101.659 101.849 102.009 102.249 102.479 102.757 103.087 103.392 103.719 104.114 104.472 104.852 105.212 105.504 105.814 106.072 106.289 106.464 106.574 106.662 106.747 106.822 106.882 106.899 -9999 -9999 -9999 -9999 -9999 -9999 -9999 -9999 -9999 -9999 -9999 -9999 -9999 -9999 -9999 -9999 -9999 -9999 -9999 108.169 108.224 108.362 108.512 108.729 108.929 109.097 109.257 109.454 109.624 109.782 110.337 111.235 111.912 111.275 110.942 110.9 110.972 111.002 111.035 111.082 111.14 111.22 111.32 111.467 111.535 111.555 111.592 111.647 112.02 112.274 111.875 111.96 112.447 112.832 112.452 112.327 112.315 112.357 112.407 112.472 112.477 112.557 112.64 112.67 112.625 112.607 112.7 112.902 113.215 113.337 113.375 113.41 113.4 113.375 113.362 113.337 113.337 113.417 113.61 113.774 113.845 113.885 113.987 114.007 113.992 113.902 113.82 113.737 113.655 113.407 113.387 113.402 113.462 113.377 113.342 113.46 113.472 113.762 113.007 112.225 112.015 111.947 111.85 111.787 111.732 111.977 111.627 111.53 111.537 111.492 111.422 111.395 111.317 111.247 111.167 111.135 111.067 110.992 110.907 110.875 110.825 110.76 110.697 110.63 110.607 110.55 110.477 110.45 110.372 110.327 110.285 110.27 110.205 110.162 110.157 110.115 110.097 110.065 110.037 110.025 109.997 109.997 109.987 109.92 109.927 109.885 109.845 109.832 109.767 109.75 109.737 109.72
76.754 76.759 76.754 76.731 76.701 76.634 76.584 76.494 76.459 76.376 76.344 76.314 76.309 76.364 76.436 76.479 76.539 76.611 76.709 76.756 76.801 76.869 76.944 77.046 77.141 77.209 77.261 77.286 77.379 77.396 77.401 77.381 77.436 77.464 77.514 77.536 77.626 77.664 77.434 77.249 76.991 76.654 76.261 76.706 76.316 76.576 76.459 76.889 77.249 77.319 77.296 77.279 77.284 77.234 77.244 77.304 77.289 77.319 77.349 77.334 77.361 77.371 77.399 77.449 77.481 77.491 77.574 77.629 77.711 77.781 77.839 77.889 77.914 77.974 78.014 78.046 78.086 78.106 78.129 78.151 78.161 78.131 78.144 78.196 78.199 78.191 78.209 78.256 78.281 78.344 78.414 78.487 78.627 78.787 78.912 79.037 79.197 79.384 79.539 79.747 79.889 80.029 80.187 80.314 80.412 80.474 80.522 80.602 80.609 80.637 80.637 80.659 80.712 80.689 80.732 80.754 80.762 80.779 80.779 80.782 80.834 80.879 80.897 80.949 81.054 81.167 81.247 81.344 81.452 81.572 81.682 81.819 81.934 82.027 82.127 82.209 82.347 82.427 82.559 82.702 82.819 83.027 83.237 83.427 83.654 83.922 84.192 84.507 84.769 85.049 85.342 85.697 85.982 86.324 86.614 86.944 87.237 87.519 87.779 88.049 88.307 88.522 88.754 88.977 89.197 89.414 89.607 89.814 89.974 90.129 90.302 90.459 90.632 90.769 90.947 91.137 91.237 92.177 92.124 91.822 91.837 91.922 92.084 92.294 92.497 92.679 92.832 93.022 93.184 93.364 93.569 93.779 93.957 94.172 94.419 94.607 94.822 94.999 95.192 95.417 95.577 95.774 95.984 96.184 96.447 96.627 96.854 97.057 97.277 97.502 97.719 97.952 98.169 98.354 98.527 98.724 98.884 99.017 99.134 99.299 99.372 99.507 99.647 99.727 99.847 99.949 100.067 100.192 100.332 100.442 100.602 100.757 100.922 101.057 101.257 101.417 101.589 101.784 102.022 102.297 102.599 102.947 103.202 103.587 103.979 104.354 104.719 105.059 105.409 105.704 105.954 106.177 106.319 106.452 106.522 106.642 106.722 106.789 106.792 106.786 -9999 -9999 -9999 -9999 -9999 -9999 -9999 -9999 -9999 -9999 -9999 -9999 -9999 -9999 -9999 -9999 -9999 -9999 107.929 108.077 108.217 108.369 108.559 108.729 108.894 109.099 109.309 109.479 109.614 109.842 110.095 110.91 111.925 111.492 111.047 110.93 110.992 111.054 111.1 111.15 111.227 111.327 111.432 111.492 111.512 111.517 111.77 112.229 111.759 111.875 112.7 113.024 112.367 112.27 112.302 112.327 112.357 112.41 112.452 112.507 112.547 112.604 112.7 112.742 112.622 112.667 112.89 113.19 113.33 113.384 113.492 113.497 113.437 113.467 113.445 113.399 113.435 113.555 113.732 113.825 113.88 113.887 113.925 113.907 113.887 113.847 113.757 113.507 113.48 113.445 113.435 113.412 113.39 113.355 113.455 113.465 113.822 113.29 112.4 112.08 111.96 111.882 111.807 111.8 111.922 111.66 111.545 111.577 111.507 111.44 111.375 111.31 111.26 111.215 111.16 111.082 111.02 110.937 110.89 110.82 110.777 110.69 110.632 110.602 110.532 110.49 110.435 110.355 110.342 110.3 110.225 110.202 110.165 110.137 110.115 110.077 110.057 110.012 109.99 110.022 109.977 109.967 109.95 109.902 109.855 109.852 109.797 109.762 109.752 109.75 109.677
76.779 76.796 76.794 76.771 76.771 76.739 76.669 76.566 76.511 76.454 76.394 76.344 76.341 76.329 76.371 76.404 76.459 76.534 76.569 76.651 76.706 76.796 76.851 76.924 76.981 77.071 77.156 77.244 77.286 77.321 77.369 77.384 77.384 77.361 77.401 77.416 77.471 77.549 77.594 77.616 77.549 77.409 77.059 76.364 76.801 78.044 77.546 76.351 76.454 76.896 77.144 77.256 77.284 77.281 77.254 77.256 77.261 77.279 77.331 77.331 77.364 77.349 77.319 77.391 77.424 77.456 77.501 77.569 77.619 77.696 77.761 77.826 77.876 77.881 77.916 77.964 77.981 78.001 78.019 78.016 78.029 78.046 78.081 78.126 78.114 78.114 78.121 78.136 78.179 78.197 78.299 78.417 78.514 78.629 78.769 78.932 79.104 79.254 79.477 79.619 79.787 79.937 80.077 80.199 80.269 80.352 80.404 80.442 80.479 80.509 80.539 80.564 80.579 80.602 80.612 80.609 80.632 80.652 80.644 80.649 80.719 80.724 80.782 80.852 80.934 81.027 81.099 81.237 81.337 81.452 81.554 81.672 81.777 81.877 81.962 82.092 82.182 82.277 82.392 82.509 82.647 82.832 83.032 83.252 83.474 83.739 84.002 84.272 84.547 84.857 85.139 85.482 85.819 86.114 86.414 86.732 87.024 87.292 87.567 87.832 88.099 88.334 88.569 88.812 89.014 89.217 89.427 89.624 89.767 89.954 90.132 90.289 90.444 90.602 90.782 91.127 91.704 92.262 91.529 91.492 91.594 91.762 91.944 92.147 92.342 92.509 92.687 92.884 93.007 93.199 93.369 93.604 93.824 93.994 94.212 94.422 94.629 94.804 95.002 95.174 95.364 95.579 95.799 96.037 96.259 96.459 96.679 96.874 97.112 97.297 97.514 97.749 97.972 98.174 98.322 98.527 98.644 98.834 98.964 99.082 99.202 99.307 99.427 99.519 99.622 99.747 99.854 99.967 100.062 100.209 100.402 100.542 100.689 100.852 100.992 101.182 101.384 101.612 101.834 102.117 102.479 102.742 103.099 103.477 103.867 104.232 104.609 104.954 105.297 105.594 105.829 106.064 106.202 106.332 106.439 106.577 106.609 106.664 106.727 106.724 -9999 -9999 -9999 -9999 -9999 -9999 -9999 -9999 -9999 -9999 -9999 -9999 -9999 -9999 -9999 -9999 -9999 107.699 107.799 107.917 108.077 108.217 108.372 108.539 108.702 108.889 109.137 109.327 109.482 109.685 109.837 110.03 110.667 111.785 111.302 111.277 111.06 111.009 111.047 111.165 111.225 111.295 111.38 111.405 111.46 111.52 111.687 111.675 111.727 112.354 113.08 112.32 112.162 112.27 112.27 112.347 112.354 112.395 112.42 112.502 112.54 112.587 112.68 112.81 112.722 112.71 112.887 113.134 113.325 113.452 113.512 113.555 113.522 113.479 113.487 113.465 113.452 113.487 113.619 113.74 113.83 113.855 113.847 113.855 113.847 113.76 113.61 113.41 113.437 113.532 113.5 113.465 113.41 113.387 113.5 113.482 113.505 113.9 112.872 112.14 111.962 111.912 111.925 111.822 111.792 111.772 111.497 111.55 111.482 111.452 111.355 111.32 111.285 111.207 111.147 111.08 111.02 110.96 110.92 110.875 110.772 110.722 110.665 110.562 110.512 110.485 110.422 110.375 110.347 110.307 110.235 110.19 110.14 110.102 110.105 110.095 110.042 110.052 110.062 110.067 109.99 109.97 109.917 109.885 109.825 109.82 109.775 109.775 109.767 109.71 109.662
76.801 76.826 76.851 76.846 76.819 76.804 76.736 76.664 76.589 76.504 76.431 76.376 76.366 76.339 76.354 76.391 76.406 76.446 76.511 76.564 76.634 76.691 76.756 76.849 76.931 76.971 77.041 77.084 77.149 77.209 77.284 77.311 77.331 77.346 77.344 77.414 77.429 77.464 77.441 77.454 77.521 77.524 77.269 76.391 76.871 78.564 78.359 77.639 76.684 78.021 76.314 76.559 77.031 77.211 77.269 77.301 77.301 77.296 77.291 77.306 77.334 77.336 77.326 77.321 77.366 77.416 77.474 77.491 77.531 77.571 77.656 77.704 77.754 77.766 77.791 77.834 77.864 77.904 77.914 77.934 77.931 77.949 78.006 78.019 78.016 78.014 78.031 78.046 78.066 78.137 78.202 78.289 78.387 78.529 78.649 78.779 78.992 79.159 79.342 79.527 79.692 79.847 79.972 80.084 80.167 80.244 80.317 80.347 80.369 80.399 80.404 80.462 80.497 80.472 80.519 80.547 80.539 80.524 80.547 80.549 80.584 80.622 80.664 80.762 80.809 80.919 81.012 81.122 81.229 81.337 81.434 81.532 81.619 81.737 81.822 81.944 82.014 82.122 82.229 82.354 82.502 82.679 82.884 83.117 83.284 83.554 83.817 84.077 84.394 84.659 84.969 85.277 85.624 85.892 86.214 86.504 86.799 87.084 87.377 87.659 87.904 88.144 88.402 88.619 88.834 89.052 89.234 89.429 89.587 89.739 89.947 90.109 90.212 90.434 90.719 91.524 91.857 91.232 91.179 91.279 91.412 91.609 91.807 92.017 92.187 92.384 92.569 92.692 92.892 93.027 93.259 93.477 93.674 93.839 94.074 94.247 94.467 94.627 94.814 94.952 95.157 95.392 95.634 95.872 96.112 96.317 96.559 96.739 96.934 97.149 97.369 97.597 97.787 97.959 98.119 98.352 98.497 98.652 98.784 98.879 99.024 99.129 99.239 99.337 99.414 99.547 99.649 99.747 99.887 100.027 100.152 100.337 100.449 100.632 100.779 100.987 101.182 101.439 101.714 101.977 102.334 102.644 103.004 103.374 103.742 104.134 104.489 104.852 105.222 105.487 105.722 105.962 106.094 106.237 106.344 106.422 106.484 106.577 106.624 106.644 106.662 -9999 -9999 -9999 -9999 -9999 -9999 -9999 -9999 -9999 -9999 -9999 -9999 -9999 -9999 -9999 -9999 107.584 107.672 107.809 107.952 108.059 108.204 108.389 108.574 108.722 108.927 109.129 109.359 109.537 109.702 109.875 110.067 110.315 111.405 111.907 111.392 111.195 111.119 111.132 111.222 111.312 111.397 111.43 111.46 111.545 111.617 111.665 111.912 112.785 112.265 112.082 112.119 112.217 112.232 112.307 112.372 112.39 112.41 112.472 112.542 112.615 112.677 112.77 112.802 112.78 112.852 113.075 113.307 113.462 113.507 113.549 113.597 113.524 113.535 113.515 113.49 113.47 113.44 113.587 113.71 113.77 113.785 113.792 113.735 113.557 113.512 113.437 113.465 113.52 113.527 113.485 113.427 113.387 113.422 113.492 113.45 113.745 113.19 112.277 111.96 111.927 111.925 111.925 111.807 111.722 111.512 111.56 111.492 111.432 111.35 111.34 111.277 111.2 111.165 111.105 111.037 110.972 110.992 110.85 110.785 110.732 110.64 110.565 110.525 110.457 110.422 110.367 110.322 110.29 110.27 110.202 110.142 110.097 110.105 110.077 110.05 110.032 110.015 109.985 109.967 109.952 109.882 109.85 109.835 109.825 109.782 109.825 109.757 109.68 109.66
76.854 76.871 76.904 76.871 76.879 76.844 76.806 76.751 76.671 76.589 76.509 76.449 76.399 76.349 76.339 76.336 76.374 76.411 76.466 76.506 76.549 76.594 76.659 76.709 76.796 76.879 76.954 76.999 77.041 77.064 77.141 77.209 77.256 77.281 77.329 77.396 77.426 77.414 77.384 77.286 77.294 77.401 77.039 76.436 77.439 78.054 77.001 77.051 77.081 76.904 77.716 77.094 76.316 76.521 77.054 77.341 77.336 77.359 77.349 77.324 77.309 77.316 77.336 77.356 77.379 77.336 77.391 77.439 77.464 77.531 77.546 77.606 77.654 77.691 77.729 77.741 77.784 77.789 77.831 77.834 77.844 77.874 77.906 77.904 77.911 77.914 77.921 77.984 77.999 78.019 78.094 78.154 78.304 78.399 78.562 78.699 78.857 79.037 79.232 79.419 79.554 79.727 79.864 79.974 80.069 80.132 80.189 80.167 80.227 80.299 80.297 80.324 80.349 80.397 80.399 80.422 80.442 80.437 80.429 80.429 80.484 80.517 80.589 80.647 80.697 80.804 80.932 81.014 81.134 81.212 81.319 81.414 81.524 81.602 81.717 81.797 81.879 81.982 82.089 82.199 82.389 82.507 82.714 82.912 83.102 83.392 83.619 83.884 84.194 84.487 84.797 85.084 85.399 85.677 85.969 86.277 86.579 86.867 87.169 87.447 87.694 87.939 88.227 88.424 88.624 88.812 89.029 89.197 89.414 89.584 89.747 89.887 90.077 90.304 90.699 91.387 90.842 90.872 90.959 91.069 91.262 91.457 91.629 91.847 92.044 92.232 92.432 92.582 92.752 92.937 93.154 93.337 93.537 93.759 93.947 94.152 94.334 94.539 94.659 94.844 95.009 95.257 95.487 95.682 95.929 96.179 96.362 96.582 96.812 97.012 97.202 97.402 97.589 97.787 97.949 98.142 98.297 98.444 98.582 98.699 98.797 98.949 99.027 99.139 99.229 99.344 99.479 99.564 99.682 99.824 99.947 100.087 100.234 100.419 100.594 100.807 101.027 101.277 101.529 101.864 102.244 102.559 102.889 103.284 103.639 104.014 104.427 104.787 105.109 105.389 105.664 105.862 105.997 106.174 106.269 106.339 106.412 106.522 106.497 106.552 106.632 106.599 -9999 -9999 -9999 -9999 -9999 -9999 -9999 -9999 -9999 -9999 -9999 -9999 -9999 -9999 -9999 107.444 107.549 107.682 107.807 107.927 108.052 108.232 108.402 108.559 108.754 108.987 109.172 109.365 109.555 109.762 109.902 110.049 110.28 110.905 112.119 111.8 111.412 111.552 111.259 111.367 111.494 111.587 111.572 111.517 111.58 111.765 112.009 112.115 112.037 112.104 112.149 112.207 112.244 112.315 112.362 112.375 112.417 112.452 112.53 112.602 112.662 112.759 113.035 112.837 112.845 112.995 113.215 113.439 113.539 113.587 113.602 113.587 113.549 113.512 113.532 113.547 113.482 113.507 113.53 113.56 113.6 113.56 113.505 113.502 113.467 113.505 113.542 113.56 113.585 113.55 113.492 113.455 113.385 113.447 113.455 113.467 113.275 112.575 112.052 111.945 111.915 111.827 111.747 111.915 111.525 111.567 111.45 111.422 111.34 111.297 111.267 111.197 111.187 111.082 111.04 111.002 110.935 110.857 110.805 110.73 110.642 110.572 110.517 110.457 110.412 110.365 110.315 110.27 110.24 110.175 110.12 110.117 110.102 110.065 110.065 110.04 110.015 109.98 109.93 109.887 109.837 109.817 109.827 109.812 109.777 109.742 109.687 109.67 109.645
76.881 76.921 76.941 76.944 76.944 76.924 76.884 76.834 76.734 76.671 76.584 76.511 76.449 76.404 76.334 76.326 76.329 76.364 76.406 76.459 76.511 76.536 76.576 76.629 76.684 76.751 76.836 76.876 76.934 77.006 77.049 77.069 77.154 77.221 77.279 77.309 77.339 77.329 77.281 77.219 77.239 77.216 76.524 77.286 77.899 76.921 76.889 76.886 76.924 76.936 77.864 77.029 76.689 76.861 76.576 76.741 77.174 77.451 77.394 77.374 77.336 77.301 77.304 77.321 77.324 77.344 77.346 77.344 77.391 77.416 77.464 77.489 77.504 77.569 77.624 77.649 77.679 77.681 77.709 77.711 77.744 77.771 77.791 77.809 77.801 77.811 77.824 77.879 77.924 77.929 78.014 78.089 78.162 78.332 78.424 78.569 78.744 78.917 79.084 79.252 79.444 79.607 79.759 79.867 79.964 80.029 80.044 80.067 80.114 80.184 80.187 80.257 80.279 80.312 80.322 80.329 80.337 80.339 80.339 80.354 80.379 80.427 80.504 80.564 80.624 80.749 80.827 80.907 81.009 81.112 81.192 81.319 81.404 81.474 81.584 81.649 81.734 81.829 81.944 82.087 82.187 82.347 82.497 82.757 82.952 83.192 83.454 83.724 83.987 84.274 84.542 84.844 85.167 85.482 85.767 86.077 86.389 86.679 86.979 87.242 87.492 87.787 88.024 88.222 88.437 88.634 88.829 88.999 89.199 89.399 89.532 89.722 89.874 90.919 91.012 90.492 90.497 90.602 90.704 90.909 91.104 91.312 91.504 91.729 91.922 92.092 92.302 92.492 92.664 92.854 93.017 93.239 93.454 93.657 93.832 94.024 94.189 94.372 94.572 94.732 94.932 95.129 95.314 95.567 95.792 96.004 96.284 96.467 96.669 96.849 97.039 97.239 97.417 97.617 97.809 97.987 98.122 98.262 98.389 98.527 98.604 98.712 98.837 98.939 99.052 99.164 99.267 99.417 99.487 99.622 99.754 99.914 100.064 100.249 100.419 100.627 100.882 101.149 101.464 101.762 102.089 102.462 102.822 103.214 103.572 103.984 104.324 104.699 104.994 105.307 105.567 105.764 105.939 106.062 106.164 106.287 106.347 106.367 106.472 106.434 106.494 106.507 106.539 -9999 -9999 -9999 -9999 -9999 -9999 -9999 -9999 -9999 -9999 -9999 -9999 -9999 107.239 107.339 107.422 107.549 107.654 107.802 107.902 108.079 108.264 108.429 108.624 108.777 108.992 109.149 109.362 109.592 109.772 109.924 110.052 110.235 110.582 111.78 111.92 111.827 111.604 111.365 111.56 111.827 111.492 111.427 111.557 111.842 111.875 111.872 112.012 112.09 112.13 112.182 112.257 112.29 112.312 112.352 112.422 112.46 112.522 112.58 112.66 112.737 112.867 113.022 112.854 112.905 113.11 113.372 113.537 113.597 113.615 113.632 113.595 113.587 113.55 113.585 113.542 113.562 113.552 113.517 113.532 113.487 113.505 113.54 113.517 113.542 113.567 113.58 113.665 113.675 113.552 113.457 113.39 113.407 113.447 113.45 113.432 112.912 112.282 111.975 111.942 111.87 111.902 111.685 111.522 111.542 111.457 111.41 111.342 111.28 111.26 111.225 111.157 111.08 111.042 111.01 110.907 110.835 110.777 110.702 110.635 110.592 110.507 110.457 110.407 110.352 110.32 110.272 110.22 110.16 110.15 110.115 110.08 110.077 110.067 109.977 109.952 109.96 109.892 109.815 109.822 109.81 109.8 109.797 109.745 109.69 109.69 109.685 109.617
76.904 76.939 76.961 76.981 77.006 77.006 76.961 76.899 76.836 76.744 76.649 76.581 76.524 76.439 76.384 76.321 76.306 76.341 76.376 76.419 76.439 76.489 76.524 76.556 76.624 76.676 76.709 76.789 76.831 76.896 76.954 77.004 77.094 77.136 77.191 77.181 77.196 77.196 77.146 77.166 77.254 77.011 76.789 78.384 77.516 76.761 76.871 76.886 76.904 76.911 76.884 76.896 77.349 78.074 77.509 76.621 76.476 76.911 77.314 77.659 77.366 77.336 77.281 77.269 77.251 77.294 77.324 77.349 77.331 77.316 77.381 77.449 77.441 77.479 77.489 77.539 77.576 77.594 77.601 77.621 77.636 77.661 77.684 77.726 77.744 77.739 77.774 77.829 77.826 77.867 77.897 77.972 78.122 78.209 78.332 78.457 78.612 78.782 78.957 79.142 79.287 79.484 79.637 79.719 79.819 79.889 79.907 79.979 80.037 80.064 80.099 80.147 80.199 80.227 80.224 80.242 80.252 80.239 80.264 80.244 80.322 80.364 80.432 80.477 80.562 80.639 80.739 80.817 80.882 81.019 81.087 81.199 81.277 81.339 81.462 81.522 81.597 81.694 81.809 81.912 82.044 82.179 82.344 82.522 82.744 83.002 83.249 83.509 83.817 84.069 84.394 84.659 84.939 85.272 85.567 85.872 86.174 86.489 86.804 87.057 87.334 87.612 87.807 88.042 88.232 88.454 88.642 88.844 89.074 89.197 89.359 89.467 90.492 90.919 90.154 90.134 90.219 90.359 90.539 90.742 90.974 91.177 91.399 91.567 91.769 91.962 92.154 92.324 92.507 92.697 92.897 93.114 93.322 93.539 93.734 93.919 94.117 94.287 94.424 94.597 94.779 95.009 95.242 95.407 95.642 95.887 96.089 96.304 96.497 96.717 96.914 97.094 97.289 97.454 97.619 97.794 97.929 98.097 98.212 98.332 98.432 98.529 98.652 98.754 98.874 98.994 99.092 99.224 99.317 99.447 99.562 99.727 99.904 100.089 100.269 100.477 100.759 101.027 101.387 101.679 102.034 102.379 102.772 103.157 103.537 103.914 104.262 104.662 104.974 105.237 105.522 105.697 105.852 105.982 106.099 106.197 106.234 106.284 106.332 106.327 106.379 106.462 106.477 -9999 -9999 -9999 -9999 -9999 -9999 -9999 -9999 -9999 -9999 -9999 -9999 -9999 107.169 107.222 107.312 107.429 107.517 107.659 107.799 107.952 108.134 108.284 108.457 108.642 108.807 108.997 109.18 109.382 109.585 109.75 109.892 110.062 110.222 110.5 110.947 112.14 112.232 111.837 111.835 111.422 111.287 111.447 111.72 111.795 111.712 111.872 111.979 112.035 112.087 112.13 112.167 112.205 112.247 112.335 112.42 112.447 112.524 112.582 112.66 112.74 112.805 112.972 112.92 112.957 112.994 113.242 113.512 113.625 113.625 113.64 113.637 113.657 113.602 113.59 113.565 113.535 113.625 113.59 113.522 113.51 113.587 113.547 113.525 113.522 113.542 113.562 113.595 113.685 113.607 113.492 113.43 113.38 113.4 113.435 113.437 113.3 112.602 112.077 111.95 111.895 111.787 111.827 111.525 111.515 111.467 111.437 111.34 111.275 111.26 111.195 111.14 111.082 111.035 110.96 110.92 110.835 110.762 110.72 110.65 110.572 110.517 110.465 110.4 110.357 110.312 110.247 110.207 110.17 110.195 110.112 110.09 110.062 110.01 109.982 109.977 109.892 109.865 109.855 109.847 109.812 109.795 109.745 109.717 109.72 109.657 109.657 109.605
76.921 76.979 77.001 77.006 77.051 77.044 77.036 76.954 76.914 76.811 76.731 76.669 76.601 76.519 76.431 76.401 76.354 76.346 76.359 76.371 76.401 76.451 76.441 76.489 76.514 76.586 76.624 76.661 76.729 76.829 76.896 76.911 77.006 77.084 77.101 77.081 77.051 77.051 77.069 77.164 77.114 76.466 76.404 78.861 76.714 76.771 76.856 76.901 76.894 76.894 76.859 76.819 76.834 77.319 78.064 77.989 78.029 77.616 77.156 79.256 77.254 77.319 77.301 77.281 77.246 77.226 77.249 77.269 77.306 77.309 77.314 77.291 77.384 77.396 77.406 77.429 77.474 77.499 77.521 77.524 77.571 77.619 77.614 77.644 77.644 77.681 77.679 77.686 77.734 77.794 77.847 77.942 78.029 78.102 78.209 78.364 78.479 78.672 78.847 78.977 79.177 79.322 79.459 79.577 79.687 79.734 79.789 79.872 79.889 79.919 79.992 80.072 80.097 80.129 80.132 80.177 80.192 80.172 80.202 80.212 80.232 80.309 80.357 80.434 80.512 80.582 80.649 80.742 80.817 80.917 80.997 81.074 81.179 81.249 81.334 81.394 81.474 81.579 81.687 81.824 81.942 82.034 82.184 82.372 82.559 82.792 83.002 83.319 83.599 83.844 84.147 84.422 84.722 85.019 85.342 85.659 85.942 86.304 86.589 86.892 87.137 87.397 87.622 87.822 88.037 88.257 88.452 88.657 88.829 88.979 89.119 90.117 90.332 89.757 89.737 89.869 90.022 90.202 90.379 90.572 90.817 90.999 91.209 91.404 91.617 91.817 92.027 92.162 92.349 92.549 92.769 92.997 93.177 93.419 93.587 93.802 93.987 94.164 94.342 94.489 94.669 94.884 95.074 95.297 95.522 95.739 95.917 96.169 96.342 96.557 96.759 96.934 97.127 97.294 97.449 97.619 97.774 97.884 98.032 98.137 98.254 98.349 98.444 98.537 98.672 98.769 98.889 98.997 99.132 99.269 99.374 99.564 99.719 99.909 100.137 100.374 100.667 100.979 101.304 101.664 101.989 102.347 102.727 103.104 103.484 103.889 104.257 104.619 104.914 105.212 105.454 105.632 105.807 105.939 106.032 106.077 106.159 106.229 106.237 106.292 106.314 106.369 106.387 106.409 -9999 -9999 -9999 -9999 -9999 -9999 -9999 -9999 -9999 -9999 -9999 -9999 107.033 107.137 107.214 107.299 107.419 107.529 107.699 107.832 108.014 108.152 108.324 108.502 108.647 108.865 109.03 109.187 109.43 109.585 109.772 109.965 110.072 110.21 110.402 110.942 111.595 112.442 111.32 111.155 111.244 111.717 111.722 111.61 111.74 111.845 111.962 112.017 112.012 112.085 112.11 112.16 112.232 112.325 112.427 112.487 112.56 112.64 112.685 112.759 112.814 112.927 113.077 112.994 112.96 113.119 113.38 113.58 113.602 113.66 113.66 113.674 113.695 113.692 113.61 113.61 113.6 113.597 113.56 113.55 113.582 113.605 113.532 113.527 113.512 113.565 113.532 113.577 113.632 113.502 113.437 113.415 113.402 113.402 113.42 113.4 112.975 112.377 111.982 111.872 111.817 111.792 111.51 111.515 111.465 111.442 111.377 111.322 111.255 111.197 111.155 111.097 111.042 110.97 110.892 110.817 110.767 110.712 110.652 110.577 110.54 110.47 110.425 110.347 110.342 110.27 110.212 110.167 110.135 110.13 110.075 110.055 109.987 109.952 109.917 109.857 109.87 109.857 109.802 109.802 109.775 109.702 109.68 109.687 109.635 109.602 109.582
