ncols 439
nrows 32
xllcorner    425098
yllcorner    541416
cellsize     2
NODATA_value -9999
86.547 86.502 86.499 86.53 86.556 86.591 86.578 86.568 86.582 86.589 86.622 86.756 86.832 86.893 86.923 86.95 87.025 87.057 87.161 87.102 87.156 87.198 87.272 87.296 87.343 87.376 87.441 87.459 87.517 87.541 87.606 87.619 87.664 87.679 87.701 87.757 87.803 87.856 87.906 87.937 87.965 87.964 88.016 88.197 88.127 88.143 88.153 88.163 88.167 88.174 88.195 88.189 88.215 88.252 88.269 88.317 88.339 88.368 88.371 88.371 88.399 88.378 88.329 88.331 88.448 88.419 92.066 89.227 88.852 91.682 89.602 92.89 90.795 94.817 96.907 96.692 95.547 98.93 90.165 94.365 94.865 98.547 91.037 93.63 89.385 91.72 100.39 91.462 90.802 96.227 90.752 87.19 87.067 87.025 87.022 87.05 87.1 87.21 87.237 87.127 87.12 87.205 88.885 91.942 91.385 88.43 87.53 87.63 87.412 89.16 93.855 91.297 87.567 90.047 89.677 92.975 93.202 87.95 89.462 89.007 89.562 89.205 90.77 98.7 92.962 89.637 89.62 89.59 89.625 89.707 89.697 89.662 89.59 89.465 89.347 89.575 87.42 86.192 84.772 83.73 83.717 81.16 80.645 81.017 81.34 81.292 81.332 81.235 80.97 80.915 80.912 81.062 81.735 82.715 83.942 85.307 86.797 89.917 90.112 88.072 87.615 87.537 87.492 87.457 87.405 87.352 87.322 87.255 87.165 87.14 87.037 86.917 86.757 86.592 86.455 86.287 86.165 86.017 85.815 85.662 85.532 85.35 85.18 85.025 84.832 84.61 84.495 84.305 84.13 83.975 83.827 83.682 83.527 83.377 83.235 83.037 82.897 82.792 82.657 82.507 82.387 82.255 82.12 81.987 81.89 81.805 81.745 81.642 81.54 81.475 81.4 81.257 81.165 81.065 80.967 80.827 80.727 80.622 80.48 80.355 80.24 80.075 79.912 79.775 79.67 79.497 79.35 79.187 79.055 78.89 78.685 78.515 78.38 78.215 78.072 77.915 77.8 77.652 77.485 77.332 77.192 77.095 77.025 76.95 76.89 76.79 76.715 76.397 75.34 75.11 75.077 74.97 74.865 74.867 74.707 74.567 74.432 74.332 74.172 74.045 73.982 73.897 73.797 73.677 73.562 73.437 73.32 73.22 73.11 73.017 72.92 72.812 72.722 72.63 72.567 72.507 72.42 72.335 72.217 72.167 72.097 72.042 71.977 71.947 71.912 71.867 71.8 71.765 71.75 71.682 72.14 72.04 71.667 72.295 72.485 71.787 71.25 71.152 71.075 70.987 70.877 70.717 70.605 70.467 70.32 70.182 70.027 69.887 69.732 69.577 69.442 69.507 69.437 68.617 68.132 67.61 67.262 67.13 67.01 66.91 66.76 66.64 66.532 66.527 66.392 66.297 66.22 66.33 66.515 65.802 65.68 64.632 64.442 64.332 64.307 64.167 63.462 62.835 62.2 61.017 60.335 62.622 63.105 64.055 59.69 59.675 59.685 59.722 59.705 60.285 61.475 61.97 62.042 62.077 61.95 62.382 63.747 61.815 61.795 61.815 61.87 61.867 61.852 61.87 61.977 62.13 62.205 62.217 62.132 62.11 62.147 62.202 62.287 62.422 62.562 62.71 63.082 63.015 63.317 63.327 63.667 64.097 64.785 66.285 66.092 66.742 66.08 66.005 66.04 66.22 66.267 66.275 66.295 66.387 66.66 66.742 66.77 67.672 69.577 68.25 68.45 68.88 69.932 70.402 70.95 71.377 70.727 70.412 70.415 70.927 73.34 76.097 75.767 71.925 70.945 73.712 72.56 71.98 71.925 72.447 75.032 74.335 75.547 81.022 83.012 81.965 79.497 78.56 79.48 79.217 80.242 82.502 83.412 83.892 83.857 82.982 82.15 79.547 79.625
86.548 86.548 86.543 86.575 86.587 86.595 86.574 86.575 86.561 86.581 86.705 87.667 87.878 86.97 86.929 86.978 87.01 87.719 88.649 88.406 87.389 87.216 87.277 87.295 87.346 87.404 87.429 87.455 87.467 87.52 87.569 87.615 87.641 87.65 87.683 87.733 87.778 87.832 87.89 87.9 87.94 87.942 87.992 88.019 88.069 88.112 88.102 88.107 88.121 88.128 88.136 88.155 88.193 88.242 88.27 88.311 88.313 88.31 88.308 88.319 88.322 88.281 88.296 88.275 88.316 88.639 90.416 89.934 88.216 88.185 91.613 96.019 91.115 91.517 95.25 98.892 88.68 97.037 95.552 93.652 91.23 89.432 91.057 97.62 92.035 97.295 100.067 93.157 97.857 89.567 88.917 86.95 86.92 86.935 86.99 87.055 87.105 87.147 87.097 87.117 87.055 87.12 91.632 93.927 87.13 87.252 87.287 91.85 94.715 87.89 87.322 87.352 87.482 87.557 93.297 96.54 90.057 88.117 88.662 88.857 88.982 89.122 95.302 93.102 90.01 89.507 89.45 89.545 89.602 89.652 89.632 89.607 89.512 89.44 89.362 88.717 87.175 86.005 84.845 83.89 82.475 81.012 80.595 81.042 81.297 81.295 81.28 81.2 80.915 80.952 80.935 81.13 81.795 82.69 83.945 85.41 86.577 89.78 89.812 89.012 87.587 87.527 87.44 87.407 87.382 87.325 87.28 87.205 87.147 87.105 87.005 86.875 86.737 86.59 86.442 86.287 86.137 86.01 85.845 85.672 85.52 85.342 85.175 85.027 84.797 84.602 84.48 84.327 84.137 83.967 83.84 83.667 83.502 83.36 83.215 83.057 82.92 82.77 82.652 82.515 82.387 82.245 82.13 81.985 81.877 81.802 81.71 81.645 81.545 81.455 81.362 81.23 81.13 81.06 80.91 80.787 80.682 80.582 80.432 80.312 80.172 80.032 79.85 79.755 79.627 79.475 79.302 79.15 79.01 78.842 78.62 78.452 78.312 78.167 78.002 77.867 77.74 77.582 77.452 77.305 77.18 77.067 76.957 76.89 76.842 76.77 76.695 76.22 75.23 75.08 75.042 74.937 74.87 74.812 74.682 74.54 74.407 74.327 74.192 74.045 73.962 73.9 73.78 73.66 73.585 73.425 73.335 73.217 73.122 73.055 72.935 72.855 72.777 72.66 72.585 72.535 72.47 72.377 72.3 72.172 72.062 72.04 71.99 71.927 71.875 71.825 71.79 71.762 71.7 71.657 71.642 71.512 71.462 71.702 71.675 71.29 71.205 71.127 71.057 70.977 70.862 70.717 70.61 70.475 70.357 70.192 70.067 69.935 69.762 69.58 69.44 69.297 69.137 69.07 68.727 68.165 67.627 67.172 67.01 66.902 66.795 66.63 66.5 66.422 66.345 66.275 66.172 66.057 66.107 66.242 66.105 65.332 64.652 64.402 64.375 64.372 64.302 63.792 63.102 62.187 61.257 60.502 65.205 64.055 62.02 59.78 59.685 59.672 59.675 59.775 60.345 61.195 62.267 62.627 62.225 62.502 63.76 62.687 61.772 61.782 61.792 61.805 61.815 61.8 61.772 61.882 62.047 62.097 62.052 62.095 62.147 62.21 62.407 62.467 62.907 63.267 63.182 62.832 63.057 63.377 64.11 64.53 65.202 65.515 66.437 66.087 65.9 65.895 66.04 66.105 66.187 66.192 66.207 66.31 66.577 66.732 66.727 68.29 69.567 68.237 68.427 68.842 69.6 70.65 70.205 71.915 76.437 75.622 72.57 73.172 72.8 73.337 72.955 70.957 71.332 72.28 73.822 72.987 72 72.42 74.87 74.175 77.095 81.702 82.23 84.517 81.505 81.885 78.475 79.51 79.462 80.295 82.28 83.01 83.292 82.072 81.017 79.457 79.535
86.558 86.555 86.577 86.607 86.618 86.625 86.607 86.565 86.549 86.616 88.297 90.699 88.026 87.123 90.819 89.536 87.134 87.221 89.242 91.601 88.712 87.346 87.311 87.356 87.369 87.409 87.427 87.457 87.51 87.547 87.578 87.602 87.618 87.656 87.66 87.681 87.7 87.788 87.816 87.863 87.874 87.89 87.927 87.964 88.02 88.041 88.042 88.064 88.063 88.062 88.086 88.131 88.189 88.228 88.264 88.29 88.274 88.255 88.238 88.23 88.206 88.204 88.215 88.185 88.193 88.191 88.206 89.471 92.136 90.506 89.742 96.86 90.827 88.287 93.556 90.15 87.972 93.177 100.227 100.412 100.01 92.875 90.542 97.007 92.21 94.912 97.44 91.69 87.25 89.11 86.865 86.815 86.86 86.875 86.915 87.002 87.067 87.747 90.42 91.495 87 87.037 87.06 87.1 87.097 87.29 87.21 90.782 90.407 87.87 87.265 87.277 87.432 87.53 89.652 91.607 87.807 88.217 88.522 88.765 90.537 91.922 93.992 89.62 89.485 89.382 89.44 89.53 89.565 89.65 89.71 89.545 89.47 89.39 89.475 89.807 87.135 86.352 84.6 83.677 82.295 80.862 80.562 81.027 81.265 81.267 81.227 81.155 80.907 80.865 80.97 82.497 82.02 82.732 83.98 85.475 86.947 88 88.745 88.737 87.535 87.517 87.402 87.387 87.337 87.287 87.27 87.175 87.13 87.06 86.962 86.83 86.705 86.582 86.437 86.292 86.125 85.985 85.832 85.662 85.53 85.352 85.197 85.017 84.785 84.602 84.452 84.305 84.132 83.995 83.855 83.692 83.5 83.362 83.205 83.025 82.91 82.737 82.635 82.49 82.355 82.23 82.095 81.955 81.852 81.777 81.697 81.612 81.51 81.41 81.317 81.197 81.08 80.99 80.882 80.757 80.652 80.53 80.4 80.257 80.122 79.995 79.832 79.727 79.56 79.402 79.22 79.097 78.972 78.765 78.575 78.432 78.297 78.12 77.98 77.82 77.692 77.565 77.372 77.267 77.135 77.03 76.912 76.85 76.787 76.717 76.672 75.97 75.087 75.047 75.005 74.917 74.85 74.777 74.627 74.487 74.397 74.295 74.162 74.055 73.975 73.872 73.767 73.682 73.577 73.447 73.325 73.22 73.125 73.085 72.96 72.872 72.812 72.697 72.57 72.57 72.495 72.365 72.267 72.19 72.122 72.077 71.997 71.91 71.847 71.795 71.75 71.707 71.66 71.605 71.547 71.475 71.452 71.4 71.327 71.235 71.19 71.102 71.027 70.957 70.837 70.765 70.652 70.515 70.43 70.235 70.117 69.967 69.805 69.62 69.47 69.26 69.097 68.897 68.972 68.655 68.172 67.617 67.157 66.895 66.775 66.64 66.542 66.39 66.29 66.235 66.107 66.06 65.965 65.895 65.977 66.04 65.795 64.91 64.462 64.437 64.435 64.447 64.18 63.505 62.807 61.607 62.64 61.502 60.432 59.822 59.687 59.65 59.672 59.7 59.725 60.205 61.262 61.52 62.085 62.205 62.105 61.855 61.742 61.74 61.752 61.762 61.742 61.732 61.695 61.725 61.812 61.912 61.995 62.21 62.377 62.44 63.29 62.792 62.04 62.442 62.95 63.425 63.702 64.83 64.862 65.195 65.73 66.285 66.187 65.837 65.8 65.892 65.987 66.08 66.035 66.055 66.135 66.197 66.45 66.642 66.655 67.442 69.412 68.282 68.467 68.61 68.957 70.922 70.275 74.782 77.56 76.535 75.525 73.195 70.57 71.992 71.427 71.4 71.425 71.375 71.25 72.857 72.15 72.815 73.372 73.54 73.952 80.215 83.292 80.38 82.397 84.15 81.157 80.205 79.7 79.422 79.422 80.585 82.455 80.832 79.677 79.45 79.447
86.563 86.572 86.637 86.64 86.662 86.667 86.655 86.605 86.582 86.625 89.46 90.696 87.869 92.51 92.537 90.913 91.609 90.645 90.809 88.071 89.32 87.802 88.869 90.739 90.249 87.856 87.469 87.474 87.475 87.496 87.54 87.574 87.604 87.639 87.647 87.686 87.7 87.74 87.778 87.796 87.793 87.847 87.877 87.902 87.948 87.97 87.996 88.012 88.03 88.038 88.061 88.104 88.166 88.19 88.228 88.25 88.285 88.178 88.149 88.118 88.093 88.059 88.122 88.24 88.112 88.142 88.101 89.289 94.012 91.243 88.049 93.292 95.085 91.482 94.186 88.281 87.865 87.821 88.912 94.734 90.691 90.441 94.53 89.572 95.207 91.35 87.245 93.615 86.96 86.867 86.795 86.775 86.817 86.86 86.93 86.975 87.005 87.437 92.932 91.295 86.99 87.055 87.047 87.035 87.045 87.087 87.137 91.115 87.5 91.622 87.187 87.24 87.44 87.41 87.45 87.642 87.93 88.232 88.48 88.72 91.1 92.677 89.185 89.355 89.397 89.287 89.422 89.52 89.53 89.75 89.637 89.442 89.392 89.32 89.357 88.41 88.307 87.175 84.48 83.205 82.145 80.872 80.57 81.042 81.29 81.24 81.225 81.122 80.96 80.882 80.972 83.202 83.345 82.722 84.007 85.587 88.062 87.735 90.775 88.817 87.517 87.492 87.372 87.355 87.317 87.247 87.24 87.182 87.13 87.04 86.935 86.812 86.69 86.577 86.422 86.285 86.13 86.027 85.87 85.697 85.552 85.385 85.207 85.01 84.817 84.627 84.507 84.327 84.147 84.002 83.852 83.675 83.515 83.357 83.205 83.025 82.902 82.752 82.572 82.445 82.36 82.23 82.057 81.937 81.847 81.77 81.69 81.58 81.485 81.405 81.27 81.13 81.047 80.942 80.835 80.727 80.62 80.492 80.365 80.22 80.05 79.93 79.795 79.675 79.535 79.367 79.225 79.082 78.937 78.722 78.537 78.387 78.257 78.077 77.922 77.777 77.67 77.517 77.34 77.207 77.107 76.997 76.915 76.835 76.742 76.637 76.635 75.782 75.112 75.037 74.982 74.915 74.83 74.777 74.63 74.477 74.355 74.267 74.142 74.047 73.945 73.857 73.775 73.652 73.565 73.447 73.335 73.247 73.152 73.097 72.99 72.907 72.812 72.73 72.617 72.577 72.477 72.375 72.275 72.162 72.137 72.062 72 71.932 71.857 71.797 71.732 71.695 71.61 71.545 71.525 71.43 71.42 71.362 71.302 71.235 71.172 71.137 71.02 70.97 70.865 70.775 70.695 70.56 70.462 70.305 70.175 70.005 69.85 69.682 69.5 69.347 69.13 68.93 68.717 68.545 68.627 68.117 67.727 67.24 66.862 66.652 66.517 66.427 66.272 66.165 66.09 65.98 65.912 65.835 65.722 65.722 66.185 66.16 65.227 64.797 64.52 64.505 64.48 64.325 63.947 63.425 61.927 61.007 60.527 59.997 59.69 59.655 59.642 59.667 59.632 61.59 61.75 60.397 61.112 61.837 62.12 62.2 61.87 61.807 61.76 61.74 61.692 61.652 61.647 61.657 61.707 61.79 62.002 62.545 63.102 62.6 62.28 62.342 62.772 63.255 63.715 64.142 65.132 65.75 65.682 65.555 65.862 65.897 65.78 65.71 65.772 65.825 65.915 65.935 65.955 66.057 66.13 66.142 66.272 66.5 66.547 67.81 69.157 68.272 68.477 68.61 69.142 69.837 71.775 77.352 77.18 75.895 74.927 70.675 70.375 70.442 70.615 70.657 71.567 71.24 72.282 73.375 73.207 73.955 73.422 73.51 73.705 73.902 74.207 74.562 80.935 84.887 83.212 81.02 80.58 79.695 79.385 79.36 80.295 79.317 80.07 80.42 79.425
86.573 86.597 86.64 86.657 86.685 86.685 86.692 86.657 86.597 86.6 88.062 87.837 87.672 90.778 93.132 93.552 88.51 87.683 88.147 87.282 87.197 87.49 93.389 93.679 93.73 88.091 87.454 87.482 87.457 87.446 87.477 87.546 87.592 87.669 87.655 87.667 87.689 87.724 87.738 87.737 87.73 87.779 87.801 87.827 87.857 87.91 87.934 87.954 87.991 88.005 88.021 88.059 88.113 88.14 88.176 88.177 88.291 88.129 88.031 88.011 87.986 87.947 88.258 89.915 90.722 88.254 87.972 90.058 93.944 92.04 89.156 90.505 90.775 96.659 95.555 95.752 92.813 89.145 87.699 91.475 89.319 87.691 90.746 89.119 90.459 94.702 89.507 92.937 86.765 86.76 86.762 86.77 86.8 86.85 86.907 86.925 86.892 86.93 86.922 87.525 86.957 86.982 87.095 86.967 87.195 87.095 91.442 91.33 94.17 87.132 87.257 87.185 87.285 87.347 87.402 87.677 87.95 88.24 88.475 88.64 88.76 88.935 89.082 89.162 89.192 89.23 89.38 89.565 89.625 89.58 89.552 89.437 89.345 89.295 89.25 89.737 88.595 86.552 85.465 83.175 82.07 80.815 80.562 81.072 81.255 81.252 81.145 81.13 80.957 80.935 81.025 83.055 82.8 82.86 84.092 85.69 86.897 90.362 91.01 89.322 87.475 87.442 87.367 87.35 87.317 87.24 87.212 87.145 87.077 86.997 86.935 86.812 86.675 86.542 86.425 86.277 86.152 86.015 85.867 85.74 85.567 85.397 85.21 85.032 84.85 84.675 84.497 84.352 84.17 83.987 83.837 83.695 83.537 83.375 83.202 83.032 82.912 82.75 82.577 82.467 82.342 82.207 82.062 81.92 81.817 81.732 81.635 81.532 81.43 81.327 81.22 81.105 81.002 80.892 80.785 80.672 80.585 80.43 80.3 80.135 80.027 79.895 79.752 79.632 79.48 79.305 79.157 79.037 78.887 78.662 78.495 78.342 78.17 78.05 77.897 77.752 77.63 77.485 77.305 77.175 77.08 76.982 76.87 76.815 76.732 76.622 76.59 75.88 75.065 75.025 74.982 74.887 74.85 74.742 74.585 74.505 74.367 74.257 74.137 74.057 73.922 73.862 73.757 73.662 73.575 73.445 73.362 73.265 73.19 73.107 73.005 72.937 72.83 72.735 72.667 72.595 72.505 72.402 72.28 72.187 72.135 72.045 71.982 71.885 71.83 71.785 71.71 71.66 71.597 71.535 71.492 71.43 71.397 71.32 71.272 71.227 71.175 71.11 71.025 70.962 70.872 70.755 70.685 70.582 70.455 70.342 70.212 70.072 69.9 69.79 69.577 69.392 69.215 68.977 68.792 68.552 68.357 68.252 68.717 67.612 67.195 66.797 66.595 66.417 66.327 66.25 66.107 65.935 65.845 65.787 65.73 65.652 65.502 65.642 66.39 66.885 65.33 64.725 64.707 64.66 64.69 64.657 63.752 61.902 60.99 60.585 60.067 59.775 59.657 59.66 59.64 61.35 61.275 60.547 60.305 61.172 61.715 62.037 62.27 62.002 61.715 61.702 61.68 61.647 61.665 61.672 61.682 61.742 61.947 61.812 61.665 61.782 62.395 63.007 63.622 64.065 64.497 64.815 65.11 65.297 65.517 65.827 65.782 65.7 65.615 65.652 65.725 65.77 65.835 65.845 65.935 66.022 66.102 66.137 66.157 66.277 66.417 68.54 69.06 68.222 68.432 69.597 71.115 70.765 77.082 77.9 77.332 76.482 74.775 70.362 70.317 70.365 70.462 70.522 70.695 70.875 73.695 73.695 73.522 73.597 73.695 73.792 73.582 73.837 74.002 74.15 77.43 82.635 77.745 77.135 79.802 80.672 80.485 79.422 79.867 79.4 81.247 82.69 81.895
86.6 86.637 86.697 86.665 86.71 86.71 86.722 86.682 86.595 86.607 86.732 86.827 86.767 90.305 91.27 88.755 86.91 87.04 87.38 89.425 88.365 87.303 87.919 89.348 88.613 87.503 87.577 87.633 87.576 87.535 87.553 87.53 87.589 87.597 87.619 87.627 87.657 87.692 87.711 87.701 87.724 87.738 87.762 87.787 87.823 87.878 87.909 87.925 87.936 87.933 87.956 88.023 88.087 88.082 88.069 88.006 88.075 87.977 87.926 87.899 87.887 87.88 89.004 93.638 94.017 88.201 87.908 92.27 95.051 95.654 89.213 87.833 88.737 94.058 90.94 98.088 98.264 91 87.561 87.966 92.526 87.511 87.454 88.391 88.07 92.213 96.931 96.193 88.41 86.653 86.702 86.715 86.802 86.865 86.892 86.9 86.865 86.905 86.917 86.937 86.915 87.02 86.95 86.937 87.32 87.945 91.965 91.157 87.927 87.05 87.202 87.092 87.287 87.31 87.472 87.73 87.97 88.242 88.46 88.585 88.722 89.052 89.262 89.012 89.075 89.205 89.452 89.662 89.562 89.505 89.43 89.407 89.557 89.395 89.815 89.297 87.567 85.887 84.375 82.877 81.717 80.807 80.565 81.112 81.227 81.235 81.137 81.112 80.897 80.862 81.02 81.207 81.902 82.94 84.175 85.722 86.745 88.962 89.125 87.92 87.515 87.407 87.367 87.322 87.297 87.21 87.187 87.115 87.095 86.985 86.875 86.777 86.64 86.515 86.4 86.28 86.14 86.03 85.862 85.737 85.587 85.42 85.25 85.07 84.907 84.73 84.57 84.367 84.172 84.052 83.86 83.7 83.53 83.395 83.197 83.042 82.927 82.762 82.625 82.475 82.332 82.202 82.052 81.912 81.792 81.715 81.627 81.512 81.407 81.287 81.182 81.015 80.942 80.83 80.722 80.592 80.492 80.352 80.252 80.097 79.975 79.842 79.695 79.575 79.455 79.275 79.145 79.017 78.81 78.627 78.447 78.342 78.162 78.017 77.875 77.747 77.607 77.447 77.292 77.175 77.045 76.967 76.832 76.805 76.697 76.635 76.572 75.66 75.05 75.04 74.97 74.872 74.845 74.71 74.552 74.432 74.332 74.247 74.107 74.03 73.947 73.867 73.757 73.672 73.58 73.455 73.355 73.267 73.2 73.102 73.017 72.935 72.832 72.735 72.695 72.61 72.527 72.397 72.29 72.197 72.125 72.047 71.967 71.88 71.81 71.775 71.672 71.615 71.582 71.487 71.425 71.387 71.357 71.287 71.25 71.207 71.182 71.105 71.035 70.945 70.887 70.772 70.69 70.602 70.482 70.375 70.232 70.14 70.005 69.835 69.677 69.5 69.307 69.09 68.907 68.675 68.417 68.155 67.917 68 67.425 66.972 66.75 66.555 66.34 66.195 66.11 66.005 65.815 65.697 65.637 65.612 65.492 65.39 65.402 65.582 65.39 65.275 65.01 64.817 64.775 64.725 64.457 63.055 62.025 61.195 60.797 60.427 59.835 59.667 60.412 60.867 59.615 60.82 60.585 60.377 61.11 61.507 61.905 61.99 61.805 61.682 61.665 61.692 61.705 61.727 61.725 61.775 61.89 61.227 61.362 62.19 62.935 63.522 64.505 65.372 65.057 65.217 65.465 65.647 65.692 65.587 65.592 65.532 65.55 65.6 65.687 65.707 65.73 65.805 65.882 65.927 66.012 66.092 66.145 66.197 66.3 67.627 68.457 68.227 68.352 70.497 71.242 70.562 73.567 76.17 77.597 77.752 77.147 75.91 70.595 70.255 70.32 70.4 70.655 72.327 73.82 73.915 73.757 72.727 72.82 73.307 73.47 73.677 73.865 73.965 74.055 74.975 75.725 75.972 76.965 77.142 79.042 81.08 80.585 80.945 82.782 83.445 82.735
86.635 86.672 86.717 86.71 86.732 86.727 86.735 86.697 86.64 86.652 86.775 86.83 86.825 86.837 86.92 89.717 88.39 87.065 88.157 87.882 90.12 89.792 87.202 89.051 87.381 87.46 87.57 87.576 87.573 87.794 87.957 87.603 87.561 87.547 87.612 87.656 87.647 87.675 87.708 87.762 87.763 87.758 87.795 87.786 87.804 87.849 87.872 87.866 87.864 87.877 87.911 87.956 87.971 87.982 87.96 87.926 87.901 87.834 87.825 87.851 87.885 87.871 87.931 92.112 94.263 88.506 87.857 87.848 88.678 90.197 89.827 90.541 88.065 87.534 88.067 93.09 90.309 89.637 87.362 87.386 87.597 87.471 92.303 90.583 91.935 87.207 87.449 88.089 86.62 86.637 86.663 86.726 86.806 86.837 86.867 86.85 86.83 86.847 86.915 86.93 89.077 90.45 86.92 87.042 87.935 92.085 86.927 87.095 86.947 87.027 87.085 87.07 87.362 87.33 87.547 87.805 88 95.115 91.24 88.575 88.665 89.19 89.345 89.062 89.422 89.102 89.59 90.482 89.457 89.445 89.387 89.34 89.365 89.27 89.177 88.122 86.775 85.492 85.342 82.86 81.62 80.745 80.625 81.167 81.197 81.222 81.125 81.06 80.872 80.867 80.925 81.165 81.905 82.88 84.162 86.327 86.912 87.61 87.74 87.555 87.455 87.392 87.372 87.302 87.255 87.187 87.15 87.07 87.02 86.955 86.837 86.755 86.602 86.512 86.387 86.27 86.137 86.002 85.885 85.755 85.595 85.42 85.272 85.08 84.942 84.742 84.577 84.38 84.22 84.067 83.897 83.715 83.56 83.397 83.227 83.065 82.937 82.805 82.635 82.49 82.335 82.202 82.035 81.922 81.772 81.7 81.582 81.475 81.382 81.265 81.14 81.035 80.92 80.772 80.66 80.542 80.427 80.282 80.177 80.04 79.92 79.782 79.63 79.545 79.36 79.217 79.107 78.957 78.8 78.597 78.42 78.3 78.17 77.967 77.832 77.73 77.592 77.41 77.255 77.125 77.017 76.94 76.812 76.757 76.68 76.632 76.427 75.287 75.062 75.022 74.945 74.895 74.842 74.697 74.57 74.437 74.33 74.222 74.115 74.02 73.942 73.85 73.73 73.657 73.565 73.44 73.397 73.287 73.195 73.115 73.035 72.955 72.86 72.77 72.69 72.632 72.522 72.397 72.272 72.205 72.125 72.025 71.955 71.865 71.772 71.722 71.622 71.57 71.51 71.465 71.39 71.355 71.297 71.25 71.2 71.172 71.155 71.112 71.037 70.947 70.875 70.78 70.692 70.607 70.522 70.397 70.277 70.177 70.055 69.957 69.775 69.572 69.42 69.187 68.99 68.77 68.535 68.282 67.975 67.752 67.515 67.23 66.962 66.825 66.455 66.172 66.007 65.96 65.842 65.697 65.615 65.505 65.45 65.402 65.332 65.22 65.17 65.177 65.285 65.955 65.935 65.487 65.352 64.327 64.872 62.21 61.602 61.142 60.682 60.057 62.035 59.662 59.62 59.637 59.66 59.795 60.26 60.792 61.29 61.637 61.715 61.682 61.675 61.69 61.685 61.667 61.685 61.787 61.792 61.105 61.432 62.432 63.517 64.23 64.992 65.98 65.272 65.505 65.897 66.337 65.48 65.455 65.41 65.465 65.522 65.602 65.62 65.632 65.685 65.722 65.815 65.907 66 66.085 66.172 66.232 66.315 66.37 66.595 67.86 68.31 69.377 71.265 70.532 70.59 71.777 74.965 77.06 77.76 77.28 70.62 70.215 70.2 70.25 71.925 73.477 73.832 73.76 73.815 72.007 71.977 72.712 73.14 73.462 73.692 73.88 73.99 74.397 76.01 76.65 75.852 76.75 76.86 78.397 81.86 82.612 82.68 82.792 81.395
86.723 86.735 86.747 86.75 86.752 86.737 86.725 86.677 86.657 86.687 86.797 86.81 86.81 86.825 86.897 89.102 87.117 88.052 87.137 87.125 87.235 87.205 87.232 89.315 88.59 87.39 87.507 87.55 87.67 91.568 91.22 87.507 87.547 87.502 87.52 87.607 87.632 87.657 87.711 87.738 87.742 87.7 87.763 87.792 87.795 87.8 87.79 87.783 87.772 87.778 87.799 87.831 87.849 87.859 87.889 87.817 87.795 87.795 87.782 87.786 89.173 89.184 87.828 88.005 88.086 87.806 87.762 87.696 87.638 87.545 89.37 90.186 87.718 87.262 88.335 94.655 91.767 87.707 87.435 91.216 89.724 88.051 90.554 88.27 91.083 90.13 86.825 86.665 86.59 86.587 86.649 86.718 86.783 86.815 86.83 86.835 86.865 86.835 86.822 86.84 88.627 87.66 86.885 86.855 87.407 87.6 88.007 92.297 87.237 87.115 87.02 87.112 87.437 91.232 87.645 87.862 88.047 88.46 89.877 88.527 88.607 88.752 88.78 88.912 89.012 89.062 92.767 91.277 89.362 89.385 89.405 89.367 89.327 89.24 89.14 88.147 86.647 87.487 85.077 82.81 81.675 80.622 80.555 81.172 81.185 81.19 81.115 81.037 80.872 80.825 80.91 81.26 81.902 83.335 84.562 85.58 87.737 87.547 88.77 87.685 87.477 87.38 87.347 87.277 87.24 87.172 87.13 87.06 86.997 86.912 86.815 86.705 86.595 86.462 86.372 86.257 86.127 86 85.88 85.752 85.585 85.447 85.29 85.087 84.927 84.782 84.58 84.405 84.252 84.07 83.92 83.742 83.572 83.422 83.25 83.08 82.987 82.805 82.632 82.47 82.325 82.17 82.04 81.91 81.797 81.682 81.557 81.467 81.337 81.207 81.072 80.965 80.852 80.71 80.62 80.482 80.347 80.25 80.112 79.975 79.867 79.72 79.567 79.472 79.3 79.182 79.045 78.915 78.755 78.557 78.387 78.262 78.117 77.955 77.832 77.72 77.552 77.387 77.222 77.102 77.005 76.927 76.82 76.745 76.675 76.64 76.175 75.227 75.105 75.057 74.95 74.907 74.862 74.707 74.56 74.447 74.337 74.227 74.125 74.05 73.972 73.885 73.77 73.65 73.57 73.462 73.362 73.265 73.21 73.112 73.047 72.947 72.857 72.79 72.705 72.64 72.527 72.412 72.287 72.19 72.115 71.99 71.92 71.865 71.767 71.652 71.582 71.512 71.455 71.387 71.342 71.302 71.265 71.232 71.167 71.127 71.11 71.077 71.01 70.927 70.88 70.782 70.722 70.64 70.552 70.427 70.347 70.24 70.117 69.992 69.872 69.667 69.482 69.295 69.097 68.857 68.625 68.382 68.112 67.842 67.59 67.335 67.117 66.9 66.607 66.327 66.067 65.867 65.76 65.71 65.555 65.407 65.37 65.33 65.247 65.165 65.06 64.972 64.957 64.992 65.102 65.587 66.525 66.112 64.962 63.572 62.742 62.002 61.377 61.357 60.34 59.847 59.627 59.632 59.65 59.657 59.71 59.907 60.455 61.022 61.392 61.537 61.612 61.765 61.782 61.647 61.632 61.817 61.562 60.927 61.695 63.01 64.295 64.952 64.7 64.957 65.07 65.7 65.635 65.42 65.382 65.302 65.327 65.405 65.477 65.522 65.577 65.565 65.62 65.72 65.81 65.955 66.02 66.075 66.145 66.21 66.312 66.382 66.507 66.577 66.97 68.037 69.077 69.195 70.325 70.627 71.76 71.762 76.162 71.397 70.457 70.965 70.82 70.14 71.402 73.597 73.47 73.557 73.475 71.567 71.305 71.732 72.64 72.9 73.462 73.81 74.065 74.322 75.98 76.48 75.54 76.577 76.057 76.282 76.902 81.2 83.975 83.522 81.472
86.765 86.775 86.777 86.802 86.792 86.79 86.772 86.712 86.682 86.707 86.787 86.837 86.82 86.855 86.922 86.995 87.05 87.152 87.872 87.46 87.332 88.232 91.632 91.997 89.49 87.4 87.42 87.5 87.617 88.785 88.15 87.562 87.572 87.57 87.541 87.555 87.611 87.611 87.654 87.699 87.702 87.707 87.719 87.736 87.695 87.698 87.704 87.686 87.683 87.701 87.678 87.725 87.785 87.75 87.774 87.766 87.755 87.775 87.768 87.756 91.208 91.496 87.978 87.677 87.635 87.6 87.571 87.509 87.45 87.392 90.142 90.265 90.616 87.676 87.015 88.121 88.065 87.046 87.202 91.54 88.704 91.756 87.564 89.624 91.781 94.21 87.189 86.639 86.561 86.572 86.628 86.706 86.748 86.766 86.772 86.829 86.858 86.816 86.808 86.799 86.817 87.021 86.806 86.824 91.024 91.195 88.585 88.332 94.942 86.985 87.045 87.105 90.085 98.997 89.987 87.875 88.055 88.252 88.722 89.162 88.56 88.652 88.717 88.825 88.9 88.98 96.36 94.46 89.302 89.382 89.562 89.31 89.215 89.205 90.277 88.857 87.082 85.497 84.46 85.065 81.48 80.565 80.5 81.162 81.132 81.192 81.047 81.005 80.835 80.81 80.88 81.2 81.912 85.082 86.635 86.677 86.885 87.592 88.152 87.65 87.495 87.415 87.345 87.277 87.22 87.15 87.095 87.022 86.93 86.87 86.802 86.677 86.54 86.42 86.327 86.247 86.11 86.01 85.86 85.742 85.61 85.447 85.285 85.11 84.932 84.785 84.59 84.422 84.262 84.105 83.927 83.762 83.56 83.427 83.252 83.07 82.985 82.797 82.645 82.47 82.31 82.145 82.042 81.907 81.77 81.662 81.537 81.432 81.307 81.185 81.037 80.925 80.817 80.682 80.55 80.435 80.302 80.182 80.047 79.925 79.782 79.64 79.527 79.4 79.257 79.147 78.992 78.885 78.692 78.5 78.357 78.217 78.082 77.92 77.81 77.7 77.532 77.375 77.227 77.112 77.007 76.907 76.807 76.715 76.63 76.6 75.935 75.15 75.097 75.072 74.96 74.925 74.865 74.722 74.577 74.465 74.377 74.232 74.127 74.037 73.957 73.875 73.767 73.642 73.525 73.452 73.352 73.25 73.212 73.15 73.04 72.975 72.867 72.782 72.707 72.615 72.52 72.417 72.267 72.19 72.087 71.985 71.912 71.83 71.732 71.63 71.55 71.467 71.407 71.332 71.295 71.257 71.215 71.182 71.12 71.082 71.057 71.03 70.995 70.935 70.877 70.83 70.765 70.675 70.552 70.485 70.405 70.277 70.18 70.045 69.915 69.77 69.585 69.402 69.217 68.99 68.732 68.482 68.242 67.93 67.64 67.357 67.035 66.795 66.645 66.37 66.195 65.982 65.742 65.627 65.535 65.412 65.25 65.232 65.157 65.102 65.052 64.967 64.9 64.855 64.782 64.732 64.805 65.33 65.61 65.887 64.522 63.55 63.23 64.05 61.8 60.41 59.832 59.657 59.662 59.635 59.612 59.607 59.745 60.23 60.947 61.52 61.392 61.577 61.582 61.785 61.66 61.755 61.472 61.015 62.675 63.432 63.887 64.56 64.577 65.342 65.385 65.352 65.285 65.272 65.227 65.245 65.327 65.372 65.42 65.472 65.48 65.542 65.752 65.78 65.942 66.005 66.065 66.17 66.235 66.255 66.355 66.412 66.562 66.657 66.71 66.822 67.497 68.637 68.505 69.042 69.53 71.675 71.632 70.427 71.315 72.615 71.03 70 73.017 72.547 72.792 73.362 72.337 72.305 72.025 71.647 71.697 72.25 72.987 73.575 73.957 76.187 75.7 74.825 75.177 75.462 75.687 75.997 76.522 76.752 80.72 83.922 84.392
86.8 86.8 86.775 86.79 86.787 86.825 86.79 86.76 86.702 86.742 86.767 86.807 86.797 86.81 86.91 86.995 87.02 87.14 91.767 93.342 92.292 92.455 92.337 92.35 87.497 87.385 87.4 87.507 87.602 87.587 87.657 87.56 87.572 87.535 87.505 87.55 87.547 87.552 87.576 87.628 87.642 87.661 87.649 87.638 87.644 87.625 87.623 87.61 87.596 87.588 87.606 87.626 87.698 87.749 87.73 87.729 87.709 87.711 87.733 87.687 87.892 90.906 89.139 87.579 87.491 87.418 87.348 87.299 87.247 87.161 92.404 90.282 91.332 90.076 86.7 86.617 86.67 86.561 87.035 91.539 87.1 87.462 87.786 94.864 93.972 89.813 86.733 86.553 86.536 86.625 86.66 86.684 86.723 86.772 86.807 86.862 86.847 86.84 86.828 86.803 86.78 86.774 90.519 88.961 94.321 96.535 97.547 89.274 93.515 89.762 87.137 87.17 87.277 89.012 88.885 87.875 88.06 88.312 90.052 92.515 88.505 88.567 88.657 88.78 88.842 88.98 91.257 89.275 89.252 89.75 90.437 89.225 89.137 89.23 91.35 90.907 88.74 86.632 83.995 84.425 81.312 80.515 80.515 81.12 81.107 81.19 81.042 80.987 80.832 80.807 80.847 81.312 82.585 83.217 85.777 86.812 89.267 89.2 87.92 87.727 87.467 87.397 87.322 87.277 87.202 87.152 87.06 87.01 86.907 86.855 86.732 86.642 86.502 86.402 86.297 86.205 86.09 85.997 85.84 85.722 85.6 85.422 85.287 85.09 84.95 84.787 84.6 84.425 84.252 84.08 83.91 83.757 83.592 83.432 83.242 83.132 82.952 82.782 82.63 82.462 82.305 82.185 82.025 81.89 81.775 81.655 81.505 81.415 81.285 81.16 80.977 80.867 80.76 80.61 80.507 80.38 80.24 80.13 80.005 79.867 79.757 79.61 79.48 79.372 79.225 79.097 78.965 78.815 78.63 78.47 78.325 78.187 78.072 77.9 77.802 77.695 77.535 77.352 77.222 77.105 77.015 76.9 76.832 76.722 76.642 76.577 75.712 75.172 75.112 75.067 74.975 74.92 74.83 74.712 74.595 74.465 74.367 74.215 74.137 74.05 73.97 73.862 73.752 73.64 73.55 73.455 73.337 73.265 73.187 73.137 73.04 72.927 72.86 72.78 72.7 72.59 72.475 72.365 72.247 72.192 72.075 71.97 71.897 71.797 71.707 71.562 71.542 71.442 71.36 71.277 71.227 71.185 71.147 71.112 71.08 71.06 71.032 70.997 70.952 70.932 70.885 70.852 70.767 70.722 70.637 70.545 70.442 70.357 70.26 70.135 70 69.85 69.66 69.522 69.322 69.087 68.885 68.62 68.317 68.045 67.74 67.435 67.127 66.815 66.547 66.292 66.127 65.995 65.825 65.607 65.492 65.397 65.307 65.137 65.117 65.037 64.98 64.905 64.9 64.81 64.737 64.632 64.595 64.587 64.555 64.927 66.095 65.395 64.5 64.332 63.447 63.187 61.177 59.992 59.727 59.627 59.62 59.617 59.627 60.082 61.295 61.017 61.04 61.09 61.25 61.47 61.56 61.417 61.172 61.442 62.107 62.645 63.285 64.027 64.56 65.672 65.142 65.112 65.14 65.127 65.157 65.167 65.302 65.342 65.385 65.397 65.445 65.61 65.72 65.812 65.945 65.997 65.997 66.252 66.6 66.402 66.425 66.487 66.59 66.68 66.787 66.875 67.012 67.227 67.667 68.86 70.425 72.165 70.495 70.542 71.9 73.41 71.94 69.842 70.76 71.6 72.982 71.915 71.93 71.497 72.515 73.095 71.857 74.302 74.462 72.915 74.13 74.807 74.547 74.537 74.755 75.177 75.362 75.67 76.065 76.572 76.89 77.26 81.75
86.82 86.787 86.747 86.772 86.792 86.8 86.825 86.822 86.782 86.792 86.957 90.572 88.507 87.577 86.917 86.977 87.02 87.09 89.24 90.702 89.252 92.512 89.362 87.697 87.305 87.39 87.53 87.46 87.465 87.475 87.495 87.57 87.5 87.485 87.482 87.525 87.53 87.512 87.522 87.57 87.602 87.595 87.575 87.553 87.544 87.526 87.495 87.493 87.487 87.533 87.55 87.577 87.633 87.685 87.679 87.676 87.679 87.676 88.21 88.73 90.187 93.56 91.979 87.553 87.3 87.237 87.126 87.047 86.917 86.811 87.097 87.034 87.799 87.32 86.427 86.379 86.492 86.443 86.808 88.338 87.357 86.602 87.562 94.95 90.178 94.432 88.581 86.485 86.568 86.644 86.675 86.679 86.71 86.79 86.837 86.849 86.834 86.838 86.839 86.801 86.752 86.716 87.934 89.092 89.259 94.177 96.385 91.423 90.49 92.593 87.185 87.322 87.467 87.623 87.791 87.885 88.052 88.275 88.357 88.537 88.465 89.98 88.95 88.705 94.252 90.505 88.977 89.127 89.187 89.25 89.207 89.162 89.102 89.145 89.85 88.385 86.272 85.305 83.677 83.515 81.22 80.467 80.53 81.08 81.092 81.122 81.032 80.965 80.797 80.81 80.925 81.422 82.192 82.907 85.025 86.13 89.447 89.335 88.065 87.662 87.445 87.397 87.302 87.242 87.187 87.137 87.062 86.98 86.92 86.805 86.725 86.612 86.485 86.365 86.272 86.17 86.06 85.985 85.852 85.715 85.585 85.422 85.287 85.11 84.97 84.797 84.597 84.417 84.252 84.087 83.895 83.715 83.56 83.387 83.24 83.087 82.917 82.762 82.627 82.455 82.275 82.167 82.01 81.887 81.767 81.627 81.495 81.38 81.25 81.122 80.93 80.83 80.73 80.58 80.465 80.327 80.2 80.092 79.942 79.822 79.71 79.555 79.437 79.337 79.192 79.065 78.95 78.782 78.607 78.447 78.315 78.18 78.025 77.912 77.78 77.647 77.51 77.357 77.222 77.097 76.985 76.895 76.8 76.69 76.62 76.597 75.605 75.165 75.147 75.08 74.982 74.985 74.83 74.68 74.54 74.472 74.34 74.227 74.152 74.052 73.965 73.865 73.757 73.67 73.575 73.452 73.352 73.267 73.182 73.135 73.017 72.902 72.847 72.765 72.687 72.59 72.475 72.355 72.21 72.132 72.062 71.965 71.842 71.74 71.667 71.592 71.492 71.387 71.335 71.252 71.182 71.13 71.082 71.057 71.027 71.017 70.975 70.982 70.947 70.887 70.847 70.82 70.795 70.735 70.665 70.58 70.5 70.432 70.32 70.197 70.052 69.887 69.76 69.61 69.437 69.207 68.965 68.735 68.457 68.17 67.87 67.562 67.26 66.915 66.6 66.322 66.217 66.067 65.785 65.692 65.525 65.342 65.287 65.087 64.985 64.972 64.927 64.875 64.842 64.797 64.745 64.622 64.575 64.505 64.435 64.435 64.507 65.122 64.932 64.93 64.062 63.927 63.16 62.267 60.487 59.867 59.652 59.605 59.57 59.677 62.332 62.315 60.69 60.565 60.8 60.887 60.982 60.962 61.022 61.262 61.66 62.092 62.577 63.107 64.317 65.215 65.02 65.045 64.977 65.047 65.075 65.212 65.237 65.257 65.312 65.327 65.49 65.615 65.82 65.83 65.802 65.667 65.757 66.382 67.075 66.585 66.6 66.632 66.645 66.727 66.802 66.927 67.075 67.182 67.265 67.55 71.17 73.987 71.315 71.415 70.877 74.495 73.137 69.535 70.26 71.012 71.112 71.482 71.772 72.722 76.405 75.357 74.557 75.375 75.895 74.78 73.747 74.207 74.465 74.512 74.592 74.635 75.105 75.417 75.632 76.132 76.865 76.955 77.417
86.755 86.735 86.74 86.755 86.752 86.785 86.825 86.827 86.812 86.81 87.937 93.407 93.372 89.425 86.997 87 87.032 87.1 87.117 87.065 87.08 88.15 91.397 88.742 87.285 87.422 87.422 87.997 88.805 87.97 90.702 89.232 87.492 87.487 87.505 87.487 87.55 87.512 87.512 87.527 87.582 87.562 87.512 87.457 87.47 87.455 87.422 87.429 87.457 87.471 87.499 87.524 87.558 87.561 87.575 87.541 87.523 87.44 90.176 90.782 88.77 91.813 91.4 87.119 87.048 86.994 86.92 86.797 86.646 86.551 86.486 86.431 86.382 86.313 86.248 86.223 86.194 86.215 86.174 86.188 86.201 86.299 86.682 87.551 86.923 88.373 87.348 86.501 86.588 86.603 86.613 86.636 86.719 87.775 89.658 86.849 86.832 86.905 89.946 87.277 87.21 86.688 86.711 86.724 86.723 86.83 87.236 86.917 86.944 86.969 87.121 87.389 87.592 87.615 87.773 87.847 87.98 88.168 88.29 90.319 91.105 88.51 88.627 89.46 98.43 92.31 89.37 89.065 89.18 89.327 89.092 89.042 89.007 90.21 91.645 88.507 86.465 84.86 84.39 82.297 81.112 80.465 80.525 81.065 81.065 81.16 81.032 80.987 80.77 80.732 80.89 81.26 82.055 82.962 84.647 85.947 86.962 88.102 87.835 87.62 87.46 87.39 87.307 87.222 87.17 87.11 87.03 86.935 86.867 86.785 86.687 86.595 86.475 86.345 86.255 86.177 86.05 85.95 85.807 85.692 85.557 85.42 85.275 85.072 84.937 84.785 84.585 84.407 84.282 84.1 83.91 83.71 83.56 83.4 83.27 83.065 82.91 82.727 82.582 82.432 82.265 82.142 81.987 81.862 81.74 81.61 81.49 81.352 81.222 81.077 80.907 80.812 80.66 80.542 80.42 80.287 80.147 80.04 79.885 79.78 79.672 79.537 79.412 79.315 79.16 79.02 78.89 78.76 78.555 78.412 78.282 78.14 77.985 77.872 77.777 77.642 77.477 77.342 77.207 77.11 76.965 76.88 76.802 76.682 76.63 76.492 75.457 75.15 75.15 75.077 74.98 74.952 74.84 74.647 74.542 74.452 74.345 74.252 74.175 74.05 73.972 73.852 73.76 73.692 73.57 73.465 73.35 73.287 73.19 73.117 73.032 72.92 72.825 72.72 72.67 72.58 72.457 72.325 72.202 72.09 72 71.922 71.832 71.722 71.637 71.552 71.462 71.395 71.292 71.2 71.13 71.075 71.042 71.002 70.96 70.95 70.955 70.915 70.89 70.872 70.84 70.805 70.762 70.732 70.68 70.63 70.57 70.48 70.395 70.27 70.13 69.997 69.835 69.66 69.505 69.302 69.08 68.82 68.542 68.277 67.972 67.69 67.355 67.03 66.732 66.405 66.167 65.967 65.757 65.695 65.722 65.445 65.227 65.12 64.98 64.872 64.815 64.765 64.755 64.752 64.697 64.65 64.555 64.525 64.445 64.372 64.302 64.3 64.565 64.997 65.21 64.47 64.825 63.35 61.952 61.535 60.435 59.707 59.642 59.59 59.607 60.01 60.73 60.312 60.037 60.162 60.4 60.602 61.23 61.607 61.122 61.315 61.705 63.302 64.95 64.957 64.957 64.927 64.962 65.05 65.115 65.172 65.225 65.242 65.272 65.545 65.42 65.672 65.66 65.395 65.385 65.42 65.497 65.717 65.965 66.135 66.44 66.967 69.845 66.875 66.91 66.97 67.107 67.215 67.387 67.452 67.582 68.247 69.69 70.762 71.672 72.727 71.057 69.257 71.072 71.517 71.997 70.622 71.587 76.52 77.365 77.152 75.875 75.877 75.382 73.415 73.437 73.62 74.087 74.472 74.595 74.935 75.412 75.395 75.522 75.907 76.867 76.982 77.105
86.723 86.695 86.722 86.74 86.76 86.77 86.78 86.787 86.79 86.792 87.387 88.805 87.947 87.557 87.027 87.042 87.055 87.092 87.135 88.07 92.745 94.697 94.912 90.077 87.317 87.437 87.64 90.785 92.937 92.4 92.847 93.06 88.955 87.502 87.525 87.475 87.507 87.505 87.492 87.51 87.562 87.55 87.51 87.447 87.397 87.357 87.37 87.37 87.41 87.485 87.51 87.515 87.515 87.489 87.343 87.253 87.219 87.186 87.643 87.174 87.067 87.408 86.925 86.902 86.821 86.745 86.679 86.565 86.452 86.37 86.342 86.297 86.234 86.191 86.159 86.121 86.07 86.062 86.039 86.059 86.122 86.208 86.265 86.291 86.343 86.413 86.459 86.504 86.529 86.591 86.613 87.441 89.47 89.307 91.391 86.8 86.799 86.931 90.661 88.025 92.061 89.249 89.362 86.653 86.942 89.184 87.556 86.817 87.061 86.911 87.057 87.574 87.572 87.64 87.878 87.833 87.974 88.166 88.38 88.65 91.047 88.464 88.521 91.169 92.02 92.775 90.05 89.017 88.977 89.175 89.01 88.997 88.87 89.83 91.857 88.36 86.595 84.802 83.56 82.22 80.95 80.452 80.552 81.122 81.052 81.107 81.005 80.965 80.752 80.727 80.842 81.192 82.21 83.027 84.537 85.865 86.912 88.44 87.84 87.557 87.457 87.355 87.312 87.24 87.18 87.095 87.03 86.927 86.87 86.76 86.652 86.542 86.427 86.327 86.255 86.15 86.05 85.947 85.79 85.692 85.57 85.41 85.257 85.057 84.937 84.797 84.572 84.415 84.29 84.077 83.902 83.71 83.522 83.377 83.26 83.042 82.882 82.697 82.57 82.42 82.235 82.115 81.955 81.822 81.73 81.59 81.465 81.315 81.182 81.062 80.892 80.802 80.652 80.492 80.355 80.237 80.127 79.982 79.835 79.76 79.627 79.495 79.42 79.252 79.125 79.002 78.867 78.74 78.547 78.39 78.267 78.14 77.95 77.857 77.74 77.612 77.467 77.345 77.187 77.085 76.93 76.895 76.795 76.685 76.665 76.352 75.375 75.217 75.147 75.06 75 74.937 74.807 74.67 74.547 74.445 74.365 74.265 74.172 74.072 74.002 73.897 73.8 73.697 73.582 73.477 73.365 73.265 73.175 73.117 72.992 72.89 72.795 72.725 72.65 72.525 72.382 72.24 72.172 72.082 71.997 71.895 71.815 71.717 71.622 71.517 71.42 71.325 71.245 71.152 71.097 71.07 71.032 70.975 70.927 70.917 70.937 70.912 70.87 70.872 70.835 70.797 70.737 70.745 70.7 70.66 70.592 70.515 70.442 70.34 70.212 70.057 69.92 69.772 69.597 69.392 69.195 68.957 68.71 68.435 68.147 67.8 67.472 67.157 66.8 66.5 66.235 66.027 65.817 65.64 65.545 65.435 65.455 65.215 65.007 64.88 64.792 64.727 64.702 64.665 64.635 64.602 64.517 64.53 64.44 64.397 64.292 64.287 64.227 64.212 64.347 65.16 65.515 64.275 63.327 62.65 61.607 60.582 59.945 59.727 59.69 59.652 59.767 59.975 59.932 61.48 61.347 60.02 60.865 60.392 60.5 60.517 63.467 64.992 64.865 64.857 64.835 64.875 64.972 65.025 65.085 65.132 65.175 65.175 65.24 65.397 65.565 65.47 65.267 65.24 65.205 65.215 65.375 65.517 65.67 65.845 66.052 66.43 68.907 68.192 67.057 67.072 67.135 67.267 67.405 67.507 67.637 67.762 68.022 68.73 69.967 70.607 69.53 69.325 72.002 73.297 71.625 70.54 73.852 77.362 77.567 77.41 77.22 76.96 75.035 73.302 74.185 72.905 73.405 73.73 74.435 75.007 75.525 75.335 75.435 75.862 76.642 76.492 76.792
86.613 86.615 86.68 86.73 86.765 86.802 86.787 86.8 86.81 86.8 86.81 86.85 86.897 86.99 87.07 87.095 87.155 87.185 87.2 87.565 90.395 90.045 92.285 88.277 87.317 87.34 87.43 87.375 89.53 91.695 92.502 94.9 89.842 87.51 87.47 87.41 87.44 87.482 87.487 87.472 87.485 87.482 87.44 87.43 87.407 87.36 87.297 87.33 87.4 87.415 87.402 87.35 87.315 87.297 87.145 87.062 86.965 86.876 86.939 86.918 86.85 86.795 86.726 86.648 86.546 86.49 86.449 86.367 86.331 86.244 86.203 86.176 86.132 86.116 86.116 86.087 86.06 86.009 85.983 86.021 86.071 86.15 86.216 86.299 86.336 86.358 86.439 86.461 86.538 86.557 87.641 87.617 89.474 86.776 86.951 86.788 86.808 86.949 88.352 88.459 87.901 90.483 88.46 86.632 87.782 91.79 88.26 88.014 86.954 87.171 87.128 87.589 87.678 87.644 87.786 87.845 88.014 88.095 88.148 88.145 88.247 88.424 88.441 88.664 88.679 88.629 89.014 89.156 88.863 88.929 88.932 88.925 88.795 88.875 89.59 88.62 87.292 87.972 83.37 82.602 80.892 80.437 80.507 81.115 81.06 81.105 80.98 80.907 80.727 80.745 80.805 83.217 86.202 83.137 84.637 86.012 88.802 89 88.197 87.567 87.452 87.34 87.287 87.215 87.167 87.055 86.982 86.895 86.84 86.707 86.627 86.525 86.382 86.292 86.22 86.115 86.017 85.92 85.775 85.652 85.532 85.39 85.232 85.082 84.937 84.787 84.565 84.42 84.262 84.087 83.892 83.725 83.53 83.377 83.217 83.042 82.857 82.697 82.575 82.37 82.215 82.07 81.93 81.802 81.712 81.542 81.435 81.3 81.155 80.995 80.86 80.757 80.617 80.502 80.357 80.22 80.11 79.967 79.822 79.732 79.587 79.5 79.387 79.225 79.092 78.965 78.822 78.665 78.505 78.365 78.237 78.107 77.965 77.86 77.742 77.58 77.432 77.265 77.172 77.085 76.96 76.89 76.785 76.702 76.682 76.28 75.392 75.217 75.157 75.07 75.05 74.922 74.807 74.682 74.547 74.452 74.36 74.232 74.18 74.085 74.01 73.905 73.815 73.695 73.577 73.482 73.367 73.287 73.192 73.107 72.997 72.892 72.792 72.705 72.635 72.505 72.395 72.252 72.157 72.072 71.982 71.892 71.79 71.662 71.587 71.49 71.4 71.32 71.227 71.11 71.065 71.015 70.97 70.927 70.91 70.902 70.892 70.86 70.822 70.85 70.827 70.777 70.765 70.745 70.697 70.665 70.6 70.517 70.472 70.387 70.267 70.135 70 69.845 69.702 69.527 69.31 69.072 68.817 68.572 68.277 67.962 67.627 67.297 66.95 66.607 66.315 66.087 65.86 65.647 65.45 65.355 65.647 65.975 65.12 64.977 64.822 64.707 64.635 64.615 64.56 64.557 64.49 64.477 64.462 64.392 64.342 64.27 64.205 64.157 64.122 64.192 64.42 64.727 64.96 64.215 63.06 62.335 61.867 60.505 59.977 59.742 59.717 60.505 62.055 63.255 60.635 59.685 59.682 59.752 60.71 64.15 64.775 64.785 64.77 64.742 64.802 64.9 64.95 65.002 65.075 65.065 65.102 65.172 65.252 65.44 65.312 65.122 65.127 65.117 65.147 65.165 65.25 65.352 65.422 65.59 65.787 66.02 66.352 66.802 67.227 67.487 67.26 67.287 67.417 67.552 67.67 67.817 67.887 68.04 68.245 69.475 68.867 69.377 70.922 70.31 69.88 71.69 74.86 76.825 77.322 77.542 77.582 77.225 73.652 74.64 75.007 75.025 74.225 73.09 73.872 74.545 75.045 75.125 75.235 75.717 75.98 76.277 77.435
86.485 86.542 86.592 86.662 86.747 86.802 86.827 86.83 86.822 86.93 86.827 86.827 86.882 86.955 87.022 87.087 87.145 87.21 87.202 87.187 87.282 87.467 87.445 87.232 87.207 87.212 87.27 87.315 87.61 89.527 88.497 90.79 88.29 87.377 87.365 87.387 87.4 87.417 87.4 87.412 87.4 88.452 87.422 87.252 87.3 87.212 87.125 87.112 87.115 87.187 87.235 87.137 87.08 86.982 86.965 86.817 86.812 86.69 86.647 86.687 86.582 86.487 86.453 86.424 86.37 86.332 86.268 86.22 86.19 86.11 86.073 86.054 86.05 86.03 86.034 86.062 86.025 85.964 85.99 86.002 86.077 86.144 86.214 86.296 86.305 86.366 86.413 86.439 86.595 86.701 92.005 93.633 90.994 90.693 86.72 86.734 86.719 86.67 87.692 87.864 87.63 89.231 86.912 86.605 86.621 87.164 87.622 93.142 87.206 87.287 87.218 87.411 87.516 87.637 87.74 87.871 87.991 88.548 88.063 88.141 88.31 88.431 88.349 88.72 88.49 88.58 88.865 88.814 88.699 88.803 88.808 88.768 88.726 88.73 88.9 88.167 86.697 85.702 84.22 84.537 80.872 80.527 80.49 81.172 81.012 81.062 80.97 80.887 80.692 80.717 80.795 81.72 83.405 83.16 84.742 86.537 89.762 89.71 88.535 87.505 87.387 87.297 87.245 87.182 87.15 87.052 86.952 86.875 86.785 86.652 86.605 86.475 86.377 86.297 86.212 86.097 86.015 85.867 85.745 85.64 85.505 85.342 85.197 85.07 84.932 84.772 84.577 84.41 84.262 84.065 83.892 83.72 83.532 83.392 83.2 83.045 82.88 82.68 82.517 82.375 82.185 82.042 81.882 81.787 81.695 81.52 81.382 81.272 81.127 80.967 80.855 80.725 80.59 80.45 80.34 80.197 80.075 79.957 79.842 79.727 79.585 79.46 79.352 79.215 79.062 78.955 78.822 78.65 78.505 78.355 78.232 78.112 77.955 77.832 77.727 77.572 77.425 77.275 77.167 77.072 76.97 76.917 76.82 76.72 76.71 76.102 75.287 75.21 75.15 75.085 75.017 74.935 74.795 74.695 74.562 74.477 74.357 74.272 74.192 74.115 74.037 73.935 73.8 73.73 73.6 73.482 73.39 73.275 73.202 73.112 72.977 72.902 72.817 72.702 72.632 72.49 72.375 72.252 72.16 72.027 71.942 71.865 71.777 71.662 71.53 71.437 71.345 71.272 71.172 71.092 71.027 70.98 70.932 70.925 70.91 70.872 70.837 70.832 70.822 70.812 70.802 70.782 70.767 70.74 70.695 70.672 70.642 70.57 70.52 70.417 70.312 70.187 70.067 69.927 69.762 69.592 69.372 69.152 68.927 68.672 68.397 68.112 67.795 67.455 67.095 66.76 66.417 66.142 65.915 65.69 65.497 65.342 65.192 65.48 66.022 65.422 64.887 64.79 64.702 64.56 64.517 64.47 64.427 64.45 64.462 64.427 64.337 64.265 64.28 64.197 64.145 64.08 64.057 64.162 64.39 64.995 65.162 63.882 62.935 61.97 61.317 60.38 61.982 63.085 62.892 61.725 59.577 59.577 60.642 62.962 64.425 64.685 64.707 64.66 64.677 64.755 64.797 64.862 64.915 64.965 65.012 65.04 65.107 65.21 65.167 65.282 64.942 64.93 64.987 65.05 65.087 65.15 65.187 65.262 65.327 65.372 65.577 65.77 65.992 66.272 66.675 67.115 67.892 67.43 67.527 67.577 67.705 67.872 67.95 68.082 68.205 68.347 68.53 69.17 69.472 69.402 69.91 70.707 71.582 73.95 76.167 77.092 77.385 75.097 74.372 74.795 75.475 76.69 77.565 76.115 73.252 73.947 74.51 75.04 75.062 75.545 76.135 76.462 77.907
86.358 86.435 86.527 86.645 86.735 86.82 86.842 86.815 86.815 86.792 86.832 86.82 86.837 86.89 86.965 87.017 87.09 87.172 87.172 87.152 87.147 87.185 87.192 87.2 87.172 87.187 87.207 87.207 87.222 87.237 87.245 87.56 87.287 87.305 87.297 87.322 87.32 87.32 87.297 87.31 87.317 90.187 93.192 88.015 86.945 86.95 86.945 86.9 86.892 86.905 87.007 87.005 86.89 86.815 86.807 86.637 86.557 86.48 86.39 86.315 86.287 86.24 86.195 86.182 86.172 86.14 86.1 86.078 86.061 86.012 85.961 85.969 85.991 85.944 85.971 85.966 85.96 85.949 86.011 86.069 86.115 86.16 86.181 86.221 86.997 86.925 86.362 86.454 86.459 86.51 90.476 95.903 91.986 91.163 86.618 86.62 86.549 86.537 86.552 89.413 87.738 92.128 87.472 86.554 86.536 87.424 93.689 96.689 87.995 89.633 87.496 87.3 87.456 87.618 87.775 87.925 87.919 87.922 87.919 88.015 88.057 88.19 88.303 88.365 88.434 88.57 88.738 89.715 90.26 88.724 88.668 88.658 88.595 88.519 89.034 88.172 86.36 84.502 83.272 81.837 80.957 80.392 80.47 81.132 81.005 81.032 80.93 80.897 80.705 80.712 80.752 81.277 82.205 83.33 84.872 86.217 89.097 88.97 88.257 87.522 87.335 87.282 87.23 87.162 87.102 86.987 86.91 86.835 86.737 86.635 86.552 86.445 86.37 86.237 86.157 86.057 85.98 85.865 85.715 85.615 85.477 85.312 85.187 85.04 84.912 84.747 84.57 84.415 84.257 84.08 83.867 83.735 83.54 83.345 83.177 83.037 82.832 82.692 82.537 82.357 82.187 82.047 81.882 81.755 81.647 81.512 81.382 81.247 81.112 80.965 80.815 80.692 80.575 80.405 80.297 80.142 80.015 79.925 79.805 79.702 79.555 79.45 79.347 79.205 79.052 78.937 78.795 78.645 78.492 78.345 78.245 78.107 77.925 77.83 77.7 77.55 77.405 77.267 77.175 77.075 76.972 76.92 76.81 76.74 76.745 75.922 75.23 75.22 75.16 75.105 75.055 74.955 74.81 74.645 74.572 74.48 74.36 74.27 74.175 74.097 74.017 73.922 73.807 73.722 73.622 73.52 73.385 73.28 73.192 73.095 73.005 72.922 72.815 72.722 72.63 72.482 72.325 72.222 72.147 72.04 71.96 71.842 71.745 71.65 71.505 71.417 71.34 71.245 71.157 71.077 71 70.942 70.902 70.887 70.87 70.84 70.825 70.832 70.825 70.805 70.78 70.785 70.79 70.752 70.717 70.697 70.652 70.59 70.512 70.455 70.367 70.227 70.1 69.97 69.795 69.642 69.447 69.235 69.022 68.77 68.49 68.252 67.965 67.627 67.245 66.91 66.602 66.267 65.967 65.75 65.557 65.372 65.2 65.07 65.242 65.405 66.26 65.097 64.737 64.65 64.562 64.437 64.402 64.402 64.402 64.387 64.362 64.295 64.295 64.215 64.152 64.107 64.055 64.035 64.075 64.185 64.635 64.81 64.545 64.01 63.432 62.945 60.252 60.67 61.045 60.417 60.015 62.085 64.722 64.612 64.625 64.585 64.545 64.62 64.697 64.745 64.79 64.862 64.877 64.907 64.955 64.962 65.14 65.147 65.175 65.105 64.74 64.81 64.86 64.952 65.02 65.087 65.18 65.197 65.275 65.365 65.432 65.61 65.777 66.035 66.267 66.53 66.885 68.27 68.487 67.695 67.767 67.892 68.017 68.145 68.305 68.41 68.497 68.622 68.865 69.145 69.745 70.225 70.632 70.805 73.24 75.25 75.215 72.292 73.697 75.712 77.225 77.677 78.755 77.867 75.842 73.307 74.07 74.925 75.04 75.082 75.322 76.087 76.252
86.198 86.332 86.467 86.615 86.725 86.777 86.81 86.807 86.8 86.79 86.782 86.797 86.832 86.852 86.91 86.915 86.977 86.982 87.01 87.047 87.057 87.107 87.11 87.135 87.12 87.117 87.137 87.162 87.155 87.142 87.145 87.157 87.17 87.192 87.227 87.215 87.185 87.152 87.182 87.152 87.105 88.55 91.125 87.057 86.762 86.74 86.74 87.307 86.667 86.78 86.775 86.707 86.557 86.532 86.495 86.43 86.335 86.222 86.175 86.082 86.002 86.025 86.047 85.972 86.01 85.997 85.98 85.952 85.945 85.942 85.907 85.902 85.943 85.927 85.917 85.95 86.015 86.049 86.06 86.083 86.086 86.232 87.175 89.824 87.479 90.742 87.651 86.4 86.462 87.067 92.989 93.436 87.785 88.565 87.306 86.493 86.462 86.48 87.491 89.875 92.709 91.445 87.206 87.397 90.64 87.186 94.89 95.541 90.437 95.051 91.289 87.337 87.645 87.604 87.806 88.113 87.829 87.813 87.808 87.993 88.096 88.111 88.191 88.3 88.348 88.568 88.563 92.921 96.394 90.108 88.537 88.497 88.422 88.384 90.021 88.932 86.056 84.51 83.927 82.116 80.917 80.446 80.536 81.129 80.992 81.032 80.917 80.882 80.687 80.66 80.732 81.337 82.117 83.425 84.98 86.135 87.255 88.17 87.735 87.56 87.335 87.292 87.222 87.137 87.072 86.945 86.885 86.802 86.72 86.612 86.522 86.397 86.315 86.217 86.137 86.037 85.945 85.815 85.707 85.57 85.445 85.285 85.14 85.032 84.902 84.73 84.565 84.382 84.242 84.065 83.84 83.697 83.517 83.355 83.195 83.025 82.825 82.677 82.5 82.33 82.162 82.022 81.877 81.765 81.625 81.477 81.36 81.232 81.075 80.922 80.775 80.682 80.552 80.385 80.275 80.135 80.022 79.912 79.8 79.677 79.572 79.427 79.33 79.2 79.057 78.967 78.797 78.63 78.49 78.35 78.222 78.092 77.945 77.85 77.682 77.527 77.392 77.25 77.157 77.07 76.972 76.93 76.8 76.79 76.782 75.77 75.245 75.24 75.167 75.072 75.057 74.93 74.785 74.667 74.565 74.47 74.365 74.242 74.177 74.115 74.022 73.927 73.817 73.687 73.625 73.505 73.397 73.285 73.197 73.115 73.015 72.91 72.797 72.73 72.59 72.455 72.352 72.232 72.1 72.01 71.91 71.815 71.72 71.625 71.482 71.392 71.307 71.212 71.125 71.05 70.97 70.912 70.897 70.842 70.84 70.797 70.805 70.81 70.807 70.785 70.79 70.797 70.767 70.752 70.712 70.715 70.677 70.597 70.49 70.467 70.38 70.265 70.145 69.982 69.847 69.697 69.55 69.312 69.115 68.875 68.617 68.36 68.075 67.75 67.435 67.1 66.732 66.432 66.12 65.845 65.622 65.42 65.26 65.12 65.015 64.942 64.882 65.742 65.317 64.707 64.61 64.522 64.43 64.327 64.352 64.365 64.312 64.3 64.292 64.24 64.165 64.13 64.072 64.06 64.052 64.072 64.125 64.2 64.287 64.385 64.47 64.27 63.425 62.597 61.742 62.81 64.407 64.51 64.497 64.482 64.482 64.477 64.565 64.647 64.672 64.702 64.8 64.82 64.822 64.86 64.907 64.992 65.01 64.967 64.4 64.502 64.53 64.63 64.677 64.815 64.937 65.027 65.092 65.197 65.22 65.34 65.387 65.487 65.66 65.77 65.982 66.18 66.422 66.675 67.682 67.672 67.907 67.972 68.052 68.162 68.327 68.447 68.565 68.715 68.85 69.012 69.34 69.725 70.055 70.387 71.005 71.88 71.817 71.662 72.26 77.982 78.567 78.61 78.3 76.882 74.36 73.617 74.022 74.692 74.985 74.902 75.125 75.412 75.582
86.165 86.28 86.405 86.545 86.605 86.64 86.662 86.655 86.675 86.682 86.697 86.76 86.76 86.775 86.782 86.805 86.817 86.85 86.865 86.882 86.917 86.975 86.985 86.997 87.012 86.992 87.005 87.015 86.995 86.995 86.977 86.995 86.995 87.025 87.04 87.022 86.942 86.902 86.852 86.797 88.202 90.355 88.732 89.67 87.775 86.557 86.547 86.482 86.557 86.562 86.465 86.57 90.815 89.177 86.27 86.267 86.152 86.02 85.955 85.94 85.87 85.877 85.892 85.892 85.852 85.862 85.852 85.857 85.827 85.85 85.83 85.877 85.927 85.955 85.97 86.012 85.997 86.048 86.028 86.016 86.04 89.278 90.285 91.154 90.187 87.728 86.356 86.337 86.491 87.406 91.022 90.399 93.124 90.595 86.389 86.425 86.499 86.475 86.433 87.86 86.541 88.89 87.89 89.83 93.49 94.472 87.55 93.779 96.181 96.334 87.137 87.704 87.675 87.591 87.709 88.11 87.735 87.713 87.75 87.891 87.939 88.36 88.207 88.233 88.271 88.445 88.367 89.438 94.888 91.824 88.442 88.369 88.308 88.225 87.263 86.203 85.31 84.206 84.877 81.739 80.603 80.566 80.549 81.073 80.954 80.995 80.907 80.903 80.663 80.655 80.755 81.305 82.107 83.37 84.887 86.275 89.465 90.677 88.272 87.51 87.31 87.285 87.19 87.09 86.992 86.88 86.835 86.757 86.67 86.542 86.45 86.36 86.28 86.125 86.075 86.012 85.91 85.772 85.66 85.53 85.425 85.245 85.102 85 84.867 84.702 84.54 84.375 84.222 84.06 83.86 83.692 83.5 83.332 83.175 83.002 82.82 82.63 82.5 82.337 82.17 81.995 81.847 81.737 81.592 81.472 81.34 81.22 81.077 80.927 80.785 80.657 80.517 80.355 80.22 80.092 79.995 79.907 79.792 79.687 79.59 79.455 79.337 79.187 79.07 78.95 78.775 78.625 78.482 78.34 78.232 78.065 77.95 77.852 77.67 77.492 77.38 77.245 77.162 77.09 77.02 76.917 76.802 76.775 76.722 75.662 75.3 75.235 75.162 75.1 75.065 74.932 74.795 74.652 74.575 74.447 74.312 74.23 74.172 74.117 74.022 73.9 73.802 73.692 73.602 73.497 73.397 73.305 73.212 73.11 72.987 72.897 72.82 72.727 72.58 72.442 72.357 72.235 72.082 72.01 71.907 71.79 71.705 71.585 71.465 71.372 71.285 71.187 71.08 71.007 70.9 70.872 70.857 70.835 70.792 70.78 70.802 70.787 70.775 70.745 70.785 70.777 70.742 70.742 70.712 70.682 70.667 70.625 70.517 70.482 70.37 70.26 70.13 70.017 69.88 69.717 69.58 69.415 69.23 68.995 68.75 68.47 68.19 67.882 67.552 67.205 66.9 66.512 66.227 65.995 65.725 65.492 65.33 65.195 65.042 64.902 64.86 64.895 65.512 65.19 64.887 64.572 64.502 64.462 64.367 64.302 64.27 64.27 64.287 64.295 64.232 64.19 64.125 64.122 64.077 64.107 64.065 64.11 64.192 64.27 64.31 64.33 64.342 64.397 64.422 64.417 64.4 64.39 64.35 64.425 64.535 64.537 64.595 64.635 64.72 64.79 64.797 64.792 64.812 64.81 64.922 64.995 65.15 63.577 63.882 64.29 64.427 64.382 64.547 64.655 64.807 64.952 65.01 65.095 65.182 65.242 65.385 65.435 65.57 65.732 65.805 65.977 66.145 66.36 66.577 67.057 68.237 68.595 68.135 68.195 68.32 68.47 68.625 68.74 68.895 69.027 69.165 69.505 69.695 70.1 70.492 71.025 71.07 71.667 73.375 77.347 78.32 78.842 78.285 77.567 75.96 73.312 74.337 75.562 74.67 74.845 75.082 75.47 75.742
86.135 86.23 86.307 86.45 86.445 86.44 86.445 86.462 86.472 86.5 86.53 86.592 86.597 86.61 86.632 86.687 86.735 86.752 86.715 86.717 86.73 86.805 86.815 86.805 86.81 86.797 86.837 86.842 86.825 86.81 86.775 86.777 86.757 86.765 86.812 86.78 86.735 86.682 86.625 86.555 91.492 93.935 93.57 90.427 90.075 86.502 86.402 86.422 86.387 86.287 86.202 87.905 90.147 89.217 86.06 85.98 85.965 85.9 85.87 86.552 86.077 85.927 85.712 85.71 85.725 85.747 85.747 85.76 85.767 85.777 85.8 85.89 85.967 86.047 86.007 86.045 86.015 85.997 85.985 86.282 86.092 89.2 88.792 88.198 90.64 87.954 86.414 86.292 86.297 86.328 87.806 91.1 91.674 87.155 86.375 86.446 86.53 86.434 86.402 86.399 89.67 90.702 88.597 87.911 89.342 93.246 89.784 92.565 90.568 87.717 87.13 87.37 87.458 87.611 87.682 87.761 87.701 87.602 87.649 87.695 87.884 88.129 88.36 88.223 88.213 88.288 88.19 88.511 88.245 88.923 88.382 89.404 88.584 87.314 86.157 88.353 84.359 83.363 83.918 81.462 80.652 80.633 80.608 81.056 80.943 81 80.882 80.889 80.656 80.641 80.745 81.446 82.166 83.527 84.915 86.272 89.507 90.51 87.795 87.427 87.295 87.277 87.12 87.032 86.925 86.847 86.775 86.68 86.622 86.482 86.407 86.305 86.195 86.1 86.03 85.93 85.817 85.735 85.612 85.52 85.405 85.212 85.097 84.992 84.845 84.675 84.497 84.367 84.212 84.02 83.857 83.7 83.502 83.32 83.145 82.95 82.785 82.617 82.485 82.322 82.157 82.01 81.862 81.742 81.602 81.475 81.342 81.21 81.057 80.91 80.757 80.647 80.517 80.355 80.245 80.105 80.012 79.92 79.805 79.685 79.575 79.467 79.345 79.215 79.095 78.97 78.795 78.652 78.482 78.352 78.207 78.062 77.97 77.85 77.655 77.512 77.385 77.262 77.177 77.095 76.997 76.92 76.822 76.807 76.64 75.53 75.285 75.252 75.162 75.09 75.022 74.907 74.787 74.67 74.555 74.422 74.3 74.26 74.182 74.11 73.99 73.905 73.805 73.69 73.582 73.462 73.395 73.302 73.212 73.115 73.017 72.915 72.817 72.71 72.58 72.45 72.352 72.242 72.125 71.995 71.892 71.782 71.67 71.547 71.46 71.36 71.255 71.157 71.06 70.987 70.942 70.857 70.825 70.807 70.767 70.762 70.765 70.775 70.77 70.76 70.767 70.737 70.725 70.682 70.675 70.692 70.627 70.587 70.542 70.455 70.367 70.242 70.112 70.022 69.907 69.727 69.59 69.465 69.282 69.075 68.812 68.557 68.275 68.012 67.69 67.37 67.03 66.705 66.365 66.057 65.83 65.625 65.377 65.215 65.13 65.002 64.885 64.792 64.742 65 65.155 64.932 64.545 64.53 64.472 64.352 64.322 64.277 64.26 64.257 64.272 64.215 64.167 64.167 64.12 64.135 64.105 64.117 64.137 64.122 64.177 64.21 64.27 64.297 64.307 64.31 64.29 64.327 64.4 64.412 64.48 64.53 64.607 64.7 64.807 64.78 64.725 64.737 64.755 64.817 64.92 64.832 62.492 62.69 64.052 63.862 64.19 64.182 64.345 64.53 64.652 64.812 64.947 64.997 65.1 65.157 65.247 65.392 65.46 65.632 65.755 65.842 66.015 66.17 66.357 66.522 66.812 67.657 68.882 68.257 68.305 68.482 68.642 68.747 68.9 69.045 69.177 69.357 69.567 69.855 70.49 70.867 70.607 72.23 72.922 74.615 76.625 77.682 78.567 78.67 76.445 73.595 75.107 74.962 74.73 74.37 74.78 75.33 75.972
86.04 86.14 86.21 86.282 86.29 86.285 86.275 86.307 86.327 86.352 86.375 86.415 86.445 86.475 86.54 86.55 86.612 86.627 86.597 86.562 86.582 86.615 86.64 86.647 86.665 86.607 86.607 86.62 86.582 86.55 86.505 86.505 86.472 86.485 86.54 86.515 86.522 86.49 86.452 86.427 87.845 88.502 86.69 89.285 88.985 86.442 86.252 86.192 86.205 86.065 86.03 85.99 87.167 85.902 85.9 85.807 85.787 85.79 88.205 91.66 89.885 86.252 85.597 85.56 85.575 85.662 85.66 85.697 85.762 85.802 85.855 85.947 85.947 86.012 85.97 85.927 85.982 87.01 90.112 90.577 86.207 86.327 89.182 92.102 89.475 86.32 86.216 86.766 88.026 87.829 86.321 88.334 89.391 86.393 86.362 86.439 86.459 88.49 89.155 86.499 87.555 88.882 87.212 92.653 90.501 90.929 87.723 93.59 91.577 88.95 87.158 88.543 88.16 87.874 87.606 87.812 87.565 87.518 87.927 87.682 87.872 88.041 88.068 88.097 88.038 87.994 88.01 88.343 87.995 88.072 88.883 90.104 87.826 86.256 85.015 84.217 83.043 82.269 81.574 81.379 80.911 80.678 80.737 81.027 80.893 81.012 80.868 80.783 80.666 80.641 80.79 82.598 82.999 83.754 84.925 86.174 87.475 88.214 87.63 87.35 87.297 87.222 87.072 86.982 86.87 86.757 86.697 86.622 86.552 86.422 86.305 86.212 86.152 86.06 85.962 85.9 85.767 85.687 85.57 85.46 85.327 85.172 85.06 84.947 84.825 84.672 84.527 84.35 84.222 84.007 83.875 83.69 83.5 83.33 83.162 82.985 82.82 82.675 82.482 82.315 82.172 81.995 81.867 81.752 81.6 81.482 81.342 81.195 81.03 80.905 80.757 80.607 80.495 80.357 80.237 80.127 80.015 79.905 79.822 79.705 79.545 79.455 79.342 79.215 79.072 78.957 78.802 78.64 78.497 78.392 78.227 78.06 77.957 77.847 77.677 77.512 77.385 77.265 77.182 77.095 76.997 76.905 76.815 76.832 76.48 75.345 75.285 75.217 75.137 75.105 75.047 74.892 74.79 74.67 74.575 74.427 74.307 74.227 74.192 74.092 73.98 73.885 73.787 73.692 73.592 73.462 73.367 73.282 73.217 73.1 72.997 72.92 72.82 72.715 72.59 72.47 72.332 72.207 72.107 71.972 71.87 71.762 71.652 71.545 71.442 71.352 71.27 71.135 71.005 70.937 70.885 70.84 70.812 70.745 70.765 70.75 70.737 70.74 70.725 70.72 70.742 70.745 70.722 70.69 70.682 70.67 70.625 70.542 70.507 70.455 70.327 70.24 70.115 69.987 69.892 69.752 69.625 69.49 69.32 69.087 68.865 68.652 68.402 68.137 67.832 67.505 67.152 66.867 66.542 66.247 65.95 65.732 65.542 65.312 65.165 65.057 64.937 64.855 64.755 64.76 64.712 65.137 64.997 64.602 64.472 64.39 64.357 64.362 64.25 64.21 64.235 64.205 64.222 64.202 64.17 64.142 64.167 64.162 64.165 64.182 64.21 64.217 64.242 64.245 64.282 64.295 64.34 64.36 64.42 64.452 64.485 64.552 64.682 64.74 64.722 64.657 64.635 64.662 64.732 64.927 64.942 61.7 60.63 61.61 62.827 63.155 63.575 64.062 64.18 64.357 64.507 64.64 64.807 64.907 64.955 65.065 65.102 65.272 65.38 65.46 65.68 65.782 65.872 66.022 66.16 66.3 66.432 66.64 67.585 68.245 68.15 68.377 68.632 68.8 68.927 69.092 69.237 69.385 69.53 69.702 70.122 70.14 70.46 71.275 72.412 72.632 75.19 75.74 77.85 77.742 73.72 74.475 74.31 77.375 76.602 74.632 74.632 75.32 75.827
85.958 86.012 86.13 86.145 86.15 86.167 86.197 86.197 86.227 86.217 86.272 86.312 86.355 86.317 86.357 86.37 86.435 86.455 86.427 86.375 86.342 86.362 86.42 86.44 86.445 86.395 86.405 86.375 86.355 86.32 86.29 86.245 86.22 86.305 86.327 86.332 86.305 86.282 86.292 86.275 86.207 86.182 86.17 86.585 86.065 86.027 86.025 85.962 85.912 85.852 85.832 85.947 88.605 87.032 85.705 85.632 85.597 88.372 93.725 94.34 92.417 90.027 88.715 85.777 85.535 85.55 85.605 85.66 85.78 85.837 85.872 85.93 85.97 86 86.087 86.072 90.565 94.33 89.1 87.687 87.425 91.485 91.845 92.902 91.547 86.857 86.185 86.802 88.382 87.745 86.312 91.469 93.551 88.843 86.335 86.28 88.68 93.63 92.196 89.204 86.411 86.393 86.645 89.42 89.751 93.36 89.005 95.542 96.256 92.724 88.227 94.119 95.342 88.496 87.797 87.551 87.487 87.452 87.483 87.558 87.748 87.876 88.277 87.951 87.985 87.797 87.807 87.866 87.86 87.913 88.26 89.864 88.861 86.223 84.107 83.081 82.014 81.411 81.075 80.795 80.796 80.78 80.739 80.885 80.891 80.954 80.83 80.796 80.646 80.645 80.767 81.774 83.328 83.979 84.993 86.217 88.138 87.878 87.607 87.351 87.291 87.145 87.007 86.94 86.785 86.697 86.642 86.555 86.482 86.387 86.25 86.152 86.055 85.997 85.905 85.845 85.727 85.597 85.535 85.415 85.267 85.14 85.035 84.91 84.8 84.645 84.492 84.35 84.202 84.032 83.872 83.71 83.505 83.357 83.167 83.022 82.817 82.65 82.49 82.292 82.17 82.012 81.872 81.76 81.6 81.475 81.312 81.182 81.025 80.887 80.747 80.64 80.477 80.352 80.225 80.14 80.012 79.917 79.797 79.677 79.597 79.482 79.36 79.217 79.082 78.96 78.777 78.645 78.505 78.367 78.22 78.06 77.96 77.835 77.677 77.525 77.37 77.28 77.187 77.087 77.012 76.902 76.82 76.84 76.27 75.297 75.27 75.217 75.11 75.08 75.017 74.885 74.74 74.627 74.545 74.422 74.327 74.252 74.167 74.067 73.94 73.87 73.767 73.637 73.547 73.432 73.377 73.27 73.2 73.087 73 72.905 72.777 72.67 72.567 72.47 72.34 72.23 72.112 71.975 71.86 71.772 71.657 71.525 71.402 71.337 71.242 71.102 71.005 70.947 70.887 70.82 70.795 70.757 70.735 70.722 70.73 70.71 70.705 70.72 70.722 70.705 70.697 70.675 70.667 70.625 70.615 70.522 70.497 70.397 70.317 70.23 70.112 70 69.892 69.745 69.627 69.5 69.322 69.147 68.955 68.755 68.507 68.227 67.967 67.662 67.33 66.997 66.687 66.357 66.075 65.812 65.597 65.45 65.255 65.115 64.997 64.915 64.825 64.72 64.692 64.645 64.772 64.832 64.532 64.42 64.365 64.327 64.32 64.21 64.197 64.222 64.212 64.215 64.225 64.227 64.24 64.227 64.207 64.207 64.217 64.21 64.222 64.265 64.3 64.312 64.37 64.417 64.45 64.49 64.517 64.59 64.687 64.62 64.58 64.57 64.587 64.622 64.825 64.81 62.102 59.517 60.047 60.165 61.14 63.017 63.182 63.725 64.125 64.17 64.337 64.47 64.605 64.77 64.822 64.915 65.032 65.085 65.292 65.39 65.472 65.662 65.732 65.87 66 66.14 66.277 66.42 66.63 67.232 67.915 68.177 68.79 68.92 69.057 69.147 69.25 69.495 69.615 69.74 69.897 70.082 70.425 70.79 71.132 71.68 72.575 73.492 75.477 74.052 74.915 74.875 76.71 81.202 79.535 76.682 74.805 74.735 75.84
85.965 85.965 86.05 86.032 86.067 86.075 86.097 86.097 86.125 86.122 86.157 86.192 86.187 86.145 86.182 86.19 86.217 86.295 86.237 86.185 86.165 86.162 86.187 86.21 86.217 86.212 86.207 86.2 86.155 86.132 86.055 86.037 85.995 86.05 86.052 86.02 86.057 86.002 86.045 86.052 86.017 86.007 85.965 85.935 85.855 85.832 85.782 85.747 85.725 85.707 85.64 87.945 93.78 91.652 87.467 85.5 85.425 90.025 90.135 88.17 85.892 90.89 90.122 85.45 85.532 85.577 85.602 85.677 85.702 85.812 85.852 85.927 85.935 86.032 87.407 90.905 92.502 91.925 89.607 86.622 88.872 88.202 93.63 92.762 87.882 86.195 86.16 86.46 92.212 91.272 86.152 87.81 87.405 86.365 86.755 86.338 88.651 91.436 90.312 86.453 86.407 86.393 86.445 86.542 88.721 92.796 89.239 93.963 87.696 86.943 88.666 94.787 90.885 88.268 88.317 87.475 88.398 88.129 87.558 87.759 87.853 87.777 87.929 87.875 87.86 87.61 87.684 87.681 87.779 87.833 87.632 87.633 86.625 84.739 84.294 82.264 81.245 80.737 80.622 80.962 80.902 80.647 80.656 80.971 80.908 80.963 80.84 80.784 80.599 80.567 80.696 81.508 82.221 84.648 85.321 86.138 87.412 87.801 87.666 87.3 87.273 87.12 86.947 86.859 86.736 86.627 86.566 86.482 86.372 86.285 86.192 86.077 86 85.925 85.842 85.785 85.672 85.55 85.462 85.35 85.225 85.107 85.005 84.882 84.765 84.647 84.47 84.327 84.195 84.037 83.882 83.71 83.517 83.352 83.18 83.032 82.827 82.647 82.51 82.297 82.155 82.025 81.87 81.747 81.587 81.487 81.33 81.17 81.02 80.882 80.762 80.627 80.482 80.352 80.245 80.14 79.987 79.91 79.795 79.702 79.62 79.497 79.347 79.22 79.095 78.96 78.812 78.64 78.497 78.38 78.232 78.077 77.977 77.83 77.675 77.532 77.362 77.26 77.172 77.11 77.027 76.922 76.84 76.877 76.057 75.32 75.252 75.217 75.142 75.062 74.972 74.82 74.69 74.585 74.512 74.412 74.295 74.212 74.14 74.047 73.91 73.822 73.732 73.64 73.525 73.41 73.357 73.255 73.152 73.067 72.977 72.87 72.797 72.702 72.6 72.47 72.335 72.225 72.102 72.002 71.857 71.755 71.642 71.497 71.4 71.35 71.212 71.087 71.017 70.927 70.867 70.817 70.782 70.757 70.725 70.705 70.697 70.7 70.697 70.705 70.685 70.675 70.662 70.622 70.61 70.575 70.55 70.505 70.457 70.392 70.27 70.192 70.077 70 69.887 69.752 69.62 69.467 69.355 69.16 68.995 68.8 68.595 68.337 68.072 67.81 67.49 67.145 66.85 66.505 66.197 65.937 65.72 65.515 65.362 65.227 65.075 64.967 64.86 64.807 64.722 64.677 64.662 64.625 64.62 64.862 64.372 64.347 64.29 64.255 64.262 64.225 64.25 64.245 64.245 64.27 64.342 64.24 64.202 64.217 64.192 64.23 64.195 64.237 64.277 64.32 64.347 64.435 64.475 64.582 64.577 64.547 64.597 64.587 64.57 64.557 64.572 64.68 64.725 64.112 59.545 59.832 61.427 60.517 60.1 61.92 62.7 63.272 63.91 64.055 64.117 64.315 64.427 64.567 64.695 64.762 64.89 64.987 65.09 65.247 65.325 65.44 65.575 65.672 65.842 65.96 66.102 66.277 66.482 66.922 67.595 67.86 68.482 69.035 70.047 69.232 69.707 69.517 69.625 69.787 69.927 70.105 70.312 70.587 70.867 71.147 71.852 72.542 72.742 73.322 75.722 77.99 82.362 82.53 81.602 80.5 76.92 75.085 74.725
85.948 85.917 85.925 85.94 85.92 85.947 85.982 86.017 86.03 86.055 86.077 86.095 86.07 86.045 86.05 86.075 86.087 86.085 86.055 86.015 85.977 85.98 86.012 85.992 86.04 86.037 86.115 86.04 85.967 85.942 85.907 85.862 85.812 85.862 85.867 85.895 85.897 85.832 85.91 85.932 85.935 85.895 85.77 85.727 85.755 85.715 85.645 85.615 85.565 85.532 87.237 93.797 94.755 92.402 88.332 85.355 86.772 90.35 85.817 85.212 85.242 86.88 85.432 85.485 85.537 85.577 85.607 85.612 85.682 85.785 85.827 85.902 85.995 88.13 90.657 93.342 90.63 91.077 93.707 93.865 87.71 93.657 91.925 88.6 86.187 86.122 86.305 93.305 89.16 86.072 86.267 86.227 86.147 86.175 86.27 86.247 87.372 91.58 87.807 86.37 86.482 86.416 86.477 86.597 87.259 87.926 90.774 94.461 91.08 86.932 92.01 91.514 88.342 87.646 88.057 87.597 88.014 87.424 87.813 88.712 91.677 88.742 87.776 87.622 87.472 87.46 87.518 87.538 87.698 87.791 87.321 86.312 84.907 83.374 83.007 81.432 80.859 80.508 80.498 80.78 80.693 80.556 80.512 80.933 80.856 80.911 80.837 80.748 80.551 80.539 80.906 81.963 82.416 83.997 85.128 86.252 88.115 87.784 87.621 87.244 87.176 87.01 86.913 86.78 86.674 86.565 86.484 86.396 86.295 86.173 86.091 86.011 85.907 85.847 85.787 85.71 85.582 85.482 85.42 85.302 85.182 85.052 84.97 84.825 84.727 84.622 84.462 84.332 84.2 84.03 83.872 83.717 83.537 83.372 83.202 82.982 82.83 82.682 82.512 82.32 82.19 82.047 81.895 81.747 81.607 81.482 81.335 81.18 81.005 80.86 80.742 80.612 80.462 80.372 80.217 80.112 79.992 79.9 79.785 79.69 79.622 79.475 79.35 79.235 79.115 78.967 78.797 78.655 78.525 78.37 78.23 78.085 77.982 77.815 77.655 77.507 77.367 77.272 77.177 77.127 77.057 76.917 76.832 76.847 75.892 75.282 75.245 75.207 75.132 75.067 74.922 74.77 74.647 74.575 74.48 74.375 74.287 74.19 74.117 74.052 73.917 73.832 73.73 73.622 73.5 73.395 73.32 73.24 73.137 73.057 72.922 72.865 72.807 72.682 72.567 72.432 72.317 72.217 72.09 71.982 71.867 71.747 71.59 71.512 71.43 71.352 71.207 71.06 71.015 70.932 70.885 70.835 70.777 70.747 70.68 70.687 70.66 70.677 70.672 70.65 70.64 70.612 70.615 70.58 70.595 70.545 70.505 70.46 70.405 70.347 70.237 70.155 70.062 69.96 69.855 69.722 69.617 69.492 69.335 69.175 69.012 68.835 68.645 68.435 68.16 67.937 67.642 67.34 67.002 66.675 66.372 66.105 65.877 65.632 65.49 65.297 65.155 65.025 64.945 64.877 64.797 64.71 64.655 64.682 64.562 64.8 64.59 64.332 64.282 64.245 64.262 64.2 64.175 64.207 64.227 64.237 64.242 64.177 64.162 64.14 64.132 64.165 64.17 64.215 64.242 64.282 64.315 64.377 64.407 64.542 64.572 64.507 64.54 64.505 64.51 64.507 64.652 64.692 64.667 61.932 60.037 62.17 60.257 59.62 59.595 60.41 61.702 62.837 63.41 63.88 63.88 64.097 64.28 64.377 64.532 64.637 64.742 64.895 64.96 65.06 65.182 65.197 65.365 65.495 65.62 65.782 65.95 66.142 66.385 66.702 67.33 67.622 68.057 69.682 68.825 71.86 70 69.605 69.677 69.797 69.982 70.137 70.305 70.49 70.727 70.987 71.292 71.672 73.08 73.795 76.465 78.847 80.92 81.965 82.937 82.267 80.845 78.857 74.837
85.91 85.872 85.842 85.84 85.852 85.87 85.9 85.952 85.947 85.982 85.975 85.975 85.927 85.902 85.925 85.947 85.977 85.947 85.905 85.877 85.88 85.842 85.88 85.877 85.89 85.937 85.97 85.98 85.872 85.775 85.747 85.73 85.74 85.777 85.757 85.745 85.732 85.66 85.79 85.782 85.775 85.782 85.807 85.695 85.647 85.677 85.602 85.595 85.5 85.462 88.402 95.647 91.895 85.59 85.642 85.497 90.065 89.62 85.855 85.345 85.595 86.37 88.327 86.19 85.435 85.535 85.572 85.607 85.857 85.665 85.757 85.84 85.865 87.45 89.93 88.037 89.415 88.762 89.375 88.057 90.257 90.227 87.012 86.225 86.132 86.122 86.06 86.667 87.095 86.03 86.105 86.15 86.2 86.192 86.242 86.245 89.902 94.235 89.01 86.327 86.407 87.447 87.725 89.227 86.769 92.165 93.52 90.125 86.869 86.992 90.97 93.521 89.871 87.304 87.567 87.457 87.472 88.433 87.829 89.967 95.332 92.65 87.759 87.435 87.291 87.315 87.354 87.346 87.531 87.637 87.018 86.279 84.816 83.198 81.424 80.918 80.748 80.981 80.609 80.825 80.655 80.545 80.467 80.948 80.865 80.928 80.8 80.72 80.548 80.521 80.865 81.573 82.375 83.931 85.173 86.282 87.188 87.904 87.496 87.209 87.1 86.963 86.845 86.721 86.607 86.458 86.398 86.331 86.226 86.111 86.031 85.936 85.873 85.773 85.708 85.626 85.51 85.409 85.34 85.237 85.115 85.005 84.94 84.81 84.712 84.612 84.447 84.305 84.185 84.035 83.892 83.72 83.56 83.38 83.215 83.06 82.865 82.68 82.51 82.365 82.202 82.057 81.902 81.747 81.625 81.502 81.347 81.167 81 80.865 80.745 80.605 80.47 80.37 80.212 80.13 80.032 79.917 79.797 79.717 79.595 79.5 79.352 79.255 79.135 78.972 78.822 78.662 78.54 78.38 78.235 78.087 77.98 77.817 77.672 77.502 77.372 77.282 77.21 77.15 77.052 76.915 76.847 76.772 75.695 75.3 75.247 75.182 75.117 75.065 74.917 74.785 74.672 74.547 74.455 74.36 74.265 74.18 74.105 74.02 73.907 73.775 73.675 73.572 73.467 73.36 73.285 73.21 73.097 73.01 72.892 72.857 72.772 72.672 72.56 72.422 72.307 72.192 72.077 71.995 71.872 71.78 71.617 71.527 71.44 71.322 71.215 71.117 71.027 70.94 70.907 70.84 70.792 70.727 70.682 70.677 70.615 70.645 70.625 70.607 70.605 70.582 70.59 70.535 70.527 70.492 70.48 70.42 70.382 70.295 70.202 70.102 70.002 69.937 69.827 69.72 69.617 69.495 69.362 69.187 69.03 68.837 68.697 68.495 68.262 68.045 67.762 67.48 67.17 66.86 66.572 66.267 65.98 65.745 65.537 65.37 65.22 65.12 65.037 64.942 64.832 64.762 64.685 64.635 64.617 64.84 65.04 64.357 64.272 64.24 64.187 64.182 64.14 64.142 64.21 64.212 64.195 64.172 64.145 64.105 64.067 64.112 64.235 64.22 64.237 64.245 64.272 64.34 64.387 64.445 64.47 64.472 64.457 64.475 64.485 64.52 64.562 64.68 62.542 67.022 67.827 71.965 62.145 61.082 59.51 59.575 60.532 64.83 62.905 63.457 63.847 63.907 64.137 64.25 64.367 64.497 64.61 64.692 64.825 64.865 64.972 65.045 65.097 65.305 65.382 65.552 65.742 65.942 66.17 66.46 67.005 67.365 67.525 68.485 68.845 73.085 69.827 69.812 69.81 69.93 70.065 70.2 70.397 70.55 70.692 70.882 71.145 71.49 72.987 73.727 74.275 75.927 76.755 79.797 81.817 82.537 81.912 80.642 77.15
85.823 85.842 85.792 85.8 85.832 85.835 85.827 85.81 85.832 85.84 85.837 85.8 85.792 85.762 85.78 85.842 85.83 85.792 85.802 85.815 85.817 85.797 85.787 85.802 85.772 85.852 85.83 85.817 85.75 85.645 85.632 85.637 85.63 85.587 85.64 85.612 85.615 85.6 85.725 85.662 85.662 85.692 85.695 85.657 85.55 85.592 85.535 85.48 85.382 85.332 86.712 90.402 86.14 85.242 85.307 85.302 85.305 86.95 85.315 87.077 88.49 90.152 86.112 85.162 85.155 85.31 85.325 85.915 86.46 85.685 85.727 85.757 85.8 85.92 87.76 87.39 90.545 88.247 86.017 89.362 94.41 90.987 86.395 86.17 86.077 86.075 86.097 86.065 86.077 86.057 86.11 86.232 86.255 86.29 86.57 87.715 87.655 93.232 89.062 86.335 86.377 87.935 93.675 90.837 87.995 96.312 94.635 94.32 86.827 87.027 88.241 87.604 87.205 87.202 87.463 87.525 87.378 87.517 87.957 88.958 94.763 94.041 88.947 87.586 87.162 87.141 87.202 87.204 87.309 87.374 86.871 86.018 85.071 81.879 81.392 80.646 80.739 80.61 80.687 80.614 80.699 80.59 80.446 80.959 80.815 80.904 80.791 80.692 80.604 80.502 80.758 81.573 82.997 84.058 85.128 86.133 87.246 87.856 87.456 87.156 87.029 86.903 86.78 86.672 86.543 86.423 86.332 86.252 86.165 86.037 85.945 85.863 85.786 85.685 85.624 85.535 85.396 85.346 85.265 85.184 85.061 84.974 84.897 84.762 84.685 84.58 84.445 84.292 84.17 84.025 83.9 83.73 83.547 83.37 83.197 83.06 82.89 82.695 82.52 82.377 82.217 82.095 81.922 81.8 81.655 81.51 81.33 81.185 81.042 80.872 80.752 80.607 80.47 80.357 80.215 80.12 80.032 79.905 79.8 79.727 79.622 79.445 79.332 79.252 79.147 78.98 78.847 78.665 78.55 78.395 78.24 78.115 77.982 77.817 77.667 77.525 77.375 77.28 77.217 77.16 77.057 76.942 76.9 76.665 75.54 75.29 75.227 75.197 75.117 75.052 74.887 74.772 74.67 74.557 74.44 74.345 74.235 74.162 74.047 73.955 73.875 73.75 73.63 73.567 73.44 73.37 73.25 73.16 73.06 72.97 72.905 72.85 72.75 72.652 72.52 72.407 72.307 72.205 72.075 71.985 71.877 71.745 71.637 71.535 71.407 71.312 71.227 71.122 71.027 70.962 70.89 70.82 70.787 70.74 70.692 70.662 70.625 70.612 70.585 70.572 70.557 70.535 70.492 70.487 70.477 70.445 70.425 70.377 70.325 70.25 70.142 70.042 69.997 69.892 69.78 69.692 69.592 69.482 69.36 69.212 69.022 68.905 68.76 68.562 68.365 68.125 67.895 67.602 67.295 67.015 66.73 66.44 66.125 65.865 65.625 65.46 65.315 65.152 65.082 64.992 64.907 64.837 64.74 64.662 64.62 64.602 65.255 64.932 64.307 64.287 64.182 64.165 64.195 64.155 64.12 64.162 64.182 64.165 64.127 64.067 64.092 64.26 64.425 64.427 64.345 64.227 64.217 64.302 64.342 64.365 64.412 64.417 64.445 64.437 64.43 64.46 64.41 65.192 63.135 62.755 63.54 66.52 69.195 62.607 59.47 59.502 59.75 60.945 62.297 63.455 63.595 63.902 63.98 64.15 64.247 64.352 64.497 64.567 64.68 64.767 64.765 64.867 64.932 65.037 65.215 65.332 65.515 65.69 65.965 66.272 66.782 67.097 67.222 68.815 70.6 70.127 68.405 69.095 69.802 70.395 70.167 70.267 70.43 70.595 70.78 70.947 71.095 71.325 71.685 72.71 74.147 74.1 74.447 74.962 79.38 81.25 81.077 77.667 75.67
85.678 85.722 85.777 85.772 85.76 85.78 85.76 85.72 85.672 85.637 85.632 85.637 85.657 85.652 85.66 85.677 85.712 85.685 85.697 85.702 85.675 85.677 85.715 85.717 85.677 85.695 85.66 85.625 85.597 85.567 85.535 85.55 85.625 85.557 85.545 85.56 85.585 85.537 85.562 85.535 85.56 85.582 85.512 85.48 85.422 85.382 85.365 85.28 85.267 85.26 85.237 85.232 85.255 85.262 85.29 85.28 85.225 85.112 86.172 89.91 93.197 92.775 88.022 84.942 84.917 84.947 84.952 85.22 85.612 86.017 86.045 85.692 85.735 85.792 85.842 90.507 89.14 87.892 88.262 87.112 90.137 88.637 89.102 87.002 86.007 86.027 87.357 86.282 86.092 86.117 86.172 86.277 86.292 86.485 91.345 87.115 86.502 89.515 92.395 87.982 86.397 90.227 95.667 90.725 90.092 91.495 89.402 87.282 86.88 87.04 87.007 87.037 87.11 87.095 87.117 87.196 87.358 87.327 87.382 87.334 91.06 94.628 92.338 87.425 87.154 87.051 87.07 87.094 87.117 87.092 86.835 85.689 83.528 81.479 81.038 80.588 81.021 80.533 80.634 80.733 80.844 80.622 80.464 80.965 80.796 80.861 80.785 80.643 80.504 80.481 80.729 81.506 82.489 83.918 85.173 86.206 88.119 88.267 87.407 87.148 86.983 86.861 86.725 86.606 86.468 86.367 86.281 86.171 86.065 85.974 85.874 85.777 85.694 85.601 85.545 85.443 85.365 85.275 85.189 85.128 84.995 84.929 84.858 84.737 84.633 84.52 84.378 84.274 84.15 84.025 83.9 83.727 83.577 83.397 83.197 83.057 82.897 82.715 82.547 82.397 82.232 82.092 81.952 81.795 81.627 81.522 81.337 81.172 81.05 80.9 80.73 80.612 80.485 80.335 80.232 80.14 80.032 79.935 79.8 79.732 79.6 79.472 79.355 79.25 79.152 78.975 78.83 78.662 78.527 78.382 78.257 78.137 78.005 77.822 77.66 77.54 77.415 77.302 77.19 77.185 77.062 76.96 76.872 76.605 75.45 75.32 75.255 75.182 75.105 75.032 74.867 74.737 74.63 74.53 74.397 74.29 74.207 74.112 74.06 73.955 73.812 73.72 73.602 73.535 73.412 73.322 73.212 73.117 73.075 72.98 72.882 72.787 72.732 72.61 72.502 72.39 72.297 72.202 72.082 71.977 71.872 71.78 71.635 71.535 71.42 71.347 71.225 71.13 71.052 70.985 70.927 70.83 70.762 70.737 70.722 70.667 70.627 70.587 70.56 70.52 70.492 70.487 70.467 70.437 70.43 70.402 70.4 70.332 70.257 70.177 70.087 70.01 69.93 69.852 69.727 69.675 69.582 69.45 69.322 69.182 69.072 68.937 68.787 68.615 68.427 68.232 67.97 67.695 67.427 67.145 66.875 66.597 66.272 66.015 65.755 65.547 65.38 65.252 65.135 65.015 64.932 64.887 64.815 64.735 64.642 64.595 64.677 65.262 64.577 64.297 64.217 64.165 64.23 64.225 64.127 64.13 64.162 64.13 64.047 64.057 64.175 64.505 64.637 64.63 64.48 64.257 64.225 64.272 64.315 64.375 64.362 64.365 64.392 64.377 64.415 64.347 64.775 63.595 64.217 67.18 62.517 59.932 60.872 60.85 59.435 59.44 59.475 59.785 61.207 63.447 63.685 63.71 63.857 64.017 64.137 64.215 64.35 64.455 64.53 64.64 64.662 64.672 64.787 64.832 65.02 65.152 65.277 65.477 65.727 66.022 66.382 66.845 66.947 67.19 67.45 67.702 67.962 68.405 68.89 70.457 70.285 70.407 70.545 70.692 70.877 71.02 71.19 71.312 71.7 72.24 72.47 73.657 74.24 74.087 74.042 76.577 78.837 75.72 81.412
85.665 85.642 85.672 85.652 85.662 85.675 85.667 85.652 85.647 85.645 85.615 85.592 85.552 85.522 85.505 85.5 85.52 85.535 85.542 85.55 85.552 85.532 85.565 85.582 85.572 85.537 85.505 85.495 85.432 85.425 85.42 85.445 85.485 85.447 85.435 85.447 85.402 85.425 85.417 85.365 85.422 85.377 85.357 85.3 85.325 85.3 85.23 85.242 85.245 85.182 85.185 85.142 85.157 85.2 85.187 85.1 85.04 84.885 88.3 94.975 92.767 94.082 87.9 84.705 84.837 84.955 84.905 85.02 85.337 85.532 86.425 85.662 85.737 85.757 85.89 88.782 91.002 88.275 86.722 86.502 86.015 87.815 89.07 86.035 85.98 87 91.15 89.29 86.465 86.182 86.237 86.227 86.252 89.357 94.292 93.505 87.135 90.16 91.825 86.617 87.137 87.71 90.172 91.265 93.51 95.52 90.89 87.597 86.857 86.925 86.955 86.947 86.985 86.965 87.02 86.957 87.147 87.24 88.01 87.159 87.638 89.036 88.288 86.992 86.976 86.905 87.038 86.964 86.921 86.873 86.174 85.097 82.855 81.912 80.883 80.647 81.911 80.378 80.535 80.772 80.883 80.66 80.444 80.951 80.81 80.885 80.779 80.612 80.523 80.498 80.654 81.478 82.371 83.833 85.114 86.416 88.878 90.192 87.373 87.083 86.93 86.824 86.667 86.56 86.42 86.294 86.203 86.116 86.002 85.889 85.801 85.717 85.646 85.546 85.46 85.383 85.318 85.22 85.115 85.055 84.933 84.87 84.786 84.688 84.594 84.487 84.361 84.264 84.132 84.004 83.882 83.705 83.557 83.355 83.197 83.065 82.917 82.752 82.56 82.397 82.232 82.115 81.965 81.797 81.657 81.53 81.355 81.185 81.05 80.915 80.757 80.632 80.475 80.352 80.25 80.12 80.037 79.927 79.815 79.725 79.615 79.49 79.367 79.277 79.145 78.977 78.832 78.702 78.557 78.387 78.24 78.147 78.005 77.827 77.657 77.532 77.42 77.33 77.232 77.192 77.067 76.96 76.965 76.39 75.43 75.325 75.27 75.17 75.115 75.02 74.882 74.735 74.622 74.505 74.357 74.262 74.177 74.09 74.022 73.892 73.8 73.677 73.59 73.49 73.377 73.28 73.217 73.07 73.02 72.95 72.865 72.8 72.697 72.567 72.48 72.357 72.252 72.162 72.072 71.952 71.877 71.782 71.655 71.532 71.44 71.372 71.255 71.157 71.07 71.035 70.937 70.867 70.775 70.752 70.72 70.662 70.605 70.565 70.537 70.507 70.432 70.4 70.402 70.397 70.38 70.37 70.335 70.275 70.207 70.127 70.052 69.952 69.897 69.82 69.717 69.635 69.537 69.432 69.32 69.207 69.087 68.97 68.825 68.672 68.502 68.297 68.067 67.807 67.58 67.302 67.005 66.722 66.442 66.137 65.87 65.66 65.452 65.292 65.187 65.092 64.977 64.947 64.862 64.81 64.692 64.637 64.607 64.645 65.13 64.345 64.267 64.19 64.155 64.195 64.127 64.115 64.13 64.082 64.047 64.067 64.19 64.505 64.65 64.66 64.525 64.27 64.22 64.205 64.275 64.365 64.342 64.377 64.367 64.352 64.337 64.575 64.6 64.037 64.027 68.197 68.687 64.54 60.24 59.46 59.45 59.46 59.487 59.48 59.967 61.362 65.42 66.75 63.967 63.917 64.055 64.132 64.202 64.352 64.427 64.502 64.58 64.55 64.607 64.672 64.76 64.945 65.065 65.232 65.462 65.79 66.135 66.582 66.765 66.845 67.265 67.3 67.615 68.127 68.985 69.865 70.13 70.647 70.697 70.775 70.902 71.09 71.24 71.387 71.53 72.6 72.345 72.262 72.952 73.86 73.89 74.447 75.187 80.885 82.917
86.12 85.61 85.652 85.595 85.552 85.625 85.622 85.547 85.505 85.522 85.495 85.532 85.527 85.535 85.517 85.48 85.487 85.457 85.517 85.475 85.482 85.44 85.46 85.48 85.457 85.457 85.437 85.405 85.41 85.407 85.45 85.422 85.415 85.41 85.612 85.4 85.417 85.355 85.392 85.42 85.31 85.287 85.207 85.21 85.147 85.332 85.537 85.005 84.965 85.052 85.032 85.07 85.07 85.015 85.995 84.637 84.31 84.355 89.23 95.912 95.407 87.522 91.347 92.052 88.612 86.495 84.86 84.905 84.987 85.147 85.657 85.817 85.57 85.707 85.782 87.235 88.24 89.982 90.622 86.43 85.952 85.985 86 85.96 87.93 90.532 88.997 94.33 90.582 86.227 88.567 88.682 86.43 88.46 89.757 87.712 89.11 94.372 93.52 91.722 88.742 88.13 88.322 86.442 92.852 94.272 86.592 86.715 89.095 87.575 86.842 86.862 86.84 87.5 87.02 86.905 86.947 88.157 92.397 91.512 87.037 87.01 86.895 86.847 86.72 86.681 86.889 86.777 86.827 86.917 85.505 85.978 82.754 81.065 80.564 80.515 80.646 80.717 80.471 80.578 80.711 80.626 80.394 80.894 80.781 80.869 80.707 80.597 80.453 80.46 80.627 81.421 82.391 83.518 85.172 86.371 88.529 88.418 87.257 87.031 86.903 86.761 86.634 86.519 86.378 86.271 86.15 86.067 85.937 85.825 85.735 85.658 85.587 85.489 85.42 85.321 85.245 85.169 85.078 85.009 84.88 84.821 84.76 84.639 84.553 84.45 84.333 84.222 84.099 84.001 83.855 83.681 83.541 83.371 83.203 83.041 82.905 82.734 82.577 82.407 82.272 82.145 81.992 81.84 81.655 81.505 81.37 81.2 81.057 80.925 80.777 80.597 80.495 80.367 80.257 80.142 80.057 79.947 79.807 79.722 79.61 79.507 79.382 79.27 79.16 78.972 78.827 78.685 78.567 78.39 78.26 78.147 78.005 77.817 77.645 77.487 77.427 77.337 77.242 77.192 77.072 76.977 76.95 76.22 75.43 75.372 75.275 75.165 75.117 74.995 74.855 74.725 74.615 74.487 74.337 74.252 74.137 74.057 73.98 73.852 73.752 73.65 73.502 73.432 73.342 73.255 73.16 73.072 73.005 72.917 72.86 72.787 72.685 72.577 72.48 72.36 72.257 72.162 72.062 71.952 71.865 71.76 71.635 71.54 71.475 71.39 71.287 71.207 71.105 71.052 70.975 70.892 70.81 70.76 70.73 70.67 70.602 70.562 70.535 70.47 70.42 70.385 70.367 70.357 70.327 70.297 70.265 70.222 70.162 70.06 69.997 69.895 69.84 69.765 69.672 69.58 69.5 69.402 69.307 69.207 69.105 68.99 68.852 68.707 68.562 68.372 68.157 67.925 67.692 67.432 67.152 66.872 66.58 66.265 66.01 65.772 65.55 65.345 65.235 65.15 65.04 64.962 64.942 64.837 64.742 64.665 64.617 64.645 65.417 64.62 64.317 64.225 64.15 64.165 64.132 64.047 64.107 64.1 64.035 64 64.077 64.33 64.537 64.545 64.345 64.227 64.19 64.25 64.285 64.315 64.317 64.3 64.29 64.415 64.282 64.775 63.702 67.437 65.117 64.732 68.207 68.13 61.355 59.852 59.492 59.47 59.412 59.525 59.407 60.457 65.77 67.437 65.607 67.125 63.982 64.082 64.142 64.23 64.355 64.38 64.452 64.497 64.432 64.512 64.577 64.73 64.915 65.022 65.222 65.487 65.837 66.262 66.625 66.605 67.082 67.015 67.347 67.965 68.47 69.037 69.77 70.225 70.97 70.99 71.057 71.167 71.28 75.047 72.792 71.817 71.897 72.155 72.522 73.245 73.762 74.435 75.902 80.032 82.152
85.493 86.46 85.075 84.992 85.227 86.382 85.895 86.717 85.36 85.432 85.42 85.357 85.352 85.347 85.402 85.387 85.37 85.375 85.382 85.377 85.355 85.382 85.38 85.34 85.375 85.35 85.34 85.335 85.325 85.325 85.282 85.297 85.292 85.86 86.357 85.457 85.217 85.157 85.217 87.737 85.127 85.08 85.045 85.002 84.942 84.872 85.407 84.502 84.827 84.665 84.362 84.417 85.295 85.307 87.427 84.825 83.137 83.43 86.517 88.925 92.652 90.947 91.097 96.122 89.177 85.912 85.765 84.867 84.93 85.027 85.107 89.242 88.11 89.257 91.88 86.075 85.832 86.222 87.647 86.275 85.867 85.932 85.965 85.935 89.65 93.447 94.132 93.252 86.427 86.127 89.2 88.537 86.12 86.112 86.092 86.145 92.532 93.012 87.965 86.355 88.567 92.93 89.705 91.277 94.457 88.652 89.762 86.715 88.997 87.3 86.692 86.722 86.73 86.955 89.765 90.61 88.062 90.647 94.512 93.757 89.57 86.79 86.845 86.852 86.94 87.207 86.635 86.707 86.705 87.463 84.903 83.273 81.898 81.35 80.592 80.482 81.572 81.584 80.502 80.521 80.707 80.627 80.444 80.894 80.768 80.811 80.691 80.601 80.429 80.416 80.781 81.542 82.498 84.567 85.144 86.197 88.735 88.291 87.212 87.008 86.855 86.727 86.615 86.497 86.34 86.208 86.089 86.002 85.889 85.806 85.687 85.591 85.524 85.447 85.362 85.275 85.198 85.128 85.028 84.944 84.839 84.776 84.707 84.605 84.505 84.394 84.288 84.191 84.063 83.977 83.806 83.648 83.525 83.371 83.221 83.038 82.904 82.728 82.572 82.411 82.29 82.155 81.995 81.852 81.705 81.527 81.38 81.212 81.07 80.927 80.747 80.607 80.512 80.382 80.235 80.137 80.047 79.932 79.81 79.75 79.615 79.502 79.377 79.262 79.14 78.947 78.832 78.677 78.532 78.402 78.26 78.13 77.98 77.815 77.64 77.495 77.427 77.33 77.217 77.157 77.06 76.99 76.982 76.105 75.437 75.387 75.312 75.222 75.15 75.015 74.842 74.692 74.575 74.435 74.317 74.237 74.137 74.042 73.945 73.827 73.73 73.607 73.505 73.39 73.315 73.205 73.137 73.11 73.002 72.897 72.832 72.785 72.655 72.572 72.452 72.365 72.292 72.177 72.082 71.965 71.895 71.77 71.64 71.567 71.517 71.395 71.295 71.217 71.122 71.032 70.995 70.917 70.85 70.822 70.757 70.675 70.62 70.54 70.5 70.42 70.397 70.385 70.367 70.34 70.265 70.232 70.205 70.165 70.112 70.015 69.917 69.86 69.815 69.722 69.655 69.555 69.48 69.347 69.26 69.177 69.075 68.99 68.865 68.735 68.612 68.427 68.23 68.007 67.777 67.52 67.28 66.985 66.705 66.412 66.16 65.912 65.662 65.412 65.25 65.13 65.097 64.975 64.945 64.885 64.795 64.705 64.677 64.6 64.67 64.947 64.407 64.277 64.187 64.142 64.15 64.07 64.052 64.087 64.04 63.992 63.995 64.092 64.202 64.255 64.19 64.157 64.207 64.267 64.32 64.267 64.317 64.302 64.28 64.237 64.957 63.367 63.162 66.03 65.1 63.207 64.102 64.175 62.015 60.825 59.682 59.477 59.392 59.437 59.43 59.47 60.99 64.55 66.66 65.315 63.97 64.02 64.102 64.112 64.225 64.295 64.312 64.382 64.345 64.357 64.465 64.512 64.675 64.84 64.982 65.222 65.485 65.847 66.377 66.457 66.57 67.017 67.075 67.442 68.22 68.605 69.317 69.917 70.705 71.392 71.557 71.32 71.467 74.772 78.815 71.86 71.982 72.1 73 73.332 73.125 74.927 75.252 75.9 78.277
84.638 84.27 83.93 83.912 84.055 85.03 84.432 85.52 86.34 84.997 85.075 85.397 85.247 85.287 85.557 85.52 85.11 85.235 85.245 85.137 85.29 85.275 85.33 85.282 85.31 85.36 85.302 85.327 85.65 85.215 85.147 85.44 85.572 86.34 88.15 86.18 84.782 84.627 85.825 84.64 84.782 84.922 84.622 84.542 84.44 84.41 84.282 84.455 84.912 84.01 83.747 83.98 86.127 85.775 83.225 83.427 83.02 82.907 84.052 88.13 96.102 90.91 92.55 90.302 90.812 90.762 87.53 84.757 84.822 84.887 85.03 86.882 85.897 89.65 90.71 87.19 85.765 85.777 85.707 85.772 85.817 85.852 85.877 85.892 86.775 88.625 90.665 91.72 87.565 86.017 86.07 86.512 86.045 86.047 86.117 85.987 89.615 92.045 91.827 86.452 86.78 86.347 91.212 94.912 88.82 86.492 86.637 86.625 87.245 86.627 86.595 87.052 86.557 88.892 95.415 93.307 86.792 88.952 93.36 92.272 88.65 86.68 86.625 88.315 92.232 92.165 86.475 86.472 86.342 85.305 83.837 82.412 81.177 80.592 80.617 80.393 80.286 80.373 81.102 80.579 80.578 80.542 80.574 80.896 80.77 80.809 80.69 80.563 80.421 80.401 80.985 81.671 82.812 85.305 85.127 86.056 88.23 89.282 87.121 86.98 86.818 86.673 86.568 86.471 86.281 86.173 86.055 85.955 85.821 85.747 85.63 85.546 85.466 85.384 85.312 85.22 85.155 85.05 84.982 84.896 84.793 84.756 84.685 84.558 84.476 84.35 84.258 84.162 84.043 83.922 83.77 83.629 83.498 83.345 83.207 83.037 82.906 82.742 82.572 82.418 82.285 82.149 81.972 81.837 81.7 81.517 81.362 81.202 81.082 80.912 80.742 80.625 80.487 80.382 80.26 80.127 80.057 79.915 79.795 79.722 79.6 79.47 79.387 79.272 79.112 78.957 78.82 78.695 78.527 78.405 78.257 78.12 77.965 77.777 77.617 77.497 77.435 77.312 77.215 77.145 77.032 76.987 76.937 75.86 75.487 75.412 75.327 75.25 75.167 75.01 74.835 74.692 74.592 74.437 74.32 74.21 74.087 74.002 73.902 73.775 73.695 73.57 73.467 73.355 73.267 73.205 73.115 73.06 72.965 72.9 72.83 72.77 72.66 72.555 72.43 72.355 72.257 72.165 72.085 71.97 71.875 71.755 71.66 71.62 71.537 71.437 71.325 71.217 71.152 71.105 71.025 70.962 70.88 70.84 70.775 70.682 70.65 70.595 70.507 70.43 70.395 70.35 70.332 70.28 70.215 70.187 70.152 70.12 70.055 69.942 69.855 69.812 69.762 69.677 69.63 69.54 69.42 69.342 69.282 69.172 69.085 69 68.887 68.762 68.645 68.462 68.3 68.092 67.852 67.627 67.377 67.107 66.807 66.552 66.29 66.042 65.797 65.562 65.342 65.187 65.072 64.997 64.895 64.882 64.845 64.765 64.67 64.602 64.537 64.725 64.867 64.28 64.18 64.087 64.122 64.1 64.062 64.122 64.115 64.082 64.047 64.055 64.082 64.112 64.142 64.177 64.235 64.28 64.25 64.245 64.28 64.257 64.282 64.465 64.1 62.87 63.982 68.502 67.705 65.622 66.865 63.697 64.612 62.557 60.76 59.535 59.39 59.385 59.382 59.38 60.462 63.48 67.552 64.107 63.985 63.925 64.022 64.062 64.1 64.205 64.245 64.227 64.27 64.26 64.325 64.402 64.465 64.655 64.772 64.98 65.19 65.457 65.882 66.312 66.202 66.805 66.885 67.282 68.137 68.595 69.202 70.112 70.772 71.515 71.997 73.055 72.342 71.705 72.027 72.907 72.035 72.217 72.527 72.877 72.882 73.78 74.07 74.907 74.987
83.748 83.64 83.685 83.732 83.777 83.835 83.807 84.035 84.587 83.77 83.937 84.077 84.215 84.642 85.722 84.637 84.367 84.277 84.32 84.447 84.515 84.577 84.62 84.632 84.657 84.662 84.54 84.692 84.757 84.787 84.862 84.535 84.367 84.76 85.76 84.237 84.54 83.817 83.502 84.862 84.727 85.115 85.26 83.61 83.622 83.55 83.227 82.937 83.355 82.842 82.422 82.175 82.037 84.727 81.665 82.045 82.23 82.487 83.41 88.427 84.95 91.427 89.035 88.372 95.445 95.76 91.375 87.12 84.737 84.755 84.922 85.082 85.172 86.77 85.532 85.555 85.615 85.722 85.75 85.72 85.73 85.797 85.837 85.84 85.81 85.892 85.882 87.23 85.905 85.875 85.97 86.08 85.945 85.957 86.402 90.725 88.682 87.15 90.472 94.642 88.662 89.842 93.692 93.892 92.102 89.675 86.8 86.607 86.54 86.452 88.15 93.667 92.4 94.237 93.65 91.855 88.277 86.525 87.88 86.992 86.51 86.555 86.345 89.867 95.155 90.745 86.345 86.35 85.72 84.605 83.16 81.917 80.735 80.592 80.512 80.422 80.215 80.297 80.887 80.52 80.569 80.406 80.451 80.832 80.742 80.792 80.632 80.556 80.405 80.444 80.822 81.552 82.584 83.467 85.418 86.269 87.396 87.445 87.078 86.937 86.776 86.634 86.552 86.41 86.258 86.146 86.03 85.917 85.762 85.673 85.585 85.508 85.412 85.33 85.265 85.149 85.09 85.007 84.93 84.841 84.747 84.695 84.622 84.495 84.416 84.309 84.218 84.116 83.989 83.879 83.718 83.606 83.489 83.31 83.158 83.013 82.876 82.718 82.573 82.411 82.308 82.149 81.978 81.827 81.682 81.515 81.355 81.185 81.065 80.912 80.755 80.635 80.497 80.39 80.265 80.15 80.075 79.905 79.78 79.717 79.607 79.502 79.392 79.255 79.102 78.937 78.795 78.672 78.517 78.367 78.252 78.12 77.962 77.772 77.612 77.485 77.43 77.287 77.2 77.125 77.02 76.982 76.805 75.76 75.522 75.445 75.355 75.242 75.167 75.012 74.852 74.71 74.595 74.442 74.297 74.197 74.075 74.007 73.87 73.772 73.642 73.507 73.42 73.315 73.25 73.175 73.117 73.025 72.95 72.875 72.812 72.765 72.66 72.557 72.405 72.36 72.255 72.132 72.045 71.997 71.875 71.775 71.712 71.632 71.557 71.447 71.332 71.257 71.195 71.135 71.03 70.975 70.902 70.862 70.787 70.71 70.655 70.582 70.492 70.435 70.377 70.32 70.265 70.252 70.182 70.162 70.11 70.06 69.98 69.895 69.795 69.775 69.722 69.632 69.547 69.51 69.432 69.342 69.247 69.167 69.077 68.997 68.882 68.762 68.652 68.5 68.355 68.14 67.91 67.707 67.487 67.225 66.957 66.7 66.43 66.205 65.915 65.695 65.482 65.275 65.132 65.032 64.94 64.842 64.865 64.78 64.635 64.597 64.592 64.512 64.927 64.442 64.172 64.102 64.092 64.14 64.077 64.1 64.165 64.105 64.102 64.12 64.115 64.127 64.202 64.202 64.232 64.207 64.185 64.302 64.247 64.195 64.162 64.805 63.275 62.875 63.19 64.855 64.767 66.14 70.19 65.885 66.122 64.795 63.672 60.637 59.427 59.415 59.36 59.357 59.617 60.652 62.68 63.412 63.667 63.905 63.915 64.012 64.02 64.067 64.145 64.137 64.202 64.215 64.202 64.29 64.335 64.417 64.562 64.69 64.91 65.147 65.51 66.495 66.095 66.442 66.74 66.975 67.72 68.502 69.295 70.105 70.885 71.58 72.187 72.747 77.5 72.277 71.897 72.005 72.102 72.31 72.46 72.577 72.705 72.93 73.22 73.505 74.335
83.455 83.487 83.487 83.532 83.55 83.61 83.612 83.625 83.642 83.617 83.78 83.765 83.6 84.982 85.892 84.605 84.165 83.697 83.75 83.69 83.662 83.692 83.622 83.54 83.527 83.807 83.577 83.615 83.69 83.672 83.717 83.337 83.282 83.312 83.182 82.845 82.632 84.402 87.657 84.512 83.81 83.095 83.227 82.667 82.277 82.232 82.13 82.705 81.757 81.5 81.087 80.815 80.605 81.347 80.995 81.95 82.02 82.195 82.577 83.192 84.75 87.122 88.597 95.987 96.362 92.227 90.875 88.735 85.47 86.37 84.867 84.97 85.02 85.27 85.437 85.535 85.627 85.617 85.69 85.667 85.68 85.747 85.76 85.807 85.747 85.797 85.825 85.862 85.857 85.845 85.905 85.922 85.895 85.905 87.69 90.11 86.86 89.367 92.395 89.457 87.152 92.787 94.567 94.745 93.637 88.732 86.565 86.567 88.26 89.867 93.367 97.412 91.452 97.595 95.725 88.905 86.482 86.335 86.515 86.455 86.432 86.385 86.19 87.505 94.582 93.68 89.505 85.945 84.872 84.56 83.635 81.58 80.39 80.335 80.335 80.52 80.34 80.817 80.455 80.422 80.657 80.407 80.315 80.77 80.742 80.766 80.678 80.495 80.421 80.412 80.759 82.304 85.022 85.234 86.82 86.94 87.646 88.103 87.062 86.876 86.717 86.567 86.481 86.343 86.217 86.11 85.975 85.861 85.72 85.637 85.518 85.423 85.353 85.259 85.203 85.091 85.032 84.949 84.858 84.785 84.686 84.64 84.567 84.446 84.361 84.267 84.198 84.084 83.957 83.832 83.692 83.58 83.475 83.286 83.127 82.999 82.855 82.707 82.562 82.411 82.275 82.118 81.956 81.849 81.679 81.507 81.352 81.18 81.035 80.905 80.745 80.605 80.492 80.387 80.26 80.162 80.06 79.932 79.812 79.732 79.607 79.475 79.36 79.245 79.102 78.952 78.792 78.635 78.512 78.355 78.245 78.105 77.927 77.745 77.56 77.49 77.4 77.297 77.2 77.107 77.03 77.025 76.682 75.702 75.527 75.467 75.36 75.272 75.187 75.015 74.845 74.707 74.587 74.422 74.292 74.172 74.077 73.947 73.87 73.735 73.612 73.49 73.41 73.302 73.222 73.14 73.072 73.002 72.932 72.86 72.792 72.76 72.657 72.53 72.427 72.345 72.247 72.117 72.062 71.975 71.887 71.8 71.715 71.632 71.567 71.46 71.382 71.28 71.225 71.152 71.075 71.002 70.935 70.882 70.767 70.707 70.637 70.577 70.502 70.42 70.357 70.31 70.272 70.207 70.165 70.117 70.06 69.985 69.905 69.85 69.755 69.725 69.672 69.592 69.522 69.477 69.395 69.312 69.232 69.15 69.09 69 68.892 68.79 68.675 68.525 68.377 68.202 67.992 67.782 67.555 67.295 67.072 66.855 66.587 66.327 66.077 65.817 65.59 65.357 65.192 65.06 64.982 64.87 64.837 64.777 64.697 64.587 64.59 64.532 64.447 64.795 64.152 64.112 64.07 64.125 64.03 64.027 64.075 64.125 64.177 64.18 64.17 64.167 64.207 64.225 64.225 64.207 64.295 64.297 64.202 64.142 64.322 65.445 63.465 63.09 62.817 62.777 62.817 63.51 65.442 62.51 63.74 65.602 65.08 61.79 60.132 59.395 59.375 59.365 59.36 60.317 61.402 62.322 63.222 63.782 63.877 63.92 63.942 63.957 64.032 64.077 64.072 64.147 64.115 64.135 64.242 64.235 64.377 64.5 64.64 64.845 65.137 66.71 65.987 65.967 66.562 66.802 67.662 68.565 69.377 70.255 70.94 71.64 72.15 72.485 72.712 72.765 72.802 72.292 72.225 72.355 72.532 72.712 72.815 72.935 73.16 73.4 74.052
