ncols 431
nrows 31
xllcorner    425016
yllcorner    542170
cellsize     2
NODATA_value -9999
114.07 113.983 113.878 113.78 113.65 113.543 113.455 113.335 113.218 113.083 112.975 112.853 112.723 112.608 112.485 112.363 112.24 112.103 111.988 111.853 111.743 111.595 111.448 111.288 111.125 110.955 110.793 110.62 110.45 110.283 110.123 109.935 109.74 109.56 109.39 109.193 109.025 108.853 108.675 108.525 108.333 108.138 107.948 107.738 107.533 107.288 107.073 106.848 106.625 106.413 106.213 105.995 105.778 105.57 105.378 105.188 104.993 104.82 104.598 104.4 104.205 104.003 103.758 103.548 103.335 103.17 102.993 102.78 102.61 102.407 102.242 102.03 101.884 101.742 101.549 101.338 101.052 100.746 100.409 100.176 99.928 99.675 99.443 99.162 98.942 98.723 98.528 98.868 99.41 98.515 98.253 97.86 97.273 96.975 96.69 96.478 96.298 96.065 95.898 95.71 95.543 95.373 95.213 95.06 94.958 94.848 94.71 94.608 94.433 94.28 94.145 94.04 93.91 93.8 93.69 93.573 93.463 93.378 93.26 93.165 93.068 92.955 92.858 92.745 92.653 92.56 92.45 92.388 92.31 92.255 92.203 92.125 92.06 91.988 91.928 91.86 91.785 91.743 91.705 91.643 91.6 91.56 91.51 91.473 91.423 91.373 91.323 91.263 91.228 91.173 91.108 91.033 90.973 90.915 90.87 90.813 90.795 90.743 90.658 90.73 90.538 92.65 96.013 92.435 94.453 97.448 90.058 89.333 89.685 87.81 88.923 94.098 88.77 90.698 89.953 87.078 86.203 90.315 91.083 90.118 89.895 85.85 85.913 85.935 85.983 86.698 90.095 88.528 88.285 88.323 87.965 87.588 87.363 87.223 87.108 86.94 86.823 86.643 86.503 86.35 86.173 86.008 85.845 85.665 85.52 85.39 85.243 85.05 84.9 84.735 84.558 84.375 84.183 83.948 83.79 83.625 83.475 83.323 83.123 82.928 82.725 82.528 82.305 82.093 81.875 81.66 81.485 81.258 81.088 80.92 80.718 80.563 80.418 80.243 80.13 80.088 80.043 79.87 79.928 78.808 76.2 75.035 74.043 73.59 73.853 74.105 74.113 74.208 73.988 73.563 72.38 70.755 69.765 68.285 66.978 65.543 65.11 65.153 65.013 65.03 65.068 65.05 65.425 66.07 66.6 67.603 67.473 67.493 67.49 67.415 67.383 67.375 67.4 67.495 67.568 67.653 67.708 67.823 67.89 68.015 68.108 68.24 68.343 68.505 68.61 68.748 68.883 68.99 69.095 69.195 69.32 69.403 69.538 69.633 69.745 69.843 69.985 70.1 70.205 70.353 70.493 70.64 70.793 70.94 71.025 71.113 71.178 71.253 71.313 71.42 71.46 71.568 71.635 74.3 80.443 75.018 74.47 76.18 78.42 80.543 79.818 79.96 80.178 80.343 80.593 80.873 81.178 81.448 81.723 81.933 82.063 82.238 82.39 82.568 82.755 82.883 83.123 83.198 83.215 83.298 83.39 83.51 83.608 83.723 83.818 83.888 83.943 84.033 84.13 84.235 84.333 84.395 84.378 84.415 84.638 84.843 84.788 84.81 84.848 84.86 84.848 84.85 84.855 84.908 84.998 85.163 85.358 85.643 85.995 86.285 86.213 86.155 86.5 86.468 86.215 86.06 85.998 85.965 85.985 86.02 86.09 86.12 86.158 86.235 86.26 86.333 86.373 86.423 86.508 86.585 86.7 86.81 86.962 87.122 87.29 87.457 87.647 87.82 87.952 88.082 88.215 88.345 88.465 88.612 88.732 88.9 89.055 89.22 89.375 89.515 89.687 89.832 89.985 90.145 90.312 90.492 90.672 90.84 90.98 91.152 91.332 91.492 91.642 91.812 91.965 92.125 92.295 92.45 92.612 92.767 92.922
114.1 114.003 113.915 113.803 113.688 113.598 113.475 113.36 113.238 113.11 113.018 112.888 112.768 112.64 112.535 112.418 112.313 112.175 112.065 111.933 111.81 111.648 111.53 111.353 111.18 111.005 110.845 110.683 110.507 110.328 110.17 109.988 109.798 109.623 109.478 109.273 109.09 108.91 108.738 108.59 108.38 108.198 108.005 107.828 107.578 107.355 107.153 106.93 106.71 106.49 106.28 106.075 105.855 105.658 105.458 105.268 105.073 104.873 104.665 104.448 104.245 104.043 103.865 103.703 103.508 103.35 103.163 102.963 102.78 102.611 102.476 102.32 102.072 101.778 101.528 101.234 100.971 100.741 100.479 100.265 100.024 99.786 99.591 99.364 99.276 99.263 99.008 98.995 98.898 98.22 97.873 97.573 97.315 97.048 96.815 96.6 96.38 96.183 96.008 95.82 95.645 95.475 95.323 95.183 95.073 94.948 94.82 94.68 94.518 94.35 94.208 94.108 93.955 93.843 93.748 93.63 93.513 93.41 93.298 93.195 93.113 92.99 92.915 92.798 92.725 92.645 92.54 92.448 92.38 92.298 92.228 92.148 92.09 92.003 91.965 91.91 91.84 91.778 91.718 91.693 91.65 91.605 91.565 91.548 91.503 91.46 91.403 91.348 91.3 91.275 91.193 91.125 91.053 90.985 90.915 90.858 90.813 90.783 90.68 90.693 90.93 95.843 95.735 93.013 91.273 93.66 91.37 88.605 89.688 90.175 88.32 91.388 92.515 90.475 89.58 86.465 86.248 88.89 92.773 86.43 86.04 85.795 85.905 85.923 85.93 86.238 88.708 88.428 88.293 88.24 88.085 87.69 87.433 87.255 87.168 87.065 87.173 86.66 86.555 86.413 86.265 86.09 85.94 85.775 85.595 85.448 85.303 85.138 84.973 84.778 84.61 84.43 84.238 84.05 83.863 83.658 83.508 83.405 83.203 83.01 82.808 82.613 82.403 82.183 81.97 81.76 81.585 81.373 81.198 81.015 80.848 80.675 80.525 80.385 80.233 80.128 80.1 80 79.735 78.908 77.428 76.185 75.37 74.89 74.943 74.97 74.803 74.498 74.16 73.625 72.203 70.818 69.723 68.285 67.15 65.998 65.22 65.04 65.04 65.013 65.008 65.01 65.703 65.333 65.535 67.385 67.45 67.415 67.39 67.358 67.3 67.278 67.315 67.353 67.463 67.533 67.603 67.705 67.798 67.905 68.02 68.135 68.258 68.395 68.538 68.675 68.785 68.895 69.02 69.14 69.248 69.35 69.443 69.54 69.655 69.753 69.855 69.953 70.055 70.18 70.345 70.493 70.655 70.805 70.913 71.02 71.103 71.178 71.258 71.353 71.458 71.585 71.678 74.755 75.31 73.608 73.943 75.313 77.01 80.085 80.51 79.725 79.88 80.068 80.333 80.638 80.99 81.285 81.62 81.873 82.075 82.203 82.34 82.508 82.705 82.803 83.018 83.003 83.075 83.17 83.235 83.378 83.513 83.618 83.675 83.768 83.815 83.9 83.95 84.058 84.21 84.225 84.213 84.23 84.315 84.438 84.543 84.6 84.738 84.775 84.775 84.825 84.843 84.905 84.94 84.998 85.023 85.035 85.068 85.138 85.245 85.335 85.455 85.445 85.64 85.945 86.37 86.553 86.813 86.648 86.51 86.248 86.16 86.203 86.243 86.293 86.365 86.418 86.485 86.558 86.66 86.785 86.927 87.07 87.225 87.407 87.575 87.73 87.872 88.025 88.165 88.295 88.412 88.555 88.7 88.857 89.005 89.157 89.327 89.47 89.63 89.815 89.942 90.12 90.287 90.445 90.617 90.792 90.937 91.13 91.307 91.47 91.63 91.807 91.957 92.097 92.275 92.45 92.597 92.747 92.925
114.103 114.058 113.94 113.808 113.72 113.618 113.51 113.393 113.283 113.148 113.035 112.92 112.813 112.693 112.585 112.478 112.373 112.235 112.108 112.005 111.865 111.725 111.563 111.4 111.24 111.085 110.908 110.748 110.578 110.373 110.213 110.023 109.863 109.678 109.498 109.328 109.165 108.98 108.818 108.635 108.448 108.27 108.055 107.873 107.62 107.44 107.235 107 106.79 106.565 106.333 106.148 105.938 105.745 105.53 105.323 105.113 104.893 104.7 104.505 104.343 104.183 104.025 103.86 103.695 103.52 103.353 103.113 103.026 102.83 102.636 102.305 101.979 101.72 101.499 101.267 101.023 100.812 100.557 100.332 100.21 99.981 99.955 99.788 99.588 99.3 99.045 98.753 98.45 98.188 97.918 97.693 97.443 97.203 96.948 96.715 96.503 96.313 96.133 95.975 95.8 95.633 95.45 95.323 95.168 95.023 94.88 94.738 94.578 94.39 94.255 94.143 93.998 93.87 93.76 93.683 93.538 93.458 93.348 93.253 93.195 93.093 92.985 92.873 92.808 92.71 92.593 92.478 92.395 92.313 92.245 92.18 92.14 92.075 92.018 91.965 91.903 91.84 91.793 91.768 91.728 91.69 91.638 91.6 91.555 91.515 91.453 91.415 91.375 91.333 91.283 91.208 91.135 91.038 90.975 90.903 90.84 90.818 90.75 90.723 90.73 92.418 94.193 90.64 90.568 90.668 93.303 90.018 94.223 95.363 91.378 91.445 89.088 94.448 91.77 92 86.685 86.175 88.268 87.71 85.873 85.69 85.885 85.898 85.928 86.015 87.158 87.95 88.198 88.168 88.143 87.813 87.635 87.298 87.228 87.24 86.928 86.783 86.63 86.47 86.318 86.145 85.98 85.84 85.655 85.49 85.345 85.198 84.99 84.853 84.675 84.49 84.32 84.133 83.96 83.748 83.6 83.463 83.3 83.09 82.89 82.71 82.503 82.28 82.095 81.858 81.695 81.49 81.305 81.128 80.98 80.808 80.643 80.525 80.375 80.215 80.105 80.078 79.96 79.668 79.075 77.865 76.975 76.975 76.703 76.13 75.623 74.825 73.918 73.073 71.935 70.655 69.7 68.253 67.328 66.28 65.383 65.028 65.008 64.978 64.988 64.943 65.013 65.05 65.55 67.315 67.95 67.343 67.333 67.315 67.243 67.185 67.183 67.245 67.335 67.418 67.475 67.588 67.703 67.818 67.918 68.028 68.183 68.318 68.455 68.588 68.71 68.848 68.98 69.083 69.185 69.293 69.378 69.455 69.583 69.635 69.76 69.838 69.928 70.063 70.19 70.338 70.523 70.645 70.753 70.873 70.99 71.075 71.21 71.358 71.495 71.633 71.775 72.233 73.408 72.98 73.605 74.985 76.958 81.075 80.835 79.468 79.675 79.888 80.103 80.435 80.795 81.165 81.523 81.803 82.043 82.188 82.315 82.475 82.65 82.788 83.205 82.9 82.968 83.03 83.14 83.333 83.53 83.63 83.743 83.848 83.893 83.903 83.96 84.028 84.168 84.293 84.188 84.303 84.578 84.313 84.535 84.42 84.605 84.595 84.645 84.758 84.78 84.998 85.15 85.155 85.018 85.033 85.19 85.193 85.2 85.25 85.315 85.328 85.365 85.428 85.483 85.568 85.75 85.81 86.25 86.608 86.615 86.98 87.003 86.965 87.063 87.153 86.938 86.825 87.028 87.233 87.422 87.697 87.637 87.625 87.647 87.77 87.86 87.995 88.14 88.252 88.375 88.515 88.637 88.797 88.955 89.105 89.247 89.41 89.58 89.73 89.912 90.082 90.252 90.442 90.595 90.777 90.93 91.097 91.275 91.432 91.6 91.767 91.927 92.09 92.267 92.425 92.557 92.737 92.895
114.132 114.053 113.968 113.865 113.76 113.625 113.528 113.397 113.285 113.178 113.075 112.945 112.855 112.748 112.645 112.55 112.435 112.318 112.173 112.055 111.91 111.763 111.613 111.47 111.305 111.143 110.953 110.808 110.608 110.43 110.268 110.067 109.895 109.723 109.543 109.365 109.2 109.058 108.85 108.685 108.505 108.333 108.133 107.92 107.725 107.505 107.28 107.063 106.83 106.638 106.41 106.228 106.015 105.805 105.595 105.355 105.148 104.955 104.823 104.675 104.508 104.363 104.195 104.023 103.895 103.728 103.493 103.168 102.991 102.764 102.471 102.232 102.005 101.799 101.583 101.352 101.124 100.904 100.767 100.694 101.036 100.38 100.07 99.778 99.535 99.27 99.033 98.813 98.575 98.345 98.09 97.865 97.605 97.388 97.123 96.9 96.688 96.503 96.313 96.143 95.958 95.755 95.568 95.398 95.248 95.088 94.953 94.778 94.608 94.463 94.315 94.178 94.048 93.933 93.835 93.745 93.623 93.533 93.395 93.323 93.22 93.143 93.053 92.928 92.848 92.723 92.615 92.515 92.443 92.388 92.348 92.27 92.203 92.145 92.085 92.035 91.99 91.92 91.883 91.84 91.795 91.763 91.703 91.675 91.623 91.575 91.513 91.46 91.425 91.363 91.305 91.258 91.163 91.098 91.028 90.955 90.903 90.865 90.828 90.738 90.82 90.445 90.833 91.083 90.653 90.653 91.918 90.273 91.063 98.488 95.195 91.7 95.62 94.033 93.705 88.665 86.445 86.43 87.058 86.16 85.978 85.853 85.83 85.918 85.938 85.873 87.328 87.528 88.16 88.233 88.173 88.028 87.625 87.385 87.23 87.105 86.988 86.83 86.69 86.515 86.375 86.205 86.025 85.87 85.713 85.533 85.365 85.228 85.075 84.903 84.72 84.545 84.375 84.21 84.033 83.853 83.678 83.515 83.373 83.175 83.005 82.813 82.583 82.413 82.213 82.008 81.835 81.643 81.458 81.295 81.128 80.948 80.798 80.64 80.483 80.34 80.205 80.12 80.033 79.908 79.57 79.025 78.478 78.53 77.738 77.038 76.435 75.05 73.628 72.498 71.65 70.708 69.91 68.733 67.68 66.375 65.208 64.983 64.978 65.013 65.015 64.955 64.98 64.963 65.393 69.948 67.775 67.293 67.263 67.253 67.183 67.1 67.065 67.13 67.185 67.253 67.33 67.475 67.618 67.723 67.823 67.943 68.063 68.203 68.365 68.52 68.648 68.818 68.96 69.08 69.148 69.25 69.325 69.395 69.503 69.585 69.68 69.76 69.86 69.985 70.098 70.218 70.358 70.49 70.62 70.745 70.895 71.035 71.208 71.355 71.5 71.643 71.85 72.005 72.428 73.033 73.678 75.24 77.15 78.88 79.21 79.255 79.415 79.63 79.885 80.2 80.598 81.025 81.41 81.725 81.975 82.095 82.233 82.38 82.613 82.77 82.868 82.895 82.938 82.988 83.09 83.378 83.608 83.77 83.898 83.993 83.993 83.965 84 84.075 84.668 85.54 86.63 86.61 86.763 86.623 86.063 84.335 84.51 84.588 84.503 84.66 84.728 84.925 84.858 84.835 85.035 85.025 85.933 85.828 85.16 85.233 85.403 85.29 85.368 85.448 85.5 85.558 85.613 85.678 85.74 85.825 85.833 85.928 86.073 86.398 86.665 86.56 86.75 86.815 86.835 86.933 87.09 87.65 88.04 88.245 88.035 88.192 87.947 87.85 88.315 88.607 88.955 88.795 88.907 89.14 89.177 89.19 89.237 89.405 89.56 89.717 89.882 90.04 90.205 90.385 90.56 90.732 90.862 91.057 91.225 91.397 91.555 91.737 91.907 92.077 92.225 92.39 92.557 92.73 92.89
114.163 114.085 113.968 113.895 113.78 113.662 113.545 113.41 113.295 113.208 113.098 113.008 112.913 112.815 112.715 112.63 112.493 112.375 112.228 112.1 111.983 111.828 111.683 111.538 111.363 111.195 111.03 110.835 110.65 110.488 110.303 110.143 109.963 109.788 109.625 109.435 109.25 109.105 108.89 108.753 108.578 108.38 108.163 107.963 107.785 107.548 107.35 107.133 106.903 106.688 106.415 106.253 106.068 105.87 105.603 105.415 105.26 105.123 104.975 104.823 104.668 104.52 104.453 104.353 104.063 103.715 103.38 103.169 102.986 102.793 102.558 102.321 102.094 101.866 101.649 101.448 101.372 101.27 101.166 100.966 100.727 100.269 100 99.754 99.57 99.355 99.158 98.955 98.708 98.515 98.31 98.065 97.81 97.583 97.323 97.078 96.878 96.668 96.46 96.28 96.06 95.86 95.665 95.485 95.3 95.15 95.003 94.845 94.695 94.53 94.373 94.243 94.095 93.98 93.87 93.765 93.673 93.573 93.46 93.35 93.245 93.165 93.063 92.973 92.87 92.78 92.685 92.6 92.513 92.473 92.415 92.338 92.278 92.215 92.155 92.113 92.07 92.013 91.943 91.925 91.865 91.828 91.785 91.743 91.705 91.608 91.57 91.513 91.453 91.385 91.333 91.285 91.198 91.135 91.048 90.993 90.953 90.913 90.868 90.798 90.798 90.628 91.788 92.995 90.755 90.705 95.163 96.57 95.943 97.288 93.903 87.518 88.235 89.768 91.063 92.368 89.358 87.548 94.243 93.27 87.188 88.66 88.973 85.9 85.96 85.925 86.055 87.02 87.893 88.345 88.265 88.14 87.743 87.453 87.248 87.12 87.015 86.87 86.725 86.555 86.418 86.25 86.07 85.935 85.77 85.598 85.433 85.27 85.133 84.98 84.818 84.62 84.443 84.28 84.103 83.935 83.755 83.588 83.458 83.295 83.13 82.928 82.728 82.548 82.315 82.14 81.968 81.793 81.645 81.463 81.298 81.11 80.96 80.79 80.635 80.48 80.31 80.195 80.113 79.998 79.883 79.715 79.368 79.14 78.195 77.773 77.013 75.493 74.113 72.905 71.78 70.925 70.418 69.765 68.335 66.895 65.53 68.368 65.665 64.998 65 64.948 64.945 64.87 65.863 66.84 67.173 67.228 67.185 67.173 67.128 67.055 67.008 67.028 67.078 67.153 67.245 67.378 67.515 67.625 67.76 67.88 68.02 68.158 68.33 68.5 68.673 68.8 68.94 69.048 69.11 69.193 69.295 69.37 69.47 69.58 69.67 69.738 69.833 69.93 70.043 70.17 70.268 70.395 70.53 70.67 70.815 70.978 71.148 71.32 71.515 71.693 71.925 72.113 72.44 73.695 74.81 75.45 77.003 78.683 78.92 79.023 79.263 79.428 79.633 80.053 80.39 80.805 81.383 81.67 82.35 81.995 82.183 82.488 82.708 82.853 82.863 82.948 82.94 82.983 83.068 83.365 83.598 83.823 83.91 83.99 84.008 84 85.103 86.508 87.173 86.465 87.815 87.058 87.013 87.005 86.763 84.8 84.673 84.548 84.39 84.58 84.773 84.81 86.123 84.59 84.87 85.023 85.333 85.28 85.468 85.443 85.533 85.67 85.718 85.755 85.593 85.808 85.833 85.748 85.805 85.843 85.87 85.935 86.013 86.07 86.14 86.198 86.27 86.335 86.435 86.53 86.657 86.697 86.787 86.915 87.025 87.172 87.282 87.362 87.547 87.732 88.07 88.437 88.937 89.427 89.862 89.992 89.877 90.192 90.022 90.04 90.017 90.072 90.22 90.387 90.54 90.69 90.845 91.012 91.177 91.337 91.522 91.695 91.852 92.035 92.197 92.365 92.542 92.702 92.87
114.183 114.083 114.003 113.905 113.783 113.67 113.548 113.453 113.343 113.23 113.135 113.033 112.953 112.858 112.755 112.655 112.533 112.43 112.293 112.162 112.038 111.883 111.73 111.578 111.42 111.263 111.11 110.915 110.725 110.533 110.358 110.223 110.02 109.838 109.648 109.475 109.308 109.133 108.95 108.798 108.61 108.4 108.19 108.05 107.853 107.593 107.398 107.17 106.925 106.705 106.445 106.285 106.135 105.963 105.78 105.625 105.47 105.263 105.12 104.995 104.798 104.715 104.395 104.11 103.843 103.6 103.414 103.25 103.058 102.863 102.643 102.409 102.156 101.991 101.954 101.846 101.657 101.344 100.994 100.745 100.49 100.277 100.072 99.868 99.69 99.508 99.3 99.095 98.9 98.703 98.478 98.228 98.01 97.768 97.508 97.25 97.008 96.803 96.575 96.348 96.14 95.948 95.743 95.548 95.365 95.218 95.06 94.92 94.77 94.608 94.45 94.305 94.14 94.01 93.898 93.78 93.68 93.563 93.47 93.358 93.273 93.168 93.105 93.035 92.93 92.845 92.773 92.688 92.603 92.553 92.48 92.425 92.37 92.308 92.263 92.205 92.17 92.118 92.058 92.013 91.95 91.898 91.848 91.775 91.73 91.655 91.58 91.53 91.453 91.415 91.36 91.308 91.238 91.153 91.12 91.028 90.993 90.975 90.945 90.86 90.788 90.803 93.813 97.765 93.413 90.615 91.43 92.685 93.148 97.008 95.545 87.623 88.483 94.015 89.3 86.855 89.358 88.475 86.485 87.583 88.568 88.725 91.02 85.778 85.913 85.918 85.91 86.665 87.663 88.725 88.455 88.253 87.885 87.555 87.303 87.143 87.025 86.903 86.748 86.583 86.448 86.285 86.138 85.998 85.845 85.683 85.518 85.333 85.17 85.023 84.883 84.715 84.525 84.368 84.233 84.048 83.868 83.71 83.563 83.413 83.255 83.058 82.878 82.67 82.483 82.283 82.108 81.948 81.78 81.63 81.465 81.29 81.11 80.93 80.775 80.608 80.435 80.31 80.168 80.063 79.973 79.885 79.715 79.435 78.73 79.455 77.573 76.295 74.94 74.22 72.605 71.643 70.795 70.298 69.18 67.545 66.023 68.84 68.825 64.943 64.893 64.955 64.908 64.855 66.305 65.775 66.62 67.153 67.065 67.075 67.07 66.983 66.965 66.98 67.018 67.118 67.198 67.333 67.472 67.619 67.741 67.857 67.998 68.148 68.31 68.491 68.62 68.768 68.872 68.993 69.058 69.148 69.255 69.355 69.438 69.545 69.65 69.72 69.83 69.913 70.018 70.138 70.238 70.358 70.488 70.625 70.74 70.925 71.075 71.305 71.525 71.785 72.015 72.15 72.32 72.685 73.385 75.028 76.403 77.385 78.088 78.193 78.678 79.285 80.073 80.078 80.148 80.985 81.158 82.198 83.423 84.935 83.085 83.428 82.873 82.785 82.948 83.54 83.045 84.183 84.18 84.59 83.835 85.265 84.125 83.69 83.895 84.355 85.16 86.963 87.555 85.528 85.233 86.36 85.74 85.48 85.53 84.843 85.958 85.08 84.275 84.408 84.718 89.48 88.303 84.498 84.58 85.178 85.453 85.565 85.003 84.713 84.603 84.76 84.995 84.635 84.703 84.848 85.268 85.25 85.698 86.263 85.993 85.99 86.02 86.105 86.19 86.38 86.42 86.498 86.575 86.62 86.652 86.707 86.802 86.857 86.962 87.115 87.267 87.345 87.44 87.525 87.617 87.735 87.855 88.015 88.135 88.49 88.535 88.73 89.392 89.895 90.237 90.245 90.992 91.432 91.27 91.252 91.14 91.15 91.24 91.352 91.492 91.657 91.825 91.977 92.182 92.357 92.515 92.68 92.84
114.18 114.1 114.03 113.935 113.813 113.708 113.598 113.465 113.343 113.25 113.158 113.09 113 112.903 112.823 112.69 112.588 112.465 112.333 112.21 112.075 111.925 111.79 111.64 111.473 111.333 111.165 110.99 110.798 110.623 110.428 110.273 110.075 109.895 109.723 109.543 109.375 109.185 108.99 108.848 108.645 108.44 108.26 108.095 107.838 107.61 107.41 107.168 106.94 106.79 106.593 106.43 106.278 106.093 105.935 105.765 105.598 105.473 105.29 105.055 104.745 104.465 104.223 104.038 103.798 103.633 103.505 103.373 103.165 103.023 102.785 102.575 102.473 102.211 102.044 101.8 101.445 101.191 100.962 100.766 100.58 100.382 100.207 99.985 99.813 99.628 99.453 99.245 99.08 98.865 98.63 98.4 98.173 97.905 97.658 97.423 97.153 96.9 96.67 96.443 96.238 96.033 95.853 95.66 95.46 95.283 95.125 94.985 94.84 94.658 94.5 94.338 94.173 94.04 93.893 93.81 93.723 93.605 93.495 93.418 93.328 93.238 93.153 93.078 93.013 92.92 92.83 92.748 92.68 92.595 92.548 92.515 92.448 92.403 92.345 92.3 92.263 92.218 92.12 92.065 91.993 91.923 91.848 91.79 91.758 91.668 91.605 91.548 91.46 91.418 91.363 91.32 91.273 91.208 91.16 91.09 91.033 91.02 90.98 90.918 90.823 90.803 93.3 96.353 92.75 90.663 90.545 92.313 89.65 93.533 97.965 90.743 87.535 92.435 89.718 89.278 91.793 93.583 97.393 88.513 97.163 92.915 86.285 85.78 85.888 85.938 85.908 86.11 88.243 90.16 90.153 88.238 88.03 87.678 87.395 87.203 87.07 86.95 86.778 86.613 86.475 86.35 86.195 86.04 85.903 85.765 85.598 85.42 85.215 85.075 84.933 84.773 84.6 84.46 84.33 84.18 83.978 83.813 83.683 83.533 83.373 83.208 83.003 82.815 82.62 82.438 82.25 82.088 81.925 81.783 81.618 81.445 81.28 81.085 80.9 80.725 80.553 80.42 80.268 80.113 80.01 79.96 79.808 79.72 79.29 79.405 78.135 77.223 75.813 74.428 73.363 73.558 71.398 70.49 70.033 68.373 66.533 67.148 66.848 65.173 64.888 64.91 64.888 64.86 65.073 66.025 66.11 67.023 66.993 66.973 66.99 66.928 66.9 66.915 66.973 67.073 67.189 67.348 67.463 67.576 67.696 67.828 67.956 68.088 68.262 68.434 68.567 68.725 68.854 68.969 69.059 69.133 69.25 69.363 69.443 69.528 69.618 69.7 69.815 69.92 70.028 70.115 70.21 70.33 70.43 70.55 70.745 70.923 71.13 71.38 71.668 72.53 73.323 72.298 72.425 72.625 73.38 73.658 74.96 75.89 76.788 76.818 77.038 77.813 78.545 78.533 78.533 79.733 79.673 81.163 81.295 81.825 81.775 82.145 80.695 82.583 81.635 82.263 84.875 87.52 85.82 84.633 82.228 83.335 82.958 83.095 83.538 84.48 84.3 87.373 89.608 87.095 84.385 85.758 84.133 84.82 83.635 84.515 87.893 86.963 84.475 83.928 83.598 83.85 84.695 84.373 84.715 84.98 84.675 84.645 84.863 85.213 85.1 85.56 85.765 85.338 84.968 85.348 85.09 85.258 85.928 86.123 86.05 86.063 86.14 86.18 86.24 86.653 86.583 86.753 86.723 86.738 87.11 87.225 87.405 87.372 87.317 87.532 87.585 87.547 87.527 87.585 88.275 88.417 87.947 88.01 88.095 88.187 88.342 88.45 88.59 88.767 88.882 89.027 89.22 89.417 90.17 90.675 91.172 91.795 92.247 92.362 92.135 92.287 92.18 92.152 92.19 92.332 92.495 92.652 92.81
114.188 114.1 114.028 113.94 113.843 113.725 113.615 113.483 113.382 113.27 113.175 113.128 113.023 112.945 112.845 112.748 112.635 112.513 112.37 112.228 112.123 111.99 111.823 111.683 111.548 111.397 111.218 111.06 110.86 110.695 110.518 110.353 110.17 109.975 109.785 109.603 109.418 109.257 109.058 108.88 108.685 108.483 108.29 108.063 107.843 107.663 107.463 107.305 107.118 106.93 106.753 106.565 106.433 106.268 106.128 106.03 105.718 105.383 105.133 104.913 104.69 104.478 104.295 104.125 103.913 103.769 103.622 103.468 103.268 103.124 102.917 102.977 102.394 102.137 101.933 101.657 101.435 101.241 101.037 100.851 100.682 100.498 100.305 100.128 99.93 99.768 99.578 99.385 99.208 98.985 98.793 98.55 98.3 98.045 97.775 97.538 97.265 97.005 96.788 96.555 96.33 96.12 95.955 95.748 95.553 95.373 95.208 95.04 94.91 94.725 94.555 94.388 94.208 94.063 93.948 93.853 93.745 93.655 93.565 93.48 93.375 93.285 93.208 93.16 93.07 92.983 92.905 92.84 92.763 92.705 92.643 92.598 92.543 92.495 92.443 92.368 92.325 92.253 92.175 92.115 92.033 91.94 91.86 91.823 91.765 91.68 91.633 91.575 91.5 91.465 91.42 91.38 91.333 91.265 91.21 91.143 91.06 91.04 90.995 90.963 90.85 90.903 91.51 92.188 93.363 93.4 90.565 91.165 92.2 90.758 93.438 88.553 89.398 92.323 96.9 95.15 96.09 89.12 91.243 89.018 93.383 94.053 89.588 87.15 85.82 85.868 85.865 85.87 86.945 90.203 91.02 88.348 88.158 87.75 87.485 87.278 87.095 86.983 86.833 86.703 86.55 86.413 86.268 86.108 85.963 85.818 85.658 85.498 85.298 85.163 84.995 84.868 84.725 84.563 84.398 84.268 84.13 83.94 83.785 83.635 83.5 83.343 83.133 82.958 82.778 82.575 82.393 82.228 82.08 81.935 81.773 81.613 81.435 81.24 81.048 80.868 80.675 80.533 80.373 80.213 80.045 79.963 79.863 79.758 79.728 79.31 78.55 77.863 77.76 75.545 74.143 73.525 71.86 70.805 70.333 69.243 67.493 65.79 64.93 66.568 64.968 64.813 64.855 64.828 64.825 65 65.78 66.798 67.025 66.88 66.893 66.865 66.84 66.84 66.903 66.99 67.107 67.245 67.376 67.505 67.627 67.793 67.925 68.044 68.205 68.39 68.639 68.807 68.955 69.143 69.271 69.336 69.42 69.52 69.575 69.588 69.73 72.468 70.198 69.935 70.103 70.235 70.313 70.413 70.428 70.583 70.81 70.975 71.105 71.378 71.53 72.02 72.898 73.993 72.458 72.75 72.838 72.873 73.185 73.755 74.453 74.638 74.808 76.068 75.723 76.45 76.633 76.45 76.615 78.488 77.935 79.978 78 78.265 79.228 79.365 79.093 79.648 82.878 85.73 83.803 81.09 80.53 81.31 82.01 82.16 81.988 81.658 81.803 85.54 85.495 83.79 82.878 82.273 82.593 84.96 84.54 83.035 84.783 85.72 83.475 83.598 83.708 83.89 84.263 84.583 84.915 84.673 85.218 86.163 86.698 87.128 88.308 88.478 88.47 88.653 88.568 87.868 87.795 87.668 86.728 86.163 86.513 86.333 86.225 86.43 86.383 86.345 86.21 86.31 86.398 86.423 86.445 86.652 86.975 87.212 87.52 87.777 87.79 87.955 87.85 87.585 89.28 90.182 89.99 89.772 89.882 89.467 89.392 89.087 88.75 88.847 88.947 89.05 89.167 89.292 89.445 89.655 89.842 90.047 90.297 90.707 91.28 91.992 92.467 92.985 93.337 92.975 93.212 92.912 92.875
114.19 114.115 114.035 113.968 113.855 113.74 113.618 113.507 113.423 113.33 113.243 113.147 113.048 112.97 112.873 112.785 112.663 112.548 112.415 112.272 112.175 112.01 111.893 111.748 111.613 111.453 111.293 111.128 110.97 110.778 110.615 110.438 110.235 110.053 109.855 109.678 109.507 109.31 109.088 108.873 108.68 108.495 108.353 108.145 107.965 107.815 107.618 107.433 107.278 107.103 106.933 106.815 106.648 106.373 106.2 105.828 105.573 105.37 105.15 104.925 104.765 104.6 104.408 104.24 104.058 103.896 103.747 103.554 103.391 103.194 103.038 102.998 102.402 102.164 101.939 101.699 101.491 101.294 101.117 100.947 100.773 100.596 100.43 100.245 100.048 99.875 99.698 99.498 99.328 99.1 98.913 98.675 98.4 98.18 97.915 97.663 97.383 97.123 96.858 96.658 96.425 96.203 96.028 95.823 95.623 95.433 95.26 95.11 94.975 94.785 94.625 94.458 94.273 94.128 94.008 93.91 93.808 93.705 93.598 93.52 93.435 93.333 93.255 93.208 93.14 93.068 92.988 92.91 92.855 92.788 92.723 92.66 92.605 92.553 92.503 92.435 92.373 92.303 92.243 92.145 92.058 91.983 91.918 91.863 91.793 91.748 91.673 91.62 91.56 91.508 91.465 91.41 91.368 91.295 91.228 91.155 91.063 91.043 91.005 90.993 90.913 90.843 90.853 90.51 93.023 96.92 91.26 90.57 90.945 92.188 98.538 93.893 94.803 97.668 97.418 91.495 92.08 90 86.613 87.45 91.348 95.91 96.345 89.878 85.713 87.063 87.035 85.833 86.138 88.61 89.213 88.29 88.175 87.915 87.583 87.333 87.133 87.02 86.885 86.765 86.615 86.473 86.328 86.163 86.008 85.88 85.725 85.563 85.418 85.248 85.068 84.96 84.818 84.665 84.508 84.388 84.218 84.075 83.913 83.748 83.608 83.493 83.273 83.093 82.908 82.715 82.553 82.365 82.208 82.043 81.898 81.743 81.558 81.41 81.228 81.03 80.803 80.63 80.465 80.308 80.153 79.993 79.89 79.795 79.65 79.518 79.103 78.423 77.728 76.328 75.045 73.915 72.72 71.375 70.518 69.96 69.25 66.92 65.115 64.993 64.848 64.773 64.773 64.753 64.738 64.763 65.648 66.653 67.115 66.888 66.818 66.785 66.748 66.727 66.781 66.891 66.981 67.136 67.3 67.534 67.718 67.872 68.021 68.12 68.306 68.409 68.593 68.754 68.866 69.043 69.01 69.11 69.43 69.388 69.37 69.243 71.1 73.415 70.835 69.273 69.805 70.125 70.225 71.758 72.57 70.408 70.54 71.278 70.848 70.965 71.23 71.51 73.058 72.075 72.313 72.785 73.313 73.06 73.088 73.225 73.39 73.59 73.715 73.853 74.05 74.3 74.66 75.003 75.195 75.79 75.745 76.155 76.565 76.828 77.085 77.438 77.84 78.273 81.348 81.138 82.133 79.868 79.93 80.208 80.573 80.685 80.968 81.265 81.448 81.623 82.003 81.883 81.96 82.098 82.283 82.805 86.408 85.553 84.683 83.19 83.358 83.6 83.833 84.03 84.725 84.945 87.44 86.688 86.845 90.32 90.77 91.143 91.088 91.05 90.993 90.933 90.868 90.66 90.068 89.548 85.87 86.133 86.758 86.5 86.303 86.463 86.588 86.348 86.175 86.235 86.303 86.305 86.352 86.492 86.647 86.822 87.01 87.2 87.367 87.505 87.485 87.55 89.45 88.477 89.092 89.46 90.85 90.382 89.697 90.1 90.8 91.055 90.942 90.782 90.417 90.047 89.675 89.712 89.845 89.995 90.187 90.36 90.54 90.737 90.912 91.165 91.582 92.067 92.787 93.272 93.43
114.203 114.14 114.058 113.973 113.855 113.75 113.628 113.522 113.433 113.36 113.283 113.175 113.068 112.998 112.89 112.81 112.68 112.575 112.445 112.308 112.185 112.055 111.92 111.778 111.638 111.498 111.368 111.185 111.028 110.865 110.68 110.495 110.315 110.14 109.938 109.735 109.53 109.325 109.123 108.943 108.79 108.613 108.453 108.295 108.098 107.945 107.76 107.623 107.463 107.3 107.08 106.903 106.59 106.285 106.06 105.878 105.658 105.4 105.245 105.083 104.87 104.718 104.548 104.373 104.158 103.989 103.85 103.68 103.464 103.286 103.11 103.035 102.767 102.283 102.022 101.783 101.608 101.418 101.263 101.086 100.895 100.693 100.525 100.358 100.165 100.008 99.82 99.63 99.44 99.225 99.023 98.793 98.54 98.3 98.025 97.748 97.513 97.228 96.95 96.745 96.495 96.278 96.098 95.908 95.71 95.515 95.335 95.173 95.028 94.843 94.675 94.533 94.348 94.168 94.06 93.97 93.838 93.753 93.65 93.57 93.48 93.388 93.29 93.233 93.168 93.113 93.053 92.958 92.895 92.828 92.768 92.698 92.638 92.58 92.513 92.448 92.405 92.35 92.29 92.213 92.15 92.053 91.993 91.928 91.845 91.798 91.723 91.65 91.595 91.533 91.488 91.41 91.373 91.305 91.218 91.153 91.083 91.063 91.023 90.993 90.958 90.865 90.89 90.66 91.44 93.17 91.36 93.38 91.118 94.168 94.93 93.545 91.903 91.445 88.633 91.398 88.075 95.96 95.705 86.645 87.235 94.458 92.88 86.833 85.833 89.65 87.948 85.833 85.958 86.843 87.79 88.168 88.26 88.23 87.698 87.398 87.18 87.06 86.91 86.805 86.675 86.51 86.39 86.235 86.075 85.945 85.813 85.68 85.508 85.36 85.198 85.025 84.933 84.763 84.628 84.493 84.343 84.208 84.035 83.878 83.743 83.605 83.413 83.225 83.03 82.845 82.668 82.48 82.31 82.16 82.01 81.87 81.695 81.538 81.338 81.138 80.923 80.738 80.54 80.37 80.193 80.053 79.933 79.815 79.705 79.628 79.46 78.903 78.1 77.523 77.958 74.983 74.043 72.155 70.82 70.2 69.038 67.263 65.533 65.345 69.23 65.685 64.75 64.76 64.67 64.69 65.325 66.24 67.058 66.945 66.783 66.723 66.632 66.643 66.662 66.756 66.82 66.975 67.358 67.526 67.613 67.744 67.703 67.717 67.659 68.474 67.85 67.804 67.817 67.256 67.442 68.022 68.438 68.737 68.479 68.445 74.8 76.285 69.318 70.333 73.503 71.133 73.54 69.918 71.075 69.72 69.885 70.355 70.698 70.66 70.88 71.263 74.663 76.658 72.213 74.165 72.713 73.858 72.995 73.163 73.353 73.668 73.613 73.773 73.95 74.193 74.48 74.803 75.118 75.393 75.643 76.06 76.37 76.708 77.04 77.36 77.785 78.17 78.595 79.105 79.515 79.915 82.068 80.668 81.023 81.253 81.305 81.548 82.12 82.488 82.73 82.293 82.325 82.795 82.588 82.74 82.95 83.248 84.143 83.4 83.61 84.385 84.145 86.728 87.418 86.588 85.513 84.773 88.433 91.453 91.8 91.83 91.84 91.753 91.765 91.728 91.805 91.83 91.9 89.493 86.043 86.263 86.523 86.128 86.835 86.383 86.285 86.245 86.178 86.175 86.193 86.208 86.317 86.47 86.652 86.867 87.045 87.217 87.332 87.422 87.387 88.72 88.57 88.152 89.07 88.925 88.705 89.085 88.807 89.522 90.792 91.947 92.622 90.067 90.525 90.94 90.14 89.832 89.99 90.08 90.232 90.402 90.592 90.74 90.905 91.085 91.242 91.425 91.617 91.82 92.077
114.2 114.143 114.045 113.953 113.865 113.765 113.668 113.555 113.453 113.37 113.268 113.203 113.08 113.005 112.885 112.798 112.693 112.593 112.48 112.34 112.215 112.088 111.963 111.838 111.688 111.568 111.425 111.245 111.098 110.92 110.743 110.568 110.39 110.185 109.993 109.793 109.613 109.415 109.248 109.08 108.915 108.74 108.563 108.385 108.26 108.113 107.988 107.875 107.603 107.255 107.003 106.775 106.593 106.36 106.133 105.97 105.785 105.565 105.393 105.195 105.023 104.833 104.658 104.44 104.273 104.06 103.915 103.732 103.553 103.342 103.166 103.069 102.982 102.425 102.111 101.916 101.737 101.549 101.395 101.192 101.017 100.81 100.653 100.465 100.288 100.095 99.93 99.705 99.533 99.338 99.13 98.898 98.64 98.41 98.148 97.848 97.603 97.3 97.053 96.805 96.588 96.348 96.173 95.978 95.805 95.613 95.445 95.253 95.11 94.943 94.775 94.605 94.448 94.273 94.135 94.003 93.898 93.793 93.705 93.618 93.515 93.415 93.335 93.258 93.19 93.133 93.055 92.98 92.928 92.858 92.795 92.72 92.658 92.603 92.57 92.485 92.458 92.415 92.34 92.288 92.225 92.128 92.033 91.965 91.895 91.823 91.765 91.67 91.578 91.53 91.47 91.415 91.355 91.313 91.245 91.2 91.138 91.078 91.04 91.003 90.995 90.92 90.855 90.89 90.765 94.763 96.245 98.645 97.28 90.735 89.898 93.388 92.51 92.213 88.66 87.128 88.888 96.368 90.943 89.42 91.895 92.67 86.868 86.805 90.683 88.18 87.783 85.803 85.818 86.343 87.245 88.105 88.34 88.338 87.855 87.485 87.253 87.083 86.958 86.84 86.743 86.595 86.453 86.328 86.168 86.013 85.888 85.775 85.618 85.463 85.29 85.125 85.003 84.86 84.743 84.6 84.435 84.313 84.155 83.995 83.853 83.683 83.515 83.343 83.155 82.993 82.778 82.618 82.413 82.245 82.105 81.978 81.81 81.638 81.45 81.24 81.03 80.843 80.645 80.445 80.27 80.125 80 79.858 79.768 79.693 79.573 79.353 78.948 78.63 79.363 75.673 74.133 72.66 71.36 70.368 69.26 68.05 66.795 66.138 68.09 67.163 66.873 64.7 64.64 64.65 65.023 66.283 66.968 67.045 66.89 66.569 66.502 66.471 66.443 66.447 66.352 66.089 66.007 67.309 70.679 67.852 66.02 66.095 66.305 66.293 66.061 66.496 66.108 65.865 66.192 66.812 67.251 67.314 67.212 68.317 68.773 66.508 66.838 70.323 70.085 69.158 70.545 71.46 69.458 69.928 70.043 70.308 70.593 71.218 70.88 70.91 72.435 76.34 72.33 73.583 72.593 72.048 72.05 72.343 72.22 72.51 72.883 73.585 74.278 73.94 74.035 74.675 75.228 75.71 76.343 76.225 76.803 76.99 77.36 77.378 77.758 78.36 78.54 79.213 80.048 80.93 81.785 81.483 81.548 81.74 81.478 81.61 83.243 82.97 82.87 84.855 82.805 84.465 82.8 83.018 83.338 84.743 84.08 84.318 83.633 85.64 85.028 85.388 85.1 84.453 84.118 84.148 85.695 87.34 88.16 88.82 89.433 89.068 88.578 88.468 89.3 90.403 91.19 89.47 85.313 85.6 87.755 91.375 87.573 86.138 86.393 86.09 85.988 85.95 85.973 86.103 86.29 86.477 86.712 86.882 87.017 87.1 87.165 87.235 87.355 87.495 88.427 88.58 89.035 88.88 88.54 88.612 88.685 91.812 95.55 96.12 95.015 90.282 90.53 89.977 89.84 89.982 90.365 90.542 90.387 90.5 90.645 90.79 90.93 91.145 91.402 91.58 91.722 91.867 91.98
114.2 114.15 114.045 113.958 113.858 113.763 113.683 113.563 113.48 113.388 113.295 113.208 113.1 113.003 112.913 112.82 112.703 112.6 112.49 112.363 112.245 112.128 112.007 111.895 111.738 111.618 111.453 111.3 111.155 111.003 110.81 110.61 110.428 110.228 110.068 109.9 109.733 109.57 109.403 109.23 109.07 108.86 108.69 108.638 108.448 108.253 108.08 107.745 107.503 107.3 107.055 106.835 106.69 106.493 106.313 106.12 105.908 105.703 105.508 105.35 105.13 104.928 104.72 104.528 104.322 104.146 103.99 103.809 103.638 103.411 103.255 103.149 103.033 102.593 102.249 102.058 101.875 101.692 101.505 101.339 101.14 100.948 100.758 100.568 100.413 100.203 100.015 99.84 99.625 99.448 99.228 98.993 98.743 98.503 98.235 97.948 97.695 97.423 97.168 96.9 96.675 96.453 96.25 96.085 95.893 95.705 95.54 95.378 95.205 95.05 94.875 94.705 94.53 94.37 94.198 94.065 93.923 93.825 93.738 93.643 93.55 93.445 93.348 93.283 93.198 93.123 93.07 93.023 92.93 92.873 92.785 92.77 92.703 92.66 92.62 92.555 92.515 92.463 92.378 92.318 92.25 92.155 92.063 91.988 91.923 91.813 91.743 91.673 91.613 91.538 91.47 91.423 91.375 91.32 91.25 91.213 91.158 91.105 91.065 91.025 91.005 90.965 90.878 90.895 91.04 95.023 93.9 91.97 93.343 91.44 91.715 90.483 94.378 90.68 87.26 87.073 86.875 87.018 89.188 88.86 92.003 93.643 89.12 85.998 86.828 89.555 88.755 88.763 85.758 85.913 86.878 87.778 88.183 88.15 87.985 87.64 87.31 87.113 86.998 86.89 86.798 86.713 86.538 86.39 86.263 86.098 85.97 85.855 85.725 85.558 85.403 85.233 85.073 84.96 84.84 84.673 84.533 84.43 84.258 84.11 83.945 83.783 83.61 83.438 83.275 83.1 82.895 82.71 82.51 82.325 82.188 82.05 81.878 81.718 81.545 81.345 81.135 80.945 80.73 80.53 80.365 80.2 80.085 79.953 79.828 79.723 79.643 79.548 79.288 78.768 77.903 76.608 75.318 73.34 72.02 70.78 69.855 68.903 69.01 66.07 72.25 68.843 67.453 64.663 64.628 64.635 64.835 65.875 66.753 67.375 67.115 66.975 66.116 66.17 66.253 66.472 66.63 67.143 66.753 71.788 73.132 71.392 66.06 65.448 65.497 65.466 65.478 65.502 65.573 65.819 66.197 66.118 66.537 66.451 66.3 66.727 66.135 66.275 66.6 67.29 67.993 68.833 72.105 71.483 77.99 71.555 70.003 70.238 70.455 70.903 70.913 71.378 71.825 72.545 72.053 72.678 71.908 71.673 71.27 71.305 71.575 71.835 72.878 74.29 74.9 74.375 73.43 74.073 75.2 76.533 76.185 76.51 77.763 77.058 78.475 77.885 77.365 77.768 78.118 79.575 81.44 80.813 81.185 80.755 81.12 81.06 81.11 82.893 86.258 82.473 82.298 82.313 82.183 87.095 87.655 84.543 83.603 83.638 83.213 85.013 87.378 86.588 86.158 86.288 83.663 83.595 83.798 83.938 84.135 84.28 84.433 86.218 87.368 87.37 85.323 84.5 84.713 87.138 88.643 86.678 84.985 85.768 91.723 93.345 88.35 86.083 86.205 86.148 85.578 86.975 85.785 85.91 86.185 86.362 86.545 86.697 86.845 86.93 86.995 87.177 87.285 87.475 87.867 88.372 88.482 88.362 88.442 88.572 88.725 90.335 95.345 96.19 95.6 91.46 89.74 89.822 90.252 90.435 90.682 90.82 90.665 90.7 90.777 90.872 91.252 91.9 92.18 92.18 92.507 92.875 93.105
114.203 114.138 114.048 113.935 113.863 113.757 113.688 113.565 113.485 113.39 113.318 113.223 113.125 113.01 112.925 112.838 112.733 112.618 112.515 112.415 112.3 112.198 112.045 111.943 111.795 111.648 111.495 111.348 111.19 111.045 110.828 110.618 110.528 110.338 110.203 110.025 109.873 109.72 109.555 109.36 109.193 109.025 108.943 108.745 108.39 108.168 107.953 107.763 107.593 107.34 107.215 107 106.823 106.65 106.443 106.265 106.053 105.848 105.663 105.43 105.23 104.98 104.803 104.578 104.382 104.212 104.032 103.863 103.699 103.501 103.31 103.168 103.125 102.884 102.381 102.158 102.004 101.824 101.647 101.463 101.255 101.06 100.863 100.683 100.505 100.298 100.12 99.925 99.73 99.543 99.325 99.103 98.86 98.633 98.355 98.06 97.808 97.538 97.268 97.018 96.795 96.548 96.333 96.178 96.008 95.833 95.658 95.473 95.313 95.15 94.953 94.775 94.6 94.428 94.243 94.09 93.95 93.85 93.753 93.68 93.53 93.433 93.353 93.295 93.203 93.155 93.095 93.03 92.965 92.913 92.855 92.833 92.765 92.718 92.66 92.618 92.535 92.483 92.41 92.355 92.268 92.185 92.1 92.005 91.9 91.83 91.768 91.695 91.63 91.568 91.495 91.45 91.403 91.338 91.285 91.223 91.15 91.105 91.063 91.03 90.995 91.01 90.928 90.915 90.828 92.17 93.328 94.308 92.985 90.38 90.383 89.873 94.778 93.958 91.828 88.118 87.923 89.398 93.64 92.905 87.2 86.825 90.585 86.845 87.858 92.16 89.255 88.875 85.725 85.738 86.873 87.578 88.168 88.185 88.058 87.81 87.425 87.193 87.033 86.925 86.855 86.76 86.64 86.485 86.353 86.18 86.038 85.898 85.785 85.645 85.498 85.343 85.163 85.023 84.903 84.733 84.6 84.518 84.358 84.175 84.043 83.87 83.72 83.548 83.375 83.195 82.998 82.795 82.583 82.398 82.268 82.11 81.945 81.778 81.625 81.443 81.238 81.053 80.848 80.663 80.463 80.308 80.153 80.02 79.91 79.788 79.703 79.625 79.533 79.088 78.27 79.978 77.52 74.033 72.838 71.99 70.393 69.665 68.96 67.695 70.485 65.478 64.688 65.205 64.693 64.605 64.655 65.19 66.303 67.337 67.334 67.242 66.262 66.131 66.215 66.694 66.516 67.218 68.182 70.745 71.958 69.458 66.051 65.463 65.565 65.572 65.734 65.949 65.761 65.925 65.664 65.713 65.71 65.785 65.908 67.878 66.788 67.593 66.903 67.528 68.31 68.793 69.02 72.165 73.18 69.91 69.853 69.988 70.36 70.695 70.983 71.475 71.438 71.61 71.488 71.37 71.468 71.578 71.063 70.913 70.75 71.165 72.628 74.745 73.745 72.778 73.37 73.815 74.693 75.713 76.585 76.363 76.838 76.78 77.165 77.685 77.295 77.63 78.135 78.33 78.725 80.848 79.585 80.105 81.208 80.728 80.985 81.085 84.093 82.623 81.865 81.8 83.423 90.21 92.913 87.6 84.86 82.883 83.1 89.048 95.378 90.135 86.115 85.623 83.64 83.56 83.628 83.735 83.993 84.203 84.26 84.238 84.5 84.57 85.105 84.52 84.448 87.37 87.993 85.418 84.595 84.743 87.258 87.92 86.113 85.658 86.15 85.84 85.553 87.355 85.525 85.69 85.95 86.197 86.36 86.545 86.71 86.827 86.947 87.105 87.29 87.452 87.685 88.285 88.632 88.43 88.5 88.615 88.755 90.022 94.597 96.3 95.917 93.57 89.782 89.877 91.98 91.385 90.757 90.805 90.82 90.79 90.847 91.215 91.967 92.542 92.485 92.282 92.407 92.875 93.655
114.195 114.115 114.03 113.93 113.835 113.74 113.665 113.558 113.483 113.4 113.308 113.223 113.128 113.05 112.938 112.865 112.757 112.647 112.535 112.445 112.333 112.192 112.073 111.958 111.818 111.683 111.51 111.375 111.218 111.043 110.885 110.768 110.632 110.475 110.328 110.15 110.02 109.863 109.683 109.595 109.308 108.968 108.795 108.605 108.395 108.188 107.983 107.825 107.7 107.518 107.325 107.13 106.948 106.793 106.59 106.398 106.18 105.93 105.74 105.53 105.313 105.083 104.89 104.695 104.504 104.301 104.136 103.97 103.746 103.561 103.369 103.209 103.161 103.096 102.524 102.265 102.106 101.944 101.767 101.573 101.375 101.175 100.963 100.785 100.6 100.395 100.218 100.03 99.825 99.65 99.443 99.23 98.978 98.735 98.485 98.21 97.93 97.658 97.373 97.123 96.903 96.673 96.473 96.26 96.115 95.92 95.753 95.578 95.36 95.203 95.028 94.858 94.668 94.483 94.295 94.125 93.99 93.873 93.765 93.67 93.543 93.465 93.368 93.29 93.218 93.18 93.12 93.063 93.028 92.985 92.893 92.845 92.78 92.75 92.645 92.603 92.545 92.485 92.415 92.35 92.288 92.198 92.103 92.028 91.938 91.86 91.825 91.735 91.64 91.565 91.518 91.468 91.408 91.348 91.308 91.228 91.158 91.115 91.05 91.033 91.02 91.025 90.975 90.933 90.948 90.673 91.06 90.84 93.238 96.118 96.333 89.155 95.175 93.96 93.46 94.408 95.708 95.795 92.675 89.708 86.235 86.588 88.188 93.203 87.39 89.493 85.693 86.38 86.248 85.685 85.91 88.89 88.878 88.413 88.108 87.99 87.58 87.285 87.1 86.985 86.9 86.798 86.708 86.593 86.44 86.268 86.12 85.968 85.835 85.698 85.575 85.428 85.248 85.08 84.943 84.793 84.673 84.555 84.435 84.28 84.115 83.953 83.8 83.623 83.44 83.25 83.088 82.868 82.663 82.478 82.335 82.175 82.033 81.86 81.71 81.55 81.35 81.145 80.965 80.763 80.568 80.368 80.213 80.093 79.98 79.87 79.75 79.678 79.61 79.368 78.64 78.183 76.24 74.713 73.98 73.02 71.173 70.323 69.885 69.205 67.738 65.233 64.825 67.403 66.433 64.618 64.668 64.753 65.375 66.365 67.001 67.421 66.802 67.46 66.689 65.803 65.974 65.81 65.508 65.391 66.659 67.599 65.451 65.774 65.719 65.618 65.733 65.598 65.472 65.459 65.454 65.408 65.384 65.325 65.581 66.446 66.543 67.154 66.283 66.69 67.35 70.26 68.67 68.883 68.865 69.47 69.64 69.903 69.665 70.205 71.25 70.88 71.278 71.353 71.21 71.12 71.205 71.615 71.035 70.645 70.323 70.478 71.37 72.288 72.01 71.985 73.35 73.31 73.69 73.8 76.595 77.528 76.873 76.105 76.498 77.158 77.755 77.448 77.88 80.498 78.665 80.39 79.513 81.425 79.778 80.658 80.863 80.605 80.948 81.348 81.438 81.735 81.85 82.845 87.07 83.768 83.695 82.833 84.538 91.865 94.02 88.723 84.56 84.79 83.743 83.66 83.513 83.573 83.755 83.933 84.12 84.52 84.563 84.25 84.428 84.44 84.433 84.863 85.445 84.338 84.435 84.485 84.503 84.725 84.675 85.01 87.115 84.853 84.945 85.165 85.393 85.493 85.797 86.047 86.217 86.425 86.585 86.835 86.955 87.08 87.267 87.425 87.61 88.13 89.01 88.505 88.625 88.732 88.84 89.157 93.627 95.66 96.007 94.98 89.887 89.84 91.545 91.877 90.862 91.645 91.042 90.847 90.912 91.685 92.645 92.53 92.5 92.295 92.362 92.46 92.642
114.183 114.1 113.98 113.908 113.805 113.728 113.663 113.573 113.498 113.423 113.323 113.235 113.128 113.053 112.968 112.868 112.77 112.663 112.56 112.448 112.33 112.218 112.1 111.963 111.838 111.688 111.515 111.365 111.273 111.168 111.037 110.9 110.763 110.615 110.465 110.35 110.138 109.938 109.74 109.475 109.225 109.025 108.813 108.678 108.503 108.315 108.135 107.933 107.81 107.63 107.463 107.275 107.088 106.878 106.67 106.433 106.258 106.008 105.79 105.595 105.38 105.195 105.003 104.803 104.562 104.407 104.198 104.008 103.822 103.627 103.465 103.268 103.167 103.191 102.736 102.371 102.199 102.011 101.863 101.66 101.485 101.258 101.065 100.875 100.69 100.505 100.325 100.135 99.938 99.74 99.545 99.323 99.078 98.855 98.583 98.348 98.078 97.783 97.54 97.295 97.005 96.783 96.57 96.353 96.203 96.023 95.833 95.633 95.433 95.258 95.095 94.918 94.703 94.513 94.363 94.163 94.02 93.9 93.778 93.673 93.583 93.52 93.415 93.343 93.28 93.225 93.165 93.113 93.048 92.988 92.93 92.87 92.805 92.73 92.69 92.62 92.553 92.5 92.428 92.358 92.288 92.238 92.153 92.073 91.975 91.908 91.835 91.76 91.65 91.59 91.543 91.478 91.398 91.358 91.285 91.233 91.175 91.14 91.098 91.07 91.055 91.055 91.05 90.978 91.028 90.748 90.98 92.148 93.433 97.898 94.375 90.035 87.978 88.093 87.303 90.903 87.475 89.635 89.725 87.615 88.353 86.14 87.448 88.255 86.398 85.705 85.633 88.24 88.488 85.698 85.703 88.46 88.86 88.21 88.188 88.103 87.858 87.418 87.185 87.055 86.943 86.825 86.74 86.643 86.5 86.335 86.178 86.005 85.87 85.73 85.633 85.503 85.35 85.183 84.998 84.878 84.773 84.66 84.51 84.36 84.198 84.025 83.878 83.683 83.498 83.303 83.148 82.958 82.768 82.57 82.39 82.253 82.093 81.943 81.793 81.633 81.463 81.263 81.09 80.858 80.675 80.475 80.308 80.158 80.038 79.945 79.82 79.705 79.635 79.535 79.11 78.195 76.713 75.725 77.49 74.95 72.128 70.938 70.338 69.83 68.788 66.56 67.19 69.508 65.925 64.663 64.648 64.635 64.95 65.315 65.809 65.95 65.602 65.731 65.363 65.406 65.597 65.661 65.638 65.381 66.847 66.425 65.48 65.403 65.435 65.421 65.375 65.232 65.409 65.24 65.144 65.419 65.205 64.934 64.81 64.93 64.998 65.115 65.59 66.265 66.64 67.823 69.635 71.248 68.12 68.555 68.55 68.835 69.188 69.05 69.273 69.42 69.77 70.333 70.69 71.203 71.26 71.613 71.235 70.698 70.305 70.41 71.425 72.495 71.508 71.458 71.91 72.448 72.925 72.91 75.575 77.655 77.61 77.1 75.528 75.693 76.218 76.325 76.515 77.773 78.028 79.535 79.923 79.058 79.473 79.703 80.123 80.168 80.378 80.848 81.075 81.495 81.89 81.918 84.2 84.325 84.425 84.693 85.315 87.085 86.668 85.375 83.065 82.615 83.4 83.313 83.223 83.343 83.733 83.673 83.665 83.798 83.975 83.938 83.948 84.108 84.173 84.255 84.275 84.328 84.38 84.388 84.373 84.485 84.438 84.425 84.543 84.565 84.663 84.848 85.063 85.373 85.627 85.845 86.052 86.287 86.487 86.76 86.957 87.102 87.285 87.427 87.597 87.985 88.522 88.58 88.715 88.797 88.867 88.945 90.925 95.415 96.11 95.42 90.825 89.797 90.67 91.925 90.865 91.477 91.542 90.915 90.985 91.78 92.395 92.45 92.397 92.22 92.35 92.515 92.687
114.147 114.058 113.935 113.868 113.795 113.708 113.618 113.54 113.473 113.41 113.338 113.26 113.16 113.062 112.985 112.88 112.795 112.68 112.553 112.463 112.335 112.21 112.068 111.935 111.805 111.713 111.605 111.498 111.393 111.278 111.135 111.02 110.897 110.79 110.578 110.37 110.083 109.833 109.67 109.485 109.27 109.05 108.95 108.795 108.6 108.45 108.273 108.073 107.9 107.723 107.525 107.343 107.158 106.94 106.758 106.523 106.323 106.11 105.878 105.673 105.5 105.283 105.09 104.87 104.667 104.471 104.298 104.092 103.888 103.692 103.53 103.347 103.221 103.194 103.012 102.479 102.284 102.133 101.975 101.768 101.58 101.37 101.155 100.99 100.793 100.615 100.42 100.24 100.04 99.828 99.635 99.443 99.208 98.95 98.7 98.458 98.198 97.918 97.645 97.385 97.14 96.905 96.678 96.473 96.27 96.105 95.905 95.703 95.508 95.32 95.14 94.96 94.785 94.6 94.41 94.228 94.075 93.943 93.84 93.768 93.648 93.563 93.448 93.385 93.3 93.228 93.185 93.133 93.048 93.02 92.975 92.895 92.81 92.738 92.69 92.648 92.578 92.508 92.45 92.383 92.33 92.26 92.185 92.093 92.013 91.93 91.848 91.77 91.67 91.633 91.545 91.475 91.408 91.35 91.318 91.27 91.215 91.175 91.135 91.11 91.118 91.095 91.053 90.988 91.008 90.908 90.733 91.393 94.428 94.568 96.548 92.205 88.35 88.993 95.11 87.563 88.045 96.91 95.648 86.39 89.83 90.03 91.753 93.318 88.26 86.335 86.478 85.833 87.603 85.753 85.698 86.313 87.21 88.053 88.19 88.15 88.018 87.588 87.283 87.105 87 86.865 86.773 86.68 86.575 86.423 86.26 86.07 85.96 85.808 85.703 85.57 85.43 85.265 85.098 84.963 84.823 84.728 84.558 84.408 84.28 84.098 83.928 83.735 83.58 83.388 83.203 83.035 82.845 82.643 82.455 82.32 82.168 82.025 81.873 81.705 81.553 81.38 81.165 80.965 80.785 80.613 80.405 80.218 80.083 80 79.91 79.74 79.663 79.61 79.45 78.985 77.343 78.05 80.578 74.785 72.625 71.6 70.788 70.183 69.735 68.258 65.888 65.053 64.65 64.668 64.645 64.733 65.027 65.107 65.156 65.67 65.316 65.244 65.241 65.308 65.523 65.959 65.574 65.465 65.498 65.481 66.009 65.342 65.304 65.209 65.603 65.496 65.022 65.791 65.812 64.894 65.121 66.482 66.313 65.291 64.507 65.108 65.72 65.728 65.995 66.335 67.35 68.723 67.445 67.573 67.943 67.89 67.99 67.795 68.413 69.155 68.73 69.653 70.285 70.403 70.828 70.9 70.658 70.645 70.15 70.273 71.868 71.81 71.12 70.978 71.143 71.685 73.298 72.645 72.603 75.088 73.983 74.17 74.088 74.183 74.538 74.89 75.52 76.518 77.745 78.12 78.798 78.52 78.95 79.068 79.533 79.755 80.013 80.405 80.933 81.66 81.963 81.958 83.98 84.08 84.428 84.458 84.553 84.535 84.518 84.508 82.585 82.943 83.375 82.86 82.928 83.11 83.3 83.583 83.35 83.525 83.655 83.805 83.908 84.01 84.108 84.163 84.2 84.238 84.208 84.163 84.683 84.273 84.71 84.183 84.26 84.33 84.465 84.613 84.81 85.05 85.367 85.627 85.97 86.197 86.375 86.695 86.945 87.092 87.28 87.442 87.63 87.885 88.95 88.6 88.742 88.797 88.86 88.962 90.057 94.517 96.052 95.707 92.345 89.75 89.852 91.672 91.072 91.327 91.22 91.01 91.037 91.932 92.462 92.517 92.58 92.257 92.375 92.532 92.745
114.12 114 113.915 113.82 113.757 113.697 113.627 113.555 113.48 113.417 113.332 113.262 113.16 113.072 112.992 112.925 112.817 112.692 112.55 112.46 112.307 112.172 112.057 111.967 111.882 111.807 111.71 111.602 111.505 111.395 111.242 111.145 110.862 110.667 110.445 110.262 110.06 109.862 109.652 109.535 109.385 109.225 109.062 108.912 108.725 108.575 108.405 108.192 107.995 107.782 107.582 107.362 107.207 107.002 106.8 106.617 106.39 106.235 105.965 105.782 105.605 105.36 105.16 104.932 104.757 104.529 104.383 104.18 103.967 103.767 103.615 103.431 103.28 103.226 103.176 102.613 102.364 102.211 102.035 101.86 101.67 101.465 101.26 101.062 100.86 100.695 100.512 100.315 100.115 99.94 99.73 99.532 99.305 99.07 98.807 98.565 98.297 98.052 97.785 97.49 97.24 96.985 96.777 96.557 96.337 96.172 95.982 95.775 95.567 95.365 95.197 95.042 94.865 94.687 94.507 94.335 94.157 93.995 93.897 93.79 93.695 93.58 93.5 93.407 93.337 93.235 93.215 93.157 93.1 93.047 92.977 92.925 92.85 92.767 92.702 92.647 92.58 92.535 92.455 92.39 92.34 92.262 92.192 92.127 92.05 91.952 91.87 91.78 91.705 91.632 91.545 91.502 91.435 91.415 91.36 91.342 91.3 91.257 91.222 91.197 91.14 91.13 91.092 91.052 91.025 91.077 90.627 91.127 91.972 92.422 91.465 93.327 89.162 89.592 95.8 94.21 87.015 92.345 92.94 87.385 86.307 86.007 88.967 88.94 87.635 87.525 90.912 87.942 93.205 88.602 85.672 85.75 86.825 87.857 88.227 88.202 88.165 87.767 87.43 87.187 87.047 86.93 86.82 86.725 86.62 86.507 86.315 86.145 86.01 85.887 85.747 85.64 85.505 85.33 85.185 85.025 84.89 84.76 84.607 84.457 84.322 84.162 83.99 83.825 83.64 83.467 83.252 83.1 82.927 82.745 82.562 82.387 82.242 82.107 81.965 81.78 81.625 81.45 81.275 81.085 80.885 80.692 80.49 80.33 80.16 80.05 79.975 79.83 79.692 79.63 79.527 79.6 78.807 77.912 76.9 74.882 73.167 72.31 71.297 70.625 70.07 69.512 67.917 65.787 64.79 66.082 64.645 66.298 65.276 64.96 65.11 65.162 65.532 65.004 65.021 65.109 65.542 65.545 65.63 65.672 65.509 65.64 65.222 65.155 64.94 65.162 66.21 65.927 64.399 67.539 65.883 66.406 68.152 66.295 66.63 64.958 64.177 65.453 65.487 65.382 65.225 65.822 69.757 69.37 66.637 66.66 67.232 67.545 67.142 67.687 67.875 68.25 68.292 68.53 68.702 68.99 70.485 69.44 69.507 69.605 69.772 70.21 71.07 71.197 70.72 70.72 71.055 71.115 71.932 72.627 72.017 73.762 74.44 72.51 72.525 72.82 73.735 74.09 75.072 75.347 76.032 76.917 77.877 78.925 78.262 78.442 78.587 79.1 79.66 79.732 80.55 82.115 81.89 81.882 82.942 82.192 82.14 82.64 83.175 83.467 82.917 83.075 82.24 82.275 82.502 82.735 82.81 82.987 83.082 83.185 83.327 83.495 83.615 83.765 83.895 83.962 84.017 84.025 84.002 84 84.485 84 83.927 84.01 84.087 84.04 84.082 84.172 84.322 84.43 84.617 84.87 85.13 85.43 85.775 86.052 86.322 86.637 86.845 87.065 87.267 87.445 87.632 87.862 88.45 88.785 88.732 88.81 88.89 88.97 89.155 93.315 95.907 95.92 94.042 89.822 89.817 90.502 90.94 91.62 91.455 91.07 91.1 91.535 92.467 92.487 92.642 92.382 92.415 92.55 92.772
114.055 113.98 113.872 113.81 113.745 113.68 113.62 113.54 113.482 113.402 113.312 113.237 113.172 113.107 112.992 112.922 112.817 112.67 112.527 112.427 112.322 112.245 112.152 112.06 111.977 111.88 111.812 111.722 111.547 111.472 111.247 110.972 110.807 110.605 110.44 110.302 110.07 109.95 109.787 109.655 109.492 109.32 109.182 109.002 108.817 108.642 108.427 108.242 108.05 107.822 107.652 107.467 107.28 107.115 106.9 106.705 106.46 106.29 106.055 105.842 105.635 105.427 105.192 104.99 104.812 104.611 104.437 104.256 104.058 103.851 103.699 103.513 103.351 103.287 103.258 102.825 102.46 102.292 102.115 101.95 101.747 101.547 101.367 101.157 100.965 100.795 100.602 100.38 100.195 99.995 99.812 99.622 99.4 99.155 98.905 98.675 98.427 98.155 97.87 97.592 97.325 97.09 96.862 96.64 96.407 96.23 96.047 95.845 95.657 95.472 95.277 95.11 94.922 94.772 94.58 94.39 94.205 94.077 93.935 93.825 93.732 93.627 93.537 93.452 93.365 93.315 93.257 93.195 93.132 93.08 93.027 92.962 92.895 92.82 92.737 92.667 92.607 92.522 92.48 92.41 92.33 92.275 92.21 92.122 92.045 91.96 91.9 91.817 91.755 91.687 91.63 91.597 91.53 91.482 91.467 91.422 91.36 91.29 91.257 91.222 91.157 91.135 91.127 91.09 90.997 91.042 90.772 91.075 95.642 94.867 90.76 96.655 93.885 90.515 96.695 92.12 95.557 92.637 91.867 92.702 93.832 86.022 91.577 86.145 89.152 88.702 87.587 87.107 86.562 86.142 85.672 85.7 86.49 87.72 88.087 88.22 88.19 88.032 87.552 87.292 87.122 86.987 86.875 86.805 86.685 86.56 86.422 86.232 86.067 85.942 85.815 85.67 85.552 85.405 85.262 85.092 84.935 84.805 84.655 84.492 84.347 84.21 84.047 83.862 83.702 83.517 83.327 83.177 82.99 82.815 82.66 82.46 82.305 82.165 82.007 81.852 81.695 81.532 81.38 81.182 80.972 80.795 80.61 80.42 80.277 80.105 79.992 79.91 79.792 79.647 79.562 79.42 79.76 78.24 78.357 80.32 73.84 72.72 71.787 71.092 70.49 69.882 69.407 67.642 66.792 70.4 67.165 70.152 65.432 65.109 65.168 65.075 64.613 64.631 64.647 64.861 65.725 65.222 65.623 65.535 65.262 65.209 64.912 65.086 65.829 68.276 67.851 65.109 64.898 65.211 64.375 64.151 65.152 66.718 65.335 64.286 63.944 65.136 64.651 64.24 65.245 67.082 71.885 72.195 68.425 66.877 67.28 66.42 66.365 68.64 67.097 67.39 67.747 67.97 69.077 68.732 70 69.78 69.27 69.16 69.4 70.022 70.59 70.707 70.592 70.572 71.927 71.805 72.035 71.49 71.38 72.047 71.905 71.267 71.22 71.185 71.892 74.427 73.09 74.387 75.245 75.962 78.637 79.172 78.62 78.232 77.55 77.795 79.542 78.892 79.527 81.975 81.615 81.477 82.092 82.26 82.495 82.512 82.26 82.127 82.222 82.532 82.375 82.38 82.542 82.685 82.747 82.92 83.042 83.167 83.297 83.445 83.57 83.665 83.782 83.827 83.84 83.81 83.737 83.705 83.772 83.685 83.752 83.847 83.98 83.892 83.977 84.082 84.19 84.265 84.432 84.675 84.965 85.285 85.607 85.912 86.182 86.492 86.757 87.012 87.22 87.397 87.557 87.735 89.035 89.155 88.847 88.897 88.862 88.965 89.417 91.855 95.727 96.237 95.355 90.407 89.787 90.66 92.425 91.795 91.497 91.242 91.157 91.282 92.705 92.79 92.637 92.387 92.492 92.655 92.802
114.022 113.942 113.862 113.795 113.73 113.667 113.597 113.51 113.45 113.375 113.337 113.252 113.177 113.102 112.975 112.9 112.822 112.7 112.58 112.497 112.415 112.33 112.22 112.147 112.07 112.005 111.892 111.697 111.407 111.292 111.147 110.972 110.772 110.605 110.507 110.362 110.2 110.065 109.917 109.752 109.61 109.415 109.257 109.085 108.89 108.672 108.485 108.277 108.105 107.917 107.71 107.57 107.36 107.17 106.957 106.777 106.572 106.357 106.152 105.947 105.705 105.512 105.292 105.08 104.887 104.685 104.502 104.338 104.131 103.96 103.792 103.629 103.469 103.337 103.296 103.032 102.547 102.352 102.187 102.035 101.845 101.645 101.452 101.23 101.057 100.86 100.667 100.477 100.272 100.067 99.88 99.695 99.475 99.227 99.01 98.772 98.502 98.227 97.96 97.68 97.422 97.167 96.94 96.717 96.502 96.32 96.127 95.94 95.737 95.54 95.355 95.195 95.03 94.852 94.637 94.46 94.29 94.107 93.99 93.885 93.767 93.677 93.58 93.5 93.435 93.355 93.295 93.25 93.175 93.117 93.065 92.982 92.902 92.837 92.762 92.702 92.63 92.542 92.482 92.407 92.34 92.277 92.235 92.14 92.065 92.012 91.95 91.895 91.857 91.765 91.707 91.67 91.612 91.565 91.497 91.435 91.397 91.347 91.282 91.225 91.175 91.14 91.13 91.115 91.025 91.02 91.035 91.112 94.22 91.26 94.277 94.63 96.405 89.592 97.285 95.462 94.912 92.302 93.817 92.285 92.662 94.292 90.272 88.08 93.942 91.332 85.265 85.545 85.735 85.66 85.665 85.68 85.842 86.75 87.79 88.277 88.272 88.217 87.77 87.392 87.205 87.052 86.945 86.867 86.735 86.615 86.487 86.317 86.16 86.007 85.86 85.722 85.58 85.452 85.302 85.157 85.005 84.837 84.685 84.527 84.407 84.28 84.125 83.96 83.767 83.607 83.442 83.257 83.072 82.882 82.73 82.537 82.345 82.21 82.057 81.89 81.75 81.605 81.462 81.272 81.087 80.91 80.717 80.54 80.367 80.2 80.085 79.98 79.857 79.71 79.605 79.482 80.032 81.44 77.762 76.91 74.737 73.497 72.37 71.655 71.132 70.295 69.735 69.115 67.41 69.3 71.128 70.847 67.389 66.988 68.022 65.151 64.52 64.494 64.482 64.813 65.819 64.78 65.729 66.017 66.166 65.14 65.15 67.955 70.817 70.15 69.27 66.133 64.179 64.167 64.082 64.09 64.057 64.242 64.136 63.965 63.996 64.051 64.174 64.017 68.257 67.725 71.472 67.76 70.18 66.3 66.65 69.13 69.322 72.55 66.262 66.535 66.92 67.152 67.545 68.037 68.857 69.482 69.395 68.8 68.987 69.925 70.595 70.357 70.36 70.602 71.132 70.605 70.502 70.767 71.02 70.65 70.87 70.46 70.512 70.33 70.485 71.222 72.532 74.347 76.095 75.697 75.685 75.995 76.08 77.325 76.71 76.972 77.735 77.91 78.437 79.79 79.897 80.262 81.305 82.09 82.29 82.29 82.155 82.252 82.207 82.325 82.367 82.35 82.505 82.597 82.645 82.832 82.987 83.112 83.217 83.347 83.442 83.53 83.605 83.62 83.602 83.55 83.485 84.077 83.467 83.42 83.517 83.602 83.707 83.805 83.927 83.995 84.115 84.245 84.45 84.677 84.882 85.177 85.48 85.78 86.017 86.33 86.647 86.925 87.122 87.335 87.477 87.647 88.465 89.035 88.84 88.982 89.352 89.297 89.027 90.092 95.392 96.657 95.577 92.057 89.76 90.312 91.622 91.687 92.372 91.342 91.185 91.237 92.035 92.717 92.522 92.51 92.462 92.657 92.802
113.997 113.917 113.857 113.77 113.722 113.655 113.577 113.517 113.427 113.355 113.307 113.222 113.162 113.077 113.005 112.92 112.852 112.767 112.69 112.587 112.502 112.402 112.362 112.235 112.04 111.912 111.71 111.602 111.435 111.26 111.132 111 110.86 110.737 110.585 110.435 110.322 110.17 110.017 109.817 109.692 109.49 109.27 109.117 108.967 108.762 108.542 108.395 108.185 107.962 107.825 107.622 107.442 107.222 107.042 106.867 106.662 106.45 106.23 106.01 105.79 105.587 105.392 105.187 105 104.76 104.572 104.407 104.201 104.039 103.877 103.722 103.563 103.406 103.348 103.231 102.724 102.426 102.252 102.09 101.92 101.722 101.527 101.302 101.145 100.927 100.755 100.567 100.362 100.157 99.957 99.732 99.55 99.325 99.105 98.845 98.587 98.315 98.052 97.777 97.525 97.28 97.042 96.81 96.607 96.385 96.2 96.03 95.837 95.615 95.42 95.262 95.095 94.917 94.73 94.552 94.362 94.187 94.047 93.945 93.827 93.732 93.635 93.552 93.495 93.405 93.362 93.285 93.225 93.165 93.102 93.04 92.967 92.872 92.807 92.73 92.667 92.59 92.497 92.41 92.362 92.302 92.265 92.202 92.15 92.095 92.032 91.965 91.902 91.82 91.765 91.695 91.647 91.597 91.535 91.462 91.43 91.357 91.282 91.255 91.21 91.187 91.132 91.13 91.067 90.992 91.05 90.585 93.155 95.01 94.415 94.902 95.22 89.517 90.665 89.962 88.945 92.937 93.775 93.07 89.47 90.915 89.84 89.327 89.847 86.86 85.212 85.425 85.697 85.602 85.625 85.635 85.732 86.295 87.335 88.21 88.307 88.562 87.962 87.52 87.282 87.127 87.01 86.927 86.785 86.687 86.545 86.392 86.207 86.052 85.882 85.767 85.615 85.477 85.36 85.195 85.052 84.907 84.747 84.605 84.482 84.352 84.202 84.015 83.862 83.712 83.537 83.332 83.157 82.962 82.792 82.61 82.417 82.275 82.117 81.967 81.835 81.655 81.53 81.375 81.15 80.995 80.815 80.642 80.457 80.27 80.122 79.987 79.907 79.777 79.63 79.557 79.472 80.53 78.962 77.082 75.99 75.905 73.55 72.257 71.565 70.715 69.995 69.53 68.575 69.942 66.194 67.765 66.176 66.648 67.035 65.316 64.97 64.424 64.476 65.443 65.582 64.394 65.251 66.321 64.99 64.51 64.732 -9999 71.951 72.721 68.962 64.483 64.295 64.199 64.162 64.147 64.11 64.086 64.394 63.991 64.03 65.433 67.735 66.527 72.382 68.137 72.167 71.682 71.642 72.467 75.825 73.552 70.96 66.227 66.035 66.09 66.327 66.612 66.875 67.745 67.85 68.902 68.887 68.732 68.79 69.385 69.715 70.025 71.337 70.892 70.607 70.22 70.117 70.057 70.082 70.09 70.122 70.165 70.215 70.155 70.185 70.557 72.917 72.217 73.75 74.19 74.11 74.412 75.155 75.61 75.695 75.982 76.627 77.075 77.362 77.925 78.377 79.087 79.69 81.07 81.54 81.702 82.057 82.037 82.095 82.27 82.227 82.185 82.335 82.465 82.577 82.757 82.9 83.022 83.127 83.23 83.325 83.395 83.417 83.422 83.355 83.267 83.205 83.442 83.102 83.127 83.252 83.342 83.487 83.675 83.86 83.947 84.075 84.202 84.37 84.565 84.795 85.1 85.37 85.73 85.975 86.185 86.545 86.807 87.037 87.257 87.42 87.595 87.895 90.007 89.16 89.44 90.405 90.127 89.515 89.365 93.505 95.975 95.815 92.85 89.737 89.787 90.805 92.582 92.08 92.122 91.505 91.247 91.7 92.612 92.805 92.515 92.375 92.57 92.737
113.995 113.905 113.842 113.767 113.717 113.632 113.555 113.49 113.397 113.345 113.277 113.217 113.152 113.095 113.042 112.982 112.922 112.86 112.772 112.675 112.572 112.445 112.297 112.12 111.97 111.83 111.747 111.61 111.445 111.337 111.237 111.11 110.96 110.842 110.712 110.555 110.395 110.235 110.06 109.867 109.695 109.525 109.342 109.195 109.05 108.837 108.655 108.462 108.282 108.03 107.86 107.677 107.522 107.317 107.085 106.887 106.722 106.505 106.272 106.09 105.885 105.687 105.455 105.255 105.068 104.881 104.668 104.486 104.285 104.114 103.967 103.815 103.641 103.499 103.372 103.335 102.918 102.532 102.337 102.175 102 101.807 101.61 101.422 101.22 101.007 100.81 100.645 100.427 100.225 100.017 99.8 99.582 99.385 99.18 98.915 98.667 98.422 98.152 97.89 97.625 97.37 97.127 96.92 96.69 96.49 96.282 96.105 95.902 95.7 95.497 95.34 95.17 94.975 94.802 94.617 94.44 94.25 94.102 93.972 93.88 93.775 93.687 93.592 93.542 93.472 93.405 93.337 93.277 93.197 93.145 93.082 93.005 92.945 92.86 92.76 92.692 92.6 92.542 92.467 92.407 92.387 92.327 92.267 92.192 92.13 92.055 92.002 91.94 91.86 91.8 91.737 91.682 91.63 91.577 91.53 91.485 91.4 91.345 91.28 91.217 91.19 91.157 91.152 91.095 91.015 90.972 90.772 92.225 98.237 92.442 91.465 90.27 89.09 89.7 88.277 86.927 89.34 86.25 86.297 89.975 93.03 89.47 87.015 85.627 85.182 85.255 85.345 85.477 85.582 85.615 85.68 85.7 86.182 87.357 88.022 88.377 88.947 88.227 87.872 87.357 87.192 87.067 86.952 86.852 86.692 86.577 86.45 86.287 86.135 85.932 85.772 85.652 85.517 85.4 85.26 85.127 84.982 84.832 84.675 84.537 84.397 84.247 84.117 83.942 83.76 83.615 83.405 83.2 83.01 82.855 82.675 82.485 82.327 82.17 82.037 81.895 81.73 81.58 81.432 81.245 81.08 80.9 80.735 80.537 80.367 80.2 80.037 79.922 79.83 79.702 79.6 79.527 79.917 79.575 78.01 78.042 75.265 73.9 72.735 71.802 71.12 70.94 69.962 69.317 68.692 68.035 67.456 65.675 66.61 69.62 65.657 66.195 64.799 65.291 66.353 65.327 64.997 64.393 64.7 64.535 64.467 -9999 -9999 -9999 73.276 72.676 68.294 64.867 64.237 64.145 64.132 64.124 64.816 64.822 64.653 64.206 67.332 69.641 65.305 66.15 71.045 76.395 76.932 72.692 75.955 75.26 71.897 70.92 68.19 64.562 66.807 65.945 66.11 66.265 66.545 66.96 67.442 68.322 68.855 68.66 69.142 68.667 70.72 70.712 70.442 70.275 70.16 70.027 69.995 69.96 69.93 69.972 70.01 70.012 69.982 70.057 70.16 70.93 70.922 71.217 72.547 72.76 72.79 74.38 76.13 74.732 75 75.7 76.017 76.98 76.917 77.627 78.335 78.817 79.547 80.455 81.035 81.535 82.595 81.907 81.92 81.952 81.992 82.167 82.342 82.467 82.61 82.725 82.872 82.982 83.107 83.205 83.275 83.272 83.19 83.055 82.96 82.872 82.757 82.71 82.81 82.74 82.985 83.137 83.452 83.787 83.93 84.095 84.212 84.415 84.547 84.732 85.007 85.315 85.685 85.91 86.15 86.422 86.725 86.955 87.177 87.387 87.587 87.985 89.47 90.065 89.025 89.125 89.107 88.98 89.1 92.905 95.555 96.05 94.51 89.767 89.732 90.392 92.292 91.995 91.812 91.337 91.27 91.387 92.51 92.652 92.652 92.445 92.565 92.75
113.935 113.882 113.827 113.755 113.69 113.615 113.555 113.465 113.405 113.362 113.292 113.237 113.21 113.172 113.112 113.065 113.017 112.937 112.835 112.62 112.487 112.362 112.247 112.1 111.98 111.815 111.77 111.69 111.597 111.437 111.32 111.232 111.087 110.927 110.782 110.632 110.457 110.292 110.087 109.907 109.717 109.585 109.397 109.26 109.105 108.917 108.725 108.527 108.385 108.132 107.95 107.735 107.572 107.375 107.177 106.955 106.752 106.57 106.352 106.145 105.977 105.75 105.54 105.343 105.137 104.961 104.763 104.581 104.374 104.209 104.036 103.879 103.714 103.566 103.418 103.358 103.19 102.64 102.427 102.255 102.09 101.92 101.73 101.512 101.31 101.095 100.887 100.71 100.495 100.27 100.075 99.865 99.635 99.45 99.252 99.025 98.77 98.52 98.272 98.01 97.76 97.49 97.242 97.03 96.787 96.575 96.357 96.172 95.97 95.777 95.57 95.397 95.235 95.03 94.88 94.685 94.485 94.305 94.16 94.02 93.92 93.83 93.745 93.67 93.592 93.51 93.437 93.382 93.317 93.24 93.195 93.12 93.052 92.977 92.9 92.827 92.762 92.682 92.62 92.552 92.492 92.43 92.377 92.317 92.247 92.165 92.1 92.022 91.965 91.897 91.83 91.77 91.717 91.675 91.617 91.572 91.52 91.457 91.397 91.327 91.262 91.205 91.162 91.145 91.112 91.005 90.95 90.99 91.102 93.402 90.9 90.67 93.435 94.18 91.34 93.685 88.365 93.245 91.46 87.99 90.127 87.305 89.19 88.807 85.235 85.012 85.275 85.285 85.392 85.535 85.605 85.657 85.7 85.822 86.795 87.712 88.287 88.285 88.302 88.03 87.467 87.272 87.14 87.012 86.872 86.74 86.61 86.487 86.33 86.152 85.98 85.86 85.7 85.587 85.45 85.327 85.187 85.05 84.905 84.755 84.59 84.465 84.307 84.17 83.982 83.807 83.645 83.472 83.27 83.072 82.882 82.722 82.58 82.397 82.255 82.09 81.967 81.822 81.677 81.52 81.342 81.157 80.97 80.825 80.617 80.44 80.265 80.092 79.96 79.865 79.762 79.647 79.57 79.5 79.445 82.712 84.295 78.805 77.605 76.58 72.625 72.072 71.602 70.657 69.777 69.237 68.691 65.983 65.562 66.06 65.856 65.172 66.069 67.763 68.52 69.198 68.366 65.635 64.235 64.145 64.347 -9999 -9999 -9999 -9999 74.081 74.119 71.366 70.09 64.291 64.226 64.266 64.649 64.803 64.921 65.144 64.942 64.794 64.699 64.522 64.23 64.77 65.63 70.572 70.577 76.57 75.81 75.027 71.5 73.045 68.802 72.635 66.71 69.027 65.86 66.275 66.205 66.592 67.147 67.677 68.16 68.367 68.4 68.957 71.14 70.427 70.55 70.147 70.042 69.992 69.967 69.847 69.875 69.877 69.875 69.822 69.84 69.855 70.265 70.85 71.185 72.32 72.327 71.945 72.78 72.722 73.205 73.742 74.84 75.927 76.09 75.85 76.745 77.402 78.225 78.772 79.282 80.11 80.852 81.482 81.79 81.83 81.897 82.082 82.012 82.295 82.385 82.44 82.487 82.627 82.777 82.925 82.985 83.06 83.402 88.405 82.965 83.347 82.285 82.03 82.022 82.11 82.217 82.48 82.772 83.282 83.807 83.96 84.022 84.122 84.312 84.515 84.692 84.932 85.227 85.53 85.84 86.082 86.38 86.702 86.927 87.092 87.31 87.515 87.702 88.055 88.995 88.872 88.897 88.855 88.957 89.22 91.34 95.455 96.45 95.472 90.282 89.697 91.1 92.202 90.877 90.917 91.145 91.265 91.295 92.07 92.592 92.952 92.48 92.575 92.815
113.925 113.865 113.807 113.722 113.652 113.58 113.515 113.442 113.412 113.392 113.355 113.32 113.282 113.275 113.245 113.13 113.055 112.93 112.71 112.547 112.452 112.28 112.23 112.105 112.022 111.922 111.855 111.812 111.67 111.565 111.425 111.315 111.157 111.002 110.812 110.692 110.517 110.365 110.18 110 109.82 109.675 109.487 109.315 109.125 108.99 108.79 108.587 108.437 108.205 108.032 107.84 107.635 107.445 107.267 107.04 106.827 106.685 106.432 106.222 106.065 105.867 105.632 105.432 105.216 105.024 104.859 104.669 104.483 104.294 104.129 103.975 103.821 103.668 103.48 103.376 103.345 102.782 102.52 102.342 102.18 102.025 101.812 101.61 101.38 101.167 100.952 100.765 100.565 100.362 100.15 99.952 99.732 99.56 99.317 99.095 98.89 98.635 98.357 98.11 97.86 97.59 97.347 97.13 96.887 96.655 96.445 96.247 96.04 95.837 95.652 95.47 95.297 95.122 94.92 94.75 94.552 94.372 94.22 94.092 93.972 93.885 93.8 93.712 93.63 93.555 93.47 93.412 93.35 93.292 93.232 93.172 93.097 93.042 92.972 92.915 92.85 92.787 92.717 92.63 92.567 92.482 92.432 92.372 92.3 92.225 92.137 92.062 92.012 91.937 91.887 91.835 91.77 91.705 91.66 91.627 91.557 91.487 91.42 91.345 91.287 91.232 91.167 91.145 91.122 91.042 90.922 91.007 90.897 92.222 93.367 95.277 93.615 95.787 90.067 90.417 94.095 97.852 97.582 93.615 88.457 87.202 85.222 86.525 88.28 84.952 85.185 85.18 85.275 85.42 85.542 85.617 85.687 85.69 86.162 87.232 88.122 88.245 88.155 87.972 87.58 87.372 87.212 87.082 86.92 86.795 86.675 86.535 86.377 86.225 86.075 85.912 85.782 85.637 85.505 85.382 85.237 85.117 84.965 84.817 84.66 84.5 84.355 84.222 84.057 83.857 83.675 83.535 83.302 83.132 82.937 82.805 82.642 82.472 82.307 82.155 82.002 81.89 81.725 81.572 81.395 81.22 81.065 80.892 80.72 80.53 80.362 80.202 80.025 79.902 79.802 79.72 79.595 79.555 79.612 80.652 82.477 79.827 83.427 75.54 74.025 73.255 72.472 71.377 70.352 69.602 69.053 67.627 66.325 65.61 65.146 65.266 65.612 66.484 65.59 69.705 68.586 67.908 66.868 67.175 -9999 -9999 -9999 -9999 -9999 72.687 72.764 73.647 67.737 64.435 64.681 65.073 65.539 65.417 65.192 65.446 65.258 65.019 64.907 64.892 64.715 64.43 64.177 63.995 72.19 74.832 68.887 73.892 77.267 75.815 74.16 70.51 76.225 75.1 66.885 65.635 65.92 66.057 66.292 67.355 68.285 67.882 67.845 68.17 69.657 70.935 70.812 70.282 70.087 70.03 69.957 69.912 69.972 69.817 69.792 69.777 69.747 69.735 69.972 70.62 72.635 73.112 71.892 71.62 71.28 70.977 71.05 71.72 73.102 74.02 74.537 75.002 75.88 76.467 79.212 77.97 78.797 79.305 80.275 80.887 81.402 90.29 82.67 82.725 82.015 82.797 82.307 82.305 82.28 82.41 82.59 82.737 82.772 86.61 91.757 94.195 90.91 82.03 81.505 81.405 81.407 81.517 81.742 82.07 82.495 83.377 83.96 84.062 84.012 84.09 84.255 84.497 84.692 84.887 85.137 85.422 85.685 85.947 86.225 86.587 86.847 87.01 87.215 87.415 87.605 87.942 89.342 88.832 88.792 89.455 90.745 90.507 89.977 95.21 96.527 95.692 92.412 89.755 89.835 91.037 90.43 90.8 91.135 91.252 91.29 91.695 92.795 92.81 92.707 92.647 92.852
113.905 113.827 113.8 113.722 113.655 113.587 113.532 113.51 113.465 113.425 113.425 113.41 113.387 113.332 113.155 113.01 112.877 112.737 112.635 112.485 112.387 112.302 112.262 112.195 112.107 112.04 111.945 111.872 111.745 111.635 111.517 111.347 111.24 111.027 110.88 110.75 110.62 110.412 110.225 110.085 109.907 109.762 109.587 109.385 109.217 109.065 108.882 108.675 108.53 108.317 108.15 107.93 107.73 107.485 107.325 107.1 106.91 106.747 106.537 106.335 106.147 105.952 105.732 105.526 105.313 105.138 104.962 104.773 104.587 104.401 104.229 104.078 103.892 103.764 103.549 103.426 103.359 103.002 102.632 102.422 102.25 102.075 101.87 101.665 101.44 101.227 101.025 100.83 100.652 100.442 100.24 100.025 99.835 99.647 99.425 99.197 98.99 98.73 98.475 98.227 97.955 97.675 97.43 97.215 96.967 96.747 96.532 96.33 96.132 95.92 95.742 95.552 95.372 95.187 95.015 94.832 94.647 94.45 94.292 94.142 94.03 93.927 93.85 93.765 93.67 93.61 93.542 93.467 93.402 93.35 93.295 93.257 93.192 93.125 93.062 92.98 92.905 92.83 92.755 92.665 92.612 92.535 92.48 92.415 92.347 92.27 92.192 92.107 92.047 92.012 91.947 91.885 91.825 91.757 91.717 91.652 91.6 91.535 91.46 91.39 91.327 91.262 91.18 91.13 91.102 91.062 90.965 90.982 91.47 92.88 98.87 99.727 98.322 96.272 93.715 87.962 91.882 95.245 94.122 90.97 90.457 88.087 86.332 85.112 86.27 84.925 85.077 85.097 85.165 85.322 85.485 85.56 85.625 85.675 86.285 87.39 87.807 88.345 88.195 88.185 87.815 87.47 87.275 87.117 86.962 86.822 86.702 86.585 86.445 86.297 86.147 85.997 85.842 85.72 85.572 85.455 85.315 85.182 85.025 84.875 84.712 84.545 84.415 84.245 84.097 83.91 83.737 83.595 83.385 83.202 83.022 82.86 82.707 82.535 82.37 82.22 82.05 81.912 81.79 81.64 81.462 81.307 81.145 80.987 80.81 80.617 80.465 80.292 80.107 79.977 79.862 79.765 79.662 79.59 79.52 79.49 79.472 78.857 78.285 76.417 75.25 74.402 73.4 72.212 71.127 70.267 69.581 69.153 68.326 66.044 64.878 65.246 65.424 66.02 65.889 66.338 66.175 68.344 70.41 70.567 -9999 -9999 -9999 -9999 72.667 73.676 72.022 70.463 65.761 64.893 65.026 65.164 65.183 65.179 65.13 65.206 65.114 65.006 64.899 64.867 64.81 64.815 64.64 64.242 64.032 64.817 66.92 69.665 72.99 79.18 74.105 73.69 74.09 69.112 72.417 70.952 67.287 65.945 65.942 66.385 67.82 68.802 67.345 67.592 69.122 70.647 70.807 70.675 70.222 70.092 70.007 69.975 69.895 69.792 69.722 69.65 69.652 69.672 69.655 69.827 71.122 71.292 70.792 70.065 70.235 70.427 70.305 70.842 72.967 74.235 74.445 74.362 75.515 75.802 76.397 76.942 77.705 78.345 79.335 80.1 82.592 83.067 82.07 82.832 82.56 82.842 82.157 82.132 82.077 82.23 82.365 82.472 82.495 86.94 94.752 95.17 86.99 84.272 80.9 80.892 80.887 81.015 81.325 81.692 82.777 83.612 84.137 84.155 84.022 84.035 84.225 84.512 84.73 84.952 85.105 85.332 85.547 85.802 86.075 86.377 86.672 86.907 87.085 87.297 87.485 87.697 89.695 90.152 89.48 89.7 90.23 89.257 89.312 94.095 96.06 96.027 94.832 90.57 89.805 90.155 90.947 90.96 91.157 91.235 91.29 91.405 92.302 92.757 93.005 92.625 92.91
113.88 113.822 113.79 113.735 113.69 113.635 113.602 113.577 113.535 113.55 113.487 113.345 113.282 113.172 113.03 112.937 112.772 112.617 112.572 112.51 112.432 112.382 112.3 112.25 112.16 112.117 111.997 111.892 111.81 111.64 111.525 111.38 111.267 111.102 111.005 110.845 110.717 110.522 110.347 110.19 109.98 109.82 109.685 109.49 109.29 109.145 108.945 108.77 108.622 108.417 108.195 107.977 107.825 107.592 107.367 107.207 106.975 106.777 106.607 106.395 106.212 106.055 105.835 105.632 105.417 105.249 105.087 104.902 104.686 104.51 104.311 104.167 103.988 103.827 103.642 103.483 103.441 103.229 102.745 102.49 102.322 102.127 101.937 101.745 101.52 101.32 101.097 100.905 100.722 100.515 100.32 100.107 99.92 99.715 99.505 99.292 99.07 98.817 98.58 98.34 98.05 97.79 97.535 97.297 97.065 96.825 96.625 96.392 96.225 96.015 95.835 95.617 95.447 95.272 95.102 94.917 94.722 94.542 94.387 94.212 94.087 93.98 93.892 93.825 93.75 93.677 93.61 93.545 93.497 93.422 93.377 93.345 93.287 93.21 93.115 93.035 92.967 92.89 92.822 92.747 92.67 92.595 92.542 92.462 92.395 92.305 92.26 92.15 92.1 92.06 91.99 91.937 91.86 91.817 91.745 91.7 91.627 91.572 91.512 91.417 91.342 91.255 91.195 91.122 91.07 91.055 90.995 90.987 90.862 90.805 95.557 95.307 94.47 92.182 90.422 88.305 91.617 92.177 92.15 93.66 88.925 90.027 92.635 85.15 85.195 84.867 84.92 84.957 85.052 85.215 85.425 85.535 85.575 85.64 85.962 87.11 87.562 88.235 88.332 88.242 87.877 87.557 87.342 87.185 87.037 86.892 86.777 86.645 86.507 86.357 86.207 86.057 85.925 85.777 85.61 85.495 85.342 85.22 85.062 84.925 84.767 84.58 84.432 84.285 84.14 83.962 83.81 83.657 83.455 83.282 83.092 82.905 82.737 82.54 82.412 82.267 82.1 81.957 81.84 81.67 81.542 81.402 81.237 81.082 80.897 80.727 80.532 80.36 80.217 80.06 79.922 79.84 79.742 79.642 79.56 79.495 79.435 79.62 80.632 77.7 76.572 76.777 74.502 73.272 72.097 71.095 70.319 69.616 69.173 68.117 66.165 65.663 65.091 64.772 65.302 65.547 65.514 65.879 69.345 70.685 68.367 -9999 68.672 73.077 74.007 76.153 71.869 65.292 64.828 64.968 65.153 65.128 65.185 65.103 65.052 65.045 65.055 65.11 65.058 64.957 64.902 64.885 64.835 64.722 64.53 64.247 64.02 65.675 67.052 70.39 72.287 77.675 72.487 72.317 72.38 78.667 73.46 67.735 65.567 65.907 66.237 66.795 67.042 67.195 68.49 70.105 71.88 70.475 70.332 70.205 70.1 70.027 69.927 69.832 69.752 69.645 69.54 69.502 69.457 69.422 69.405 69.472 69.347 69.287 69.875 70.407 70.547 70.315 70.575 72.145 72.83 73.31 74.395 74.685 75.497 76.172 76.837 77.527 78.505 79.185 79.725 80.135 81.007 81.61 81.697 81.967 82.632 82.9 81.947 82.01 82.087 82.177 85.927 90.407 93.757 90.675 86.547 80.475 80.272 80.287 80.37 80.607 80.98 81.86 83.017 85.742 84.445 84.24 83.995 83.88 84.022 84.512 84.77 84.982 85.147 85.325 85.512 85.707 85.925 86.17 86.48 86.717 86.922 87.172 87.37 87.557 89.37 90.135 89.18 89.067 89.275 89.235 89.452 91.995 95.872 96.22 95.057 92.442 89.967 90.35 91.472 91.375 91.33 92.257 91.91 91.46 91.637 92.627 92.895 92.852 92.962
113.92 113.882 113.822 113.782 113.747 113.73 113.687 113.65 113.632 113.52 113.35 113.24 113.14 113.087 112.99 112.867 112.765 112.705 112.642 112.525 112.48 112.41 112.372 112.27 112.21 112.102 111.997 111.897 111.812 111.69 111.547 111.425 111.317 111.197 111.077 110.92 110.79 110.605 110.432 110.2 110.045 109.882 109.75 109.567 109.402 109.215 109.062 108.852 108.672 108.507 108.287 108.085 107.887 107.657 107.452 107.287 107.1 106.875 106.692 106.487 106.3 106.155 105.925 105.739 105.539 105.345 105.19 104.971 104.795 104.607 104.399 104.249 104.063 103.9 103.715 103.541 103.465 103.404 102.885 102.575 102.377 102.21 102.03 101.812 101.585 101.392 101.202 101.005 100.822 100.602 100.395 100.202 100.002 99.785 99.61 99.397 99.167 98.937 98.68 98.435 98.157 97.88 97.625 97.377 97.145 96.91 96.682 96.477 96.3 96.117 95.942 95.725 95.522 95.347 95.2 95.005 94.822 94.617 94.452 94.297 94.167 94.072 93.985 93.89 93.827 93.75 93.687 93.592 93.535 93.465 93.417 93.375 93.317 93.25 93.175 93.11 93.027 92.947 92.882 92.8 92.735 92.675 92.597 92.54 92.46 92.377 92.29 92.207 92.127 92.075 92.017 91.957 91.892 91.85 91.79 91.705 91.662 91.607 91.525 91.43 91.342 91.245 91.182 91.132 91.077 91.05 91.005 90.93 90.977 90.582 92.322 91.185 90.83 90.595 90.065 88.687 87.565 87.39 88.245 90.702 88.557 91.247 89.62 86.225 84.967 84.97 84.842 84.847 84.975 85.142 85.335 85.512 85.547 85.652 85.652 86.08 87.017 88.022 88.207 88.305 88.305 87.642 87.375 87.212 87.085 86.955 86.832 86.697 86.57 86.42 86.257 86.105 85.977 85.825 85.67 85.532 85.38 85.247 85.095 84.957 84.82 84.622 84.467 84.31 84.147 84.022 83.872 83.7 83.517 83.33 83.14 82.957 82.772 82.612 82.445 82.32 82.185 82.03 81.89 81.767 81.612 81.485 81.325 81.14 81.01 80.81 80.63 80.465 80.302 80.145 79.995 79.88 79.79 79.73 79.625 79.527 79.475 79.412 79.267 78.902 77.98 78.062 75.54 74.317 73.165 72.177 71.297 70.524 69.728 69.094 67.898 66.998 65.814 65.259 65.621 65.705 65.229 64.82 66.563 69.243 68.058 64.59 65.945 69.335 71.411 68.194 65.778 65.294 65.131 65.242 65.242 65.262 65.162 65.168 65.189 65.213 65.151 65.243 65.079 65.032 65.017 64.95 65.007 64.977 64.962 64.995 64.64 64.91 64.75 63.92 66.565 72.327 71.635 76.727 74.01 72.642 74.052 75.425 70.9 65.677 65.957 66.122 66.452 66.775 67.622 69.14 70.295 70.397 70.447 70.355 70.212 70.077 69.97 69.88 69.77 69.605 69.475 69.405 69.31 69.252 69.21 69.147 70.067 69.122 69.142 69.71 70.032 69.837 69.977 70.947 71.865 71.922 73.01 73.907 74.462 75.202 76.67 78.137 78.057 78.71 78.887 79.392 80.377 81.265 81.6 81.585 81.64 81.715 81.775 81.762 81.845 83.955 87.965 88.657 84.217 83.672 80.417 79.787 79.715 79.752 79.897 80.272 81.337 82.53 84.442 86.15 84.302 84.285 83.95 83.732 83.79 85.347 86.44 85.05 85.252 85.427 85.557 85.732 85.895 86.102 86.335 86.517 86.732 86.972 87.23 87.42 88.225 91.605 90.542 89.392 89.467 89.31 89.44 90.412 94.24 95.992 95.375 93.99 89.917 89.847 90.22 93.087 93.275 93.552 91.972 91.582 91.515 92.665 92.977 92.805 92.997
113.977 113.94 113.89 113.877 113.835 113.837 113.725 113.555 113.495 113.417 113.327 113.185 113.115 113.045 113.005 112.925 112.86 112.777 112.692 112.625 112.497 112.457 112.397 112.3 112.177 112.1 111.99 111.945 111.82 111.742 111.62 111.492 111.395 111.262 111.147 110.987 110.827 110.687 110.505 110.305 110.187 109.962 109.84 109.635 109.467 109.327 109.107 108.957 108.745 108.572 108.382 108.165 107.912 107.712 107.492 107.342 107.17 106.985 106.777 106.615 106.382 106.195 106.01 105.836 105.667 105.49 105.291 105.102 104.92 104.734 104.513 104.335 104.157 103.974 103.813 103.641 103.515 103.475 103.09 102.657 102.46 102.292 102.13 101.932 101.705 101.497 101.312 101.117 100.91 100.69 100.482 100.267 100.067 99.88 99.67 99.472 99.242 99.017 98.762 98.51 98.255 97.98 97.727 97.47 97.24 96.987 96.762 96.557 96.385 96.225 96.047 95.845 95.637 95.447 95.272 95.097 94.932 94.735 94.567 94.412 94.252 94.155 94.062 93.967 93.905 93.797 93.725 93.632 93.565 93.512 93.472 93.407 93.367 93.297 93.235 93.15 93.08 92.995 92.945 92.875 92.81 92.725 92.652 92.59 92.512 92.43 92.317 92.242 92.142 92.08 92.025 91.982 91.917 91.86 91.802 91.727 91.637 91.587 91.517 91.422 91.342 91.252 91.182 91.13 91.095 91.077 91.057 90.97 91.025 91.885 91.987 91.145 92.992 93.04 90.442 89.052 87.89 92.125 92.852 89.61 96.817 90.655 88.007 84.797 84.98 85.007 84.877 84.922 84.96 85.105 85.255 85.462 85.485 85.61 85.65 85.805 86.585 87.662 88.18 88.17 88.142 87.86 87.467 87.282 87.14 87.007 86.892 86.732 86.605 86.45 86.325 86.15 86.015 85.875 85.73 85.575 85.435 85.3 85.15 84.997 84.86 84.705 84.537 84.38 84.217 84.075 83.905 83.727 83.567 83.385 83.197 83.025 82.84 82.655 82.505 82.392 82.227 82.115 81.985 81.847 81.727 81.562 81.405 81.245 81.085 80.897 80.73 80.532 80.387 80.205 80.057 79.942 79.832 79.777 79.685 79.567 79.505 79.45 79.427 79.265 78.895 78.085 76.677 75.467 74.44 73.515 72.844 71.604 70.685 69.867 69.386 68.897 67.582 66.084 65.783 66.814 66.93 65.671 65.592 66.177 67.029 65.158 65.547 65.036 64.863 65.133 65.32 65.283 65.319 65.3 65.23 65.316 65.178 65.138 65.127 65.104 65.056 65.011 64.993 64.95 64.92 64.852 64.932 65.04 65.037 65.05 65.057 64.94 64.402 64.175 69.307 71.782 70.032 72.41 70.585 73.48 74.472 78.89 74.735 68.15 70.922 68.502 66.26 66.592 67.057 68.66 70.187 70.375 70.455 70.402 70.297 70.1 69.997 69.867 69.812 69.622 69.447 69.372 69.247 69.175 69.065 69.035 68.992 69.002 69.347 68.962 69.145 69.202 69.487 70.845 70.905 71.177 72.137 73.52 73.857 74.525 75.787 76.45 77.505 77.712 77.952 78.422 79.55 81.212 81.32 81.237 81.785 81.527 81.472 81.965 81.325 82.902 87.117 83.067 80.257 79.72 79.327 79.185 79.182 79.265 79.565 80.25 81.372 83.15 85.16 84.112 84.337 84.362 83.932 83.512 83.537 85.577 86.88 85.15 85.31 85.53 85.695 85.81 85.965 86.137 86.322 86.49 86.66 86.87 87.067 88.877 90.047 91.845 90.98 89.675 89.172 89.287 89.377 90.387 94.74 95.932 95.672 94.815 91.34 89.845 90.125 92.142 93.665 93.167 91.542 91.632 91.94 92.33 92.91 92.737 92.902
114.07 114.017 113.902 113.862 113.822 113.697 113.6 113.545 113.387 113.362 113.342 113.257 113.2 113.122 113.045 112.99 112.92 112.802 112.707 112.64 112.57 112.48 112.375 112.277 112.195 112.12 112.052 111.96 111.89 111.765 111.707 111.56 111.465 111.35 111.222 111.065 110.91 110.792 110.6 110.417 110.247 110.072 109.895 109.735 109.557 109.397 109.217 109.01 108.817 108.657 108.455 108.245 107.992 107.827 107.627 107.457 107.295 107.057 106.89 106.69 106.53 106.337 106.142 105.932 105.75 105.566 105.39 105.22 105.055 104.82 104.631 104.462 104.26 104.086 103.905 103.745 103.6 103.532 103.28 102.77 102.535 102.362 102.195 102.005 101.815 101.607 101.402 101.2 100.987 100.77 100.555 100.345 100.13 99.947 99.735 99.527 99.315 99.112 98.867 98.622 98.372 98.087 97.855 97.582 97.325 97.075 96.85 96.677 96.485 96.34 96.165 95.965 95.765 95.572 95.38 95.207 95.027 94.842 94.647 94.485 94.317 94.21 94.1 94.017 93.922 93.832 93.757 93.68 93.612 93.565 93.51 93.467 93.407 93.37 93.295 93.225 93.15 93.087 93.015 92.94 92.865 92.782 92.695 92.645 92.525 92.447 92.355 92.262 92.18 92.102 92.035 91.97 91.917 91.842 91.782 91.682 91.61 91.57 91.497 91.427 91.347 91.272 91.232 91.18 91.125 91.092 91.087 91.005 90.98 92.632 95.417 91.152 93.395 93.007 90.49 89.472 88.282 88.277 93.007 90.745 95.38 88.777 84.935 84.822 84.865 84.882 84.885 84.862 84.95 85.107 85.197 85.432 85.542 85.595 85.615 85.655 86.157 87.475 88.125 88.14 88.192 88.342 87.55 87.335 87.182 87.05 86.935 86.775 86.622 86.485 86.347 86.165 86.04 85.912 85.787 85.632 85.482 85.332 85.185 85.03 84.9 84.757 84.587 84.412 84.262 84.072 83.907 83.777 83.602 83.432 83.25 83.057 82.895 82.73 82.56 82.432 82.31 82.182 82.04 81.907 81.785 81.617 81.462 81.307 81.147 80.972 80.79 80.63 80.455 80.3 80.147 80.012 79.9 79.802 79.732 79.652 79.557 79.482 79.437 79.397 79.265 78.762 77.855 79.097 78.665 74.495 74.017 72.835 71.921 71.229 70.499 69.772 69.068 67.599 66.651 66.484 66.748 66.406 65.854 65.038 65.374 64.291 64.28 65.274 64.766 65.21 65.381 65.466 65.466 65.386 65.314 65.433 65.307 66.065 65.252 66.512 65.221 65.128 65.059 65.025 64.997 64.855 64.882 64.987 65.112 65.11 65.137 65.202 65.155 65.167 66.012 67.992 69.59 71.115 70.5 72.725 75.222 80.022 80.295 75.015 68.7 66.985 65.792 66.092 67.055 68.145 69.685 70.277 70.415 70.39 70.317 70.192 70.065 69.937 69.82 69.715 69.507 69.335 69.182 69.11 69 68.922 68.865 68.92 68.832 68.797 68.79 68.772 69.04 70.097 70.422 70.675 71.745 72.56 73.187 74.272 75.35 76.137 76.275 77.4 77.232 77.467 78.532 79.275 80.347 83.065 83.99 81.732 81.2 81.25 80.492 80.335 82.295 82.207 79.56 79.07 78.737 78.617 78.675 78.895 79.385 80.805 82.247 83.54 83.877 84.085 84.325 84.445 84.035 83.31 83.195 83.635 84.317 84.942 85.31 85.547 85.77 85.98 86.122 86.26 86.42 86.54 86.635 86.83 87.002 87.27 88.547 90.98 90.497 89.672 89.19 89.335 89.475 89.845 93.28 95.662 95.875 94.505 90.667 89.88 89.997 90.912 92.132 91.047 91.09 91.267 91.937 91.92 92.45 92.657 92.915
114.06 113.932 113.822 113.74 113.672 113.662 113.585 113.477 113.442 113.445 113.357 113.347 113.257 113.19 113.15 113.04 112.9 112.837 112.75 112.61 112.562 112.492 112.41 112.327 112.262 112.147 112.085 112 111.962 111.825 111.767 111.652 111.507 111.4 111.295 111.147 110.967 110.882 110.712 110.525 110.332 110.18 109.932 109.807 109.645 109.477 109.29 109.087 108.9 108.725 108.535 108.34 108.127 107.945 107.712 107.565 107.375 107.2 107.01 106.84 106.64 106.43 106.28 106.056 105.861 105.661 105.493 105.352 105.144 104.946 104.744 104.565 104.387 104.195 104.009 103.827 103.661 103.56 103.442 102.932 102.617 102.42 102.247 102.082 101.905 101.685 101.475 101.272 101.055 100.837 100.63 100.405 100.192 99.995 99.8 99.59 99.4 99.185 98.977 98.695 98.467 98.22 97.937 97.697 97.437 97.19 96.99 96.78 96.612 96.435 96.272 96.09 95.895 95.675 95.46 95.292 95.08 94.912 94.745 94.562 94.387 94.272 94.155 94.072 93.97 93.902 93.812 93.74 93.655 93.612 93.56 93.512 93.46 93.43 93.345 93.287 93.22 93.137 93.047 92.992 92.905 92.805 92.722 92.637 92.552 92.482 92.402 92.29 92.167 92.08 92.005 91.967 91.852 91.795 91.745 91.677 91.627 91.562 91.51 91.477 91.385 91.332 91.292 91.217 91.155 91.122 91.095 91.025 90.985 91.452 92.4 91.152 90.985 90.67 90.612 89.875 88.67 87.622 87.672 89.13 87.6 85.35 84.885 85.527 84.86 84.877 84.86 84.925 84.927 85.032 85.142 85.377 85.55 85.542 85.642 85.64 85.87 88.335 88.07 88.34 88.107 88.092 87.64 87.37 87.205 87.082 86.955 86.835 86.665 86.512 86.367 86.227 86.072 85.947 85.807 85.69 85.52 85.365 85.215 85.08 84.91 84.762 84.595 84.44 84.277 84.12 83.97 83.805 83.652 83.502 83.325 83.157 82.977 82.815 82.66 82.495 82.34 82.245 82.117 81.962 81.82 81.66 81.52 81.355 81.22 81.06 80.887 80.725 80.537 80.385 80.235 80.105 79.965 79.865 79.78 79.702 79.642 79.547 79.465 79.387 79.385 79.225 78.757 79.642 77.005 75.907 75.036 74.03 73.114 72.166 71.619 70.811 70.495 68.892 68.009 66.893 65.599 66.135 65.811 65.126 65.116 64.476 64.44 64.734 65.118 65.302 65.667 65.746 67.131 65.821 65.653 65.692 66.196 68.269 68.206 66.441 66.468 66.642 66.353 65.955 65.392 65.075 65.03 65.097 65.21 65.232 65.267 65.327 65.375 65.532 65.187 68.49 66.582 68.94 67.86 72.315 75.667 77.307 77.015 80.14 79.692 76.117 77.332 70.98 68.837 67.412 69.392 69.632 73.507 72.247 70.342 70.17 70.055 69.987 69.925 69.795 69.597 69.345 69.187 69.105 68.952 68.87 68.78 68.702 68.692 68.657 68.617 68.597 68.745 69.325 69.915 70.117 70.535 71.285 71.732 72.02 76.11 74.367 74.905 76.18 76.857 77.062 77.72 78.587 79.082 80.285 80.537 80.167 79.832 79.807 79.75 81.452 81.597 79.285 79.485 80.277 78.112 78.142 78.242 78.545 79.177 81.11 82.275 83.285 84.025 84.115 84.32 84.4 83.937 83.062 82.882 82.92 83.742 84.595 85.165 85.535 85.79 86.072 86.28 86.402 86.552 86.662 86.757 86.85 87.017 87.247 90.982 93.69 91.895 90.087 89.11 89.205 89.38 89.502 91.205 95.022 94.74 93.465 89.907 89.925 90.03 90.985 91.28 90.95 91.162 91.712 92.687 92.485 92.392 92.685 92.895
113.89 113.822 113.762 113.69 113.605 113.627 113.6 113.59 113.517 113.522 113.442 113.392 113.307 113.225 113.12 113.03 112.915 112.815 112.712 112.655 112.587 112.49 112.425 112.327 112.27 112.195 112.115 112.02 111.945 111.857 111.757 111.672 111.595 111.457 111.335 111.212 111.047 110.897 110.745 110.617 110.415 110.217 110.06 109.855 109.682 109.515 109.337 109.192 109.015 108.842 108.635 108.425 108.235 108.06 107.862 107.655 107.475 107.302 107.137 106.935 106.75 106.55 106.38 106.185 105.951 105.765 105.614 105.435 105.252 105.056 104.86 104.654 104.472 104.306 104.106 103.913 103.71 103.61 103.547 103.157 102.71 102.495 102.327 102.135 101.95 101.75 101.53 101.332 101.112 100.9 100.7 100.48 100.255 100.065 99.875 99.682 99.492 99.28 99.042 98.81 98.582 98.345 98.08 97.815 97.562 97.332 97.142 96.93 96.745 96.562 96.4 96.195 95.967 95.757 95.552 95.355 95.18 94.997 94.835 94.66 94.495 94.335 94.232 94.135 94.03 93.955 93.885 93.817 93.727 93.67 93.61 93.547 93.525 93.45 93.39 93.332 93.27 93.177 93.09 93.005 92.932 92.837 92.755 92.67 92.567 92.475 92.37 92.24 92.137 92.05 91.972 91.935 91.84 91.807 91.762 91.73 91.69 91.612 91.572 91.53 91.457 91.367 91.32 91.242 91.19 91.122 91.102 91.047 90.982 91.042 90.567 90.935 91.01 90.687 90.61 90.257 89.017 87.757 86.742 86.22 85.652 85.205 84.892 84.955 84.84 84.817 84.892 84.83 84.855 84.945 85.092 85.34 85.545 85.532 85.58 85.627 85.7 86.747 88.035 88.265 88.127 88.122 87.755 87.447 87.245 87.085 86.972 86.865 86.71 86.545 86.41 86.267 86.112 85.967 85.822 85.72 85.567 85.392 85.25 85.112 84.962 84.825 84.67 84.477 84.34 84.182 84.032 83.862 83.72 83.577 83.4 83.225 83.065 82.89 82.715 82.577 82.4 82.262 82.15 82.027 81.865 81.707 81.577 81.422 81.267 81.11 80.957 80.785 80.617 80.465 80.3 80.187 80.037 79.92 79.83 79.732 79.68 79.622 79.53 79.44 79.365 79.372 79.165 78.962 78.377 77.477 76.528 75.349 74.324 73.459 73.87 71.974 70.569 70.11 69.831 69.459 68.935 66.431 65.94 65.574 65.277 65.354 65.658 65.695 65.809 65.91 65.946 66.158 66.459 66.972 67.228 67.131 67.303 69.649 70.645 68.442 68.407 68.848 68.103 67.282 66.237 65.652 65.257 65.23 65.305 65.385 65.452 65.532 65.522 65.487 65.375 65.475 65.355 69.742 65.96 65.987 71.742 78.557 77.265 75.79 79.322 77.345 74.627 74.66 75.902 67.27 76.56 68.297 70.202 72.495 72.662 69.96 70.012 70.062 69.98 69.86 69.68 69.422 69.197 69.055 68.927 68.82 68.742 68.682 68.635 68.61 68.512 68.447 68.46 68.607 69.025 69.337 69.77 70.215 70.607 73.397 75.122 72.872 73.827 75.247 76.172 76.57 77.842 77.712 78.18 79.037 79.28 80.03 79.315 78.94 78.867 79.177 80.195 79.935 78.61 78.455 77.602 77.662 77.832 78.275 79.487 80.217 81.867 83.275 83.78 84.087 84.282 84.43 84.012 83.305 82.505 82.505 83.057 83.992 84.74 85.405 85.852 86.102 86.325 86.485 86.672 86.822 86.94 87.017 87.35 87.477 90.672 92.6 89.805 89.365 88.982 89.142 89.357 89.482 89.68 91.202 93.56 93.025 90.96 90 90.117 91.125 92.052 91.815 91.98 92.062 91.857 93.332 92.555 92.617 92.907
113.792 113.817 113.755 113.685 113.675 113.67 113.645 113.612 113.557 113.555 113.47 113.392 113.305 113.212 113.097 113.007 112.927 112.855 112.78 112.705 112.635 112.537 112.435 112.352 112.315 112.24 112.165 112.087 111.987 111.905 111.772 111.685 111.59 111.457 111.347 111.28 111.122 110.937 110.805 110.652 110.512 110.302 110.085 109.922 109.74 109.597 109.422 109.287 109.1 108.92 108.732 108.55 108.34 108.145 107.96 107.755 107.572 107.405 107.232 107.022 106.84 106.665 106.475 106.275 106.098 105.917 105.71 105.537 105.351 105.16 104.989 104.773 104.576 104.368 104.208 104.001 103.808 103.64 103.56 103.342 102.872 102.605 102.402 102.217 102.042 101.837 101.612 101.397 101.177 100.952 100.737 100.545 100.347 100.13 99.957 99.767 99.59 99.39 99.172 98.95 98.71 98.472 98.222 97.937 97.675 97.477 97.247 97.037 96.84 96.667 96.512 96.277 96.065 95.85 95.64 95.467 95.292 95.087 94.917 94.767 94.587 94.445 94.325 94.202 94.115 94.035 93.942 93.867 93.767 93.71 93.642 93.577 93.547 93.485 93.432 93.375 93.295 93.2 93.13 93.025 92.94 92.847 92.742 92.642 92.537 92.407 92.322 92.217 92.145 92.07 91.997 91.947 91.905 91.862 91.827 91.785 91.735 91.68 91.617 91.562 91.507 91.432 91.342 91.252 91.182 91.155 91.097 91.077 91.002 90.997 90.757 90.605 91.172 90.785 90.642 90.487 89.455 88.21 87.15 86.847 85.96 85.315 84.91 84.84 84.837 84.795 84.832 85.02 84.925 84.952 85.045 85.32 85.522 85.515 85.56 85.607 85.59 86.122 87.252 88.752 88.245 88.225 88.017 87.515 87.302 87.132 86.985 86.892 86.752 86.595 86.427 86.275 86.14 86.002 85.872 85.72 85.612 85.465 85.302 85.137 84.97 84.842 84.7 84.542 84.407 84.257 84.122 83.955 83.78 83.63 83.465 83.292 83.105 82.935 82.75 82.592 82.445 82.29 82.167 82.055 81.94 81.762 81.635 81.475 81.322 81.177 81.002 80.852 80.675 80.525 80.377 80.247 80.117 79.995 79.907 79.8 79.715 79.652 79.595 79.542 79.457 79.377 79.337 79.22 78.967 78.63 77.995 76.738 75.652 75.078 74.022 72.593 71.635 71.489 70.435 70.1 69.111 68.109 66.887 66.532 66.418 65.933 66.177 65.957 66.503 66.837 66.798 66.964 67.358 68.014 68.628 68.678 68.129 67.718 69.319 69.035 69.223 69.181 68.775 67.765 66.755 66.26 65.585 65.32 65.422 65.492 65.582 65.655 65.627 65.617 66.242 65.592 65.52 65.347 65.367 64.99 65.59 74.615 77.192 75.135 75.37 77.17 75.985 79.852 84.13 79.115 75.612 68.442 68.547 69.632 68.23 68.397 69.382 70.015 70.02 69.832 69.737 69.52 69.237 69.007 68.892 68.79 68.69 68.665 68.54 68.5 68.437 68.335 68.365 68.477 68.642 68.892 69.207 69.425 69.547 70.087 71.002 71.87 72.84 73.572 75.045 76.13 77.575 76.725 77.582 78.19 78.44 79.22 78.335 78.13 78.022 77.84 77.927 77.375 77.175 77.112 77.11 77.235 77.487 78.09 79.27 80.837 82.22 83.887 84.13 84.3 84.412 84.412 84.055 82.967 82.225 82.065 82.405 83.387 84.262 85.065 85.812 86.157 86.375 86.542 86.715 87.175 87.72 87.61 88.087 87.372 87.997 88.212 88.435 89.767 89.125 89.36 89.33 89.5 89.685 90.627 93.367 93.427 92.562 90.485 90.787 91.45 91.63 91.092 91.275 91.487 91.717 92.932 92.855 92.632 92.78
