ncols 403
nrows 32
xllcorner    425194
yllcorner    543370
cellsize     2
NODATA_value -9999
97.439 97.431 97.389 97.286 97.201 97.019 96.804 96.589 96.449 96.319 96.104 95.914 95.596 95.566 95.826 95.789 95.799 95.861 95.924 95.999 96.064 96.179 96.314 96.419 96.549 96.666 96.726 96.836 96.914 96.969 97.006 97.109 97.236 97.269 97.336 97.404 97.459 97.531 97.631 97.709 97.761 97.814 97.864 97.896 97.924 97.944 97.946 97.959 97.984 98.001 98.001 97.979 97.969 97.946 97.959 97.929 97.899 97.869 97.879 97.876 97.896 97.921 97.866 97.864 97.859 97.824 97.784 97.736 97.711 97.681 97.671 97.686 97.699 97.701 97.746 97.781 97.861 97.909 97.891 97.986 98.036 98.036 98.074 98.116 98.174 98.241 98.304 98.384 98.514 98.611 98.724 98.859 99.041 99.196 99.369 99.514 99.651 99.806 99.974 100.134 100.304 100.459 100.651 100.832 100.982 101.137 101.284 101.444 101.607 101.767 101.902 102.049 102.197 102.354 102.544 102.667 102.789 102.899 102.984 103.134 103.199 103.309 103.409 103.502 103.632 103.767 103.827 103.919 104.024 104.104 104.167 104.242 104.287 104.324 104.414 104.497 104.519 104.557 104.61 104.638 104.626 104.638 104.645 104.683 104.687 104.721 104.754 104.796 104.796 104.779 104.779 104.768 104.704 104.684 104.614 104.574 104.504 104.489 104.446 104.391 104.331 104.331 104.309 104.296 104.284 104.254 104.241 104.239 104.261 104.246 104.291 104.346 105.136 105.031 103.746 103.686 103.661 103.599 103.494 103.369 103.251 103.091 102.979 102.871 102.809 102.741 102.671 102.584 102.534 102.451 102.406 102.436 102.409 102.356 102.351 102.346 102.266 102.216 102.141 102.089 102.004 101.926 101.874 101.799 101.741 101.691 101.621 101.514 101.404 101.316 101.239 101.159 101.066 100.969 100.874 100.781 100.681 100.629 100.526 100.464 100.404 100.366 100.296 100.244 100.169 100.096 100.019 99.921 99.824 99.714 99.621 99.564 99.474 99.411 99.359 99.301 99.236 99.189 99.154 99.151 99.119 99.051 98.996 100.009 98.754 98.604 98.604 98.559 98.566 98.614 98.616 98.666 98.684 98.686 98.674 98.604 98.539 98.416 98.271 98.106 97.926 97.709 97.464 97.234 96.991 96.759 96.576 96.304 96.064 95.831 95.649 95.444 95.236 95.036 94.886 94.731 94.629 94.529 94.471 94.401 94.374 94.361 94.316 94.326 94.324 94.299 94.294 94.299 94.271 94.261 94.221 94.201 94.186 94.179 94.144 94.154 94.209 94.236 94.241 94.304 94.344 94.391 94.434 94.471 94.519 94.584 94.621 94.669 94.751 94.819 94.886 94.976 95.044 95.124 95.199 95.316 95.361 95.441 95.504 95.551 95.581 95.614 95.629 95.654 95.694 95.719 95.736 95.751 95.766 95.781 95.771 95.764 95.776 95.779 95.796 95.799 95.831 95.859 95.926 95.979 96.056 96.081 96.094 96.101 96.134 96.179 96.196 96.211 96.244 96.326 96.414 96.544 96.411 97.244 97.756 96.944 97.004 95.884 95.886 95.714 98.961 101.324 100.614 99.316 98.016 95.824 96.309 96.279 96.056 95.889 95.891 95.981 96.224 96.299 96.346 96.426 96.421 96.594 97.504 99.884 100.609 101.196 102.056 102.334 99.089 100.459 102.519 102.659 102.761 102.644 102.491 101.989 98.791 96.824 97.656 98.719 97.564 100.111 101.519 101.351 100.861 101.344 100.696
97.554 97.529 97.484 97.389 97.269 97.099 96.886 96.661 96.501 96.339 96.194 95.941 95.786 95.544 95.699 95.786 95.796 95.834 95.944 95.994 96.056 96.151 96.281 96.401 96.519 96.611 96.706 96.784 96.866 96.956 97.011 97.109 97.169 97.224 97.306 97.394 97.449 97.521 97.614 97.671 97.764 97.846 97.874 97.906 97.889 97.906 97.934 97.971 97.976 97.969 97.956 97.941 97.909 97.921 97.906 97.884 97.851 97.824 97.849 97.864 97.861 97.871 97.839 97.816 97.789 97.766 97.754 97.706 97.669 97.644 97.631 97.639 97.646 97.664 97.759 97.826 97.829 97.826 97.861 97.944 97.976 97.991 98.016 98.044 98.081 98.151 98.211 98.296 98.416 98.549 98.671 98.849 98.999 99.114 99.271 99.441 99.594 99.766 99.949 100.104 100.254 100.406 100.559 100.754 100.912 101.084 101.219 101.379 101.532 101.684 101.812 101.967 102.094 102.272 102.404 102.527 102.629 102.729 102.842 102.962 103.094 103.192 103.272 103.424 103.532 103.657 103.739 103.827 103.947 104.024 104.092 104.157 104.222 104.302 104.392 104.432 104.479 104.549 104.592 104.624 104.659 104.681 104.727 104.755 104.764 104.77 104.804 104.829 104.823 104.83 104.818 104.798 104.753 104.709 104.674 104.629 104.596 104.574 104.506 104.489 104.469 104.414 104.391 104.369 104.331 104.306 104.301 104.289 104.316 104.336 104.369 104.419 104.559 105.459 103.839 103.766 103.731 103.656 103.586 103.466 103.324 103.194 103.051 102.954 102.891 102.864 102.786 102.681 102.596 102.554 102.549 102.519 102.519 102.481 102.474 102.421 102.364 102.301 102.226 102.189 102.119 102.041 101.971 101.894 101.851 101.766 101.676 101.546 101.504 101.424 101.321 101.229 101.156 101.051 100.939 100.876 100.774 100.689 100.619 100.556 100.476 100.404 100.369 100.294 100.211 100.141 100.076 99.979 99.866 99.786 99.721 99.694 99.601 99.529 99.479 99.411 99.359 99.281 99.274 99.269 99.221 99.156 99.336 100.046 98.884 98.781 98.751 98.781 98.821 98.824 98.824 98.829 98.864 98.834 98.781 98.726 98.629 98.491 98.354 98.181 97.981 97.776 97.574 97.349 97.071 96.809 96.576 96.356 96.129 95.904 95.679 95.439 95.254 95.051 94.866 94.739 94.599 94.491 94.406 94.359 94.294 94.276 94.254 94.229 94.219 94.219 94.214 94.206 94.206 94.189 94.146 94.121 94.109 94.101 94.089 94.106 94.134 94.171 94.196 94.266 94.311 94.341 94.371 94.389 94.449 94.501 94.551 94.589 94.634 94.696 94.746 94.836 94.891 94.956 95.026 95.121 95.204 95.284 95.334 95.371 95.409 95.474 95.506 95.524 95.566 95.581 95.589 95.591 95.604 95.606 95.626 95.636 95.604 95.599 95.579 95.606 95.641 95.671 95.726 95.769 95.799 95.821 95.866 95.874 95.904 95.921 95.941 95.959 96.019 96.074 96.199 96.266 96.336 98.174 97.579 96.916 96.671 95.654 96.554 95.789 100.151 102.016 101.349 100.919 99.964 97.684 97.086 97.246 96.494 95.741 95.674 95.671 96.054 96.146 96.159 96.711 96.554 96.404 96.711 96.159 96.306 98.614 100.064 99.431 96.646 99.764 102.419 101.766 101.664 102.271 102.476 102.294 97.946 96.901 97.784 97.514 97.421 101.579 101.804 101.551 101.351 101.406 100.981
97.634 97.614 97.549 97.449 97.319 97.151 96.949 96.741 96.534 96.406 96.181 96.074 95.846 95.556 95.569 95.821 95.796 95.839 95.949 96.006 96.039 96.121 96.246 96.364 96.466 96.569 96.699 96.786 96.819 96.966 97.061 97.096 97.149 97.226 97.311 97.371 97.431 97.509 97.591 97.696 97.756 97.824 97.871 97.901 97.916 97.961 97.956 97.939 97.951 97.926 97.901 97.914 97.866 97.889 97.916 97.859 97.791 97.774 97.811 97.854 97.821 97.804 97.771 97.764 97.746 97.751 97.706 97.694 97.624 97.641 97.609 97.601 97.614 97.659 97.731 97.736 97.734 97.754 97.816 97.861 97.869 97.904 97.941 97.946 97.981 98.066 98.174 98.256 98.376 98.494 98.634 98.794 98.954 99.106 99.259 99.386 99.544 99.729 99.879 100.041 100.174 100.321 100.496 100.669 100.852 101.009 101.159 101.317 101.479 101.604 101.734 101.872 101.982 102.119 102.229 102.357 102.477 102.559 102.704 102.814 102.944 103.027 103.169 103.322 103.412 103.514 103.619 103.734 103.819 103.922 104.022 104.127 104.202 104.282 104.359 104.429 104.489 104.537 104.589 104.676 104.693 104.76 104.782 104.794 104.815 104.816 104.811 104.821 104.824 104.832 104.842 104.849 104.84 104.784 104.774 104.724 104.696 104.666 104.649 104.584 104.524 104.484 104.424 104.416 104.404 104.381 104.371 104.346 104.351 104.394 104.406 104.469 104.479 105.161 104.601 103.844 103.794 103.751 103.694 103.576 103.406 103.279 103.146 103.044 102.981 102.929 102.826 102.751 102.719 102.726 102.681 102.639 102.596 102.569 102.524 102.499 102.479 102.406 102.354 102.294 102.239 102.181 102.096 102.004 101.919 101.774 101.701 101.626 101.586 101.496 101.409 101.314 101.209 101.124 101.036 100.951 100.874 100.814 100.724 100.661 100.566 100.491 100.416 100.344 100.256 100.186 100.131 100.039 99.964 99.914 99.851 99.774 99.731 99.654 99.574 99.509 99.479 99.396 99.389 99.381 99.359 99.276 99.601 99.839 99.064 98.976 98.971 98.991 98.991 99.014 99.036 99.019 99.034 98.964 98.929 98.861 98.729 98.609 98.431 98.249 98.061 97.839 97.616 97.399 97.151 96.919 96.706 96.579 96.176 95.949 95.704 95.476 95.274 95.069 94.869 94.744 94.586 94.484 94.399 94.304 94.249 94.206 94.176 94.154 94.146 94.126 94.101 94.114 94.086 94.096 94.061 94.044 94.056 94.039 94.024 94.044 94.074 94.121 94.139 94.174 94.216 94.246 94.294 94.326 94.366 94.401 94.449 94.524 94.559 94.599 94.659 94.731 94.759 94.786 94.879 94.959 95.054 95.101 95.194 95.239 95.274 95.329 95.349 95.361 95.394 95.411 95.421 95.404 95.439 95.464 95.461 95.444 95.436 95.434 95.424 95.424 95.471 95.479 95.494 95.534 95.566 95.614 95.659 95.666 95.656 95.696 95.724 95.704 95.791 95.854 95.976 95.964 96.356 98.439 97.734 96.304 95.841 95.929 98.521 98.739 101.576 101.911 100.994 100.744 99.934 97.304 96.486 96.326 95.884 95.609 95.514 95.511 95.684 96.009 95.924 96.194 95.914 96.354 96.171 95.994 96.139 96.414 96.554 96.566 96.234 98.824 100.846 99.594 99.351 101.511 102.076 100.496 96.569 96.976 97.464 97.306 98.264 101.484 101.746 101.916 101.829 101.821 101.611
97.709 97.659 97.581 97.501 97.359 97.201 97.024 96.794 96.576 96.411 96.264 96.114 95.906 95.586 95.539 95.781 95.829 95.809 95.926 95.981 95.999 96.069 96.186 96.319 96.434 96.596 96.681 96.756 96.814 96.931 97.051 97.086 97.169 97.269 97.324 97.349 97.419 97.509 97.574 97.681 97.749 97.849 97.881 97.919 97.916 97.926 97.936 97.909 97.881 97.839 97.851 97.864 97.829 97.841 97.819 97.781 97.734 97.729 97.734 97.726 97.726 97.714 97.726 97.719 97.726 97.716 97.671 97.674 97.636 97.596 97.579 97.541 97.564 97.599 97.624 97.669 97.736 97.706 97.729 97.751 97.774 97.796 97.849 97.904 97.944 98.019 98.144 98.246 98.371 98.474 98.606 98.761 98.891 99.059 99.181 99.366 99.526 99.701 99.849 100.019 100.164 100.314 100.501 100.664 100.834 100.967 101.134 101.247 101.422 101.532 101.647 101.739 101.864 101.979 102.092 102.222 102.307 102.442 102.577 102.689 102.802 102.914 103.047 103.197 103.312 103.389 103.517 103.604 103.712 103.842 103.954 104.087 104.157 104.257 104.322 104.392 104.459 104.527 104.585 104.646 104.71 104.791 104.83 104.807 104.812 104.823 104.836 104.845 104.874 104.88 104.862 104.889 104.906 104.876 104.844 104.824 104.791 104.744 104.691 104.664 104.594 104.536 104.514 104.491 104.481 104.464 104.439 104.421 104.406 104.454 104.491 104.526 104.534 104.786 105.689 103.971 103.851 103.804 103.754 103.644 103.491 103.366 103.264 103.156 103.074 102.991 102.906 102.869 102.846 102.836 102.786 102.726 102.689 102.619 102.584 102.596 102.594 102.541 102.481 102.431 102.366 102.284 102.204 102.121 101.999 101.866 101.791 101.721 101.649 101.571 101.464 101.381 101.289 101.219 101.109 101.046 100.974 100.899 100.811 100.706 100.629 100.529 100.461 100.376 100.301 100.236 100.159 100.089 100.051 100.016 99.954 99.899 99.816 99.741 99.674 99.624 99.571 99.491 99.511 99.486 99.454 99.374 99.984 99.636 99.211 99.154 99.134 99.131 99.129 99.181 99.186 99.169 99.151 99.116 99.074 98.976 98.849 98.684 98.509 98.349 98.154 97.919 97.689 97.466 97.231 96.979 96.724 96.511 96.266 96.031 95.774 95.529 95.279 95.099 94.896 94.741 94.569 94.446 94.349 94.271 94.199 94.159 94.134 94.084 94.059 94.041 94.051 94.036 94.029 94.006 93.996 93.974 93.956 93.966 93.949 93.971 93.994 94.039 94.049 94.111 94.151 94.186 94.196 94.229 94.281 94.314 94.346 94.411 94.449 94.496 94.576 94.619 94.646 94.686 94.749 94.814 94.869 94.936 95.021 95.059 95.081 95.159 95.204 95.214 95.244 95.276 95.276 95.289 95.324 95.301 95.276 95.289 95.274 95.294 95.286 95.269 95.306 95.319 95.356 95.366 95.369 95.386 95.404 95.446 95.451 95.466 95.489 95.501 95.589 95.656 95.766 95.696 97.456 97.224 96.436 95.689 95.631 95.624 97.569 100.299 101.886 101.656 100.034 98.219 97.884 96.011 95.544 95.511 95.491 95.404 95.389 95.364 95.379 95.551 95.559 95.561 95.611 96.211 95.726 95.806 95.941 96.061 96.091 96.101 96.129 96.494 96.441 96.466 97.871 101.396 101.781 99.799 96.969 97.296 97.511 97.214 98.809 101.236 101.764 101.971 101.571 101.961 101.931
97.721 97.689 97.634 97.539 97.394 97.244 97.084 96.896 96.671 96.464 96.324 96.181 96.031 95.839 95.544 95.629 95.806 95.811 95.884 95.964 96.001 96.061 96.141 96.264 96.404 96.516 96.646 96.734 96.774 96.899 97.009 97.061 97.126 97.206 97.304 97.321 97.426 97.531 97.589 97.686 97.779 97.831 97.866 97.919 97.916 97.939 97.934 97.911 97.846 97.801 97.784 97.779 97.764 97.779 97.734 97.724 97.704 97.691 97.689 97.679 97.684 97.694 97.691 97.691 97.691 97.669 97.651 97.659 97.604 97.591 97.546 97.496 97.514 97.494 97.539 97.591 97.624 97.661 97.659 97.671 97.719 97.761 97.791 97.866 97.934 98.034 98.131 98.219 98.326 98.454 98.591 98.734 98.901 99.014 99.211 99.361 99.526 99.689 99.844 100.004 100.144 100.311 100.496 100.652 100.807 100.907 101.087 101.172 101.312 101.432 101.499 101.597 101.772 101.844 101.959 102.112 102.197 102.359 102.437 102.559 102.672 102.799 102.934 103.104 103.204 103.332 103.457 103.539 103.652 103.784 103.924 104.009 104.102 104.189 104.302 104.367 104.479 104.554 104.57 104.653 104.682 104.746 104.802 104.843 104.83 104.858 104.875 104.908 104.918 104.94 104.961 104.959 104.951 104.951 104.914 104.899 104.836 104.821 104.754 104.711 104.661 104.619 104.584 104.566 104.554 104.534 104.514 104.489 104.484 104.491 104.541 104.546 104.571 104.584 104.886 104.079 103.936 103.876 103.821 103.711 103.591 103.454 103.326 103.246 103.154 103.059 103.001 102.954 102.946 102.919 102.861 102.806 102.714 102.711 102.684 102.691 102.674 102.639 102.594 102.534 102.466 102.386 102.296 102.159 102.044 101.969 101.884 101.799 101.711 101.621 101.516 101.424 101.356 101.286 101.216 101.126 101.054 100.971 100.886 100.764 100.704 100.591 100.516 100.449 100.371 100.304 100.244 100.189 100.174 100.109 100.074 99.981 99.909 99.851 99.796 99.706 99.636 99.581 99.586 99.556 99.536 99.439 100.224 99.434 99.324 99.276 99.254 99.274 99.269 99.286 99.301 99.299 99.274 99.251 99.179 99.096 98.981 98.816 98.634 98.434 98.231 98.009 97.786 97.544 97.306 97.074 96.819 96.569 96.339 96.084 95.814 95.581 95.349 95.124 94.924 94.754 94.584 94.434 94.304 94.206 94.164 94.109 94.086 94.054 94.011 93.999 93.991 93.966 93.946 93.919 93.934 93.916 93.904 93.869 93.891 93.909 93.934 93.981 93.986 94.044 94.074 94.094 94.141 94.169 94.186 94.214 94.246 94.314 94.366 94.399 94.434 94.496 94.536 94.581 94.641 94.706 94.734 94.779 94.851 94.896 94.939 94.979 95.034 95.071 95.086 95.124 95.114 95.134 95.144 95.159 95.169 95.131 95.144 95.144 95.124 95.129 95.144 95.151 95.171 95.214 95.234 95.221 95.236 95.254 95.234 95.264 95.241 95.289 95.354 95.456 95.516 95.429 97.104 97.174 95.934 95.626 95.566 95.584 97.889 101.184 101.984 101.399 99.479 96.661 95.669 95.689 95.659 95.399 95.301 95.221 95.224 95.249 95.254 95.264 95.314 95.344 95.409 95.556 95.521 95.579 95.769 95.846 95.929 95.986 96.039 96.851 96.441 96.294 96.861 97.961 99.104 97.826 98.164 97.464 98.859 97.254 100.004 101.194 101.554 101.681 101.271 100.744 100.846
97.724 97.709 97.639 97.574 97.451 97.304 97.136 96.934 96.719 96.511 96.419 96.224 96.094 96.011 95.544 95.571 95.779 95.811 95.889 95.954 96.011 96.024 96.119 96.229 96.369 96.494 96.601 96.694 96.786 96.909 96.971 97.036 97.134 97.201 97.294 97.336 97.411 97.516 97.594 97.666 97.746 97.834 97.876 97.891 97.881 97.869 97.876 97.866 97.811 97.739 97.724 97.716 97.729 97.744 97.706 97.686 97.659 97.694 97.676 97.661 97.669 97.684 97.664 97.654 97.631 97.621 97.639 97.601 97.561 97.524 97.494 97.464 97.436 97.459 97.481 97.496 97.539 97.561 97.589 97.626 97.679 97.731 97.766 97.839 97.909 97.991 98.109 98.184 98.281 98.411 98.541 98.709 98.864 99.021 99.204 99.369 99.514 99.704 99.881 100.031 100.139 100.266 100.446 100.567 100.712 100.854 100.967 101.102 101.199 101.304 101.402 101.484 101.652 101.754 101.862 101.972 102.082 102.229 102.284 102.404 102.539 102.697 102.814 102.959 103.077 103.202 103.384 103.497 103.577 103.694 103.854 103.939 104.059 104.207 104.254 104.357 104.429 104.502 104.537 104.586 104.671 104.744 104.788 104.797 104.83 104.869 104.923 104.956 105.003 105.028 105.033 105.041 105.01 104.987 104.979 104.944 104.916 104.886 104.826 104.806 104.761 104.701 104.651 104.629 104.611 104.594 104.584 104.594 104.584 104.576 104.594 104.599 104.609 104.601 104.616 105.534 104.196 103.904 103.856 103.759 103.659 103.561 103.386 103.294 103.214 103.146 103.114 103.074 103.016 102.979 102.914 102.859 102.801 102.766 102.759 102.744 102.729 102.724 102.694 102.629 102.559 102.459 102.336 102.201 102.139 102.071 101.964 101.866 101.766 101.669 101.566 101.496 101.439 101.341 101.289 101.236 101.126 101.054 100.951 100.864 100.779 100.684 100.589 100.514 100.459 100.414 100.369 100.311 100.259 100.219 100.136 100.074 100.009 99.951 99.861 99.754 99.699 99.676 99.661 99.624 99.604 99.701 100.394 99.486 99.409 99.394 99.381 99.394 99.384 99.376 99.404 99.394 99.364 99.351 99.294 99.186 99.094 98.939 98.766 98.561 98.354 98.121 97.861 97.616 97.406 97.176 96.921 96.671 96.414 96.159 95.911 95.641 95.424 95.171 94.984 94.786 94.599 94.459 94.314 94.224 94.121 94.064 94.039 93.994 93.971 93.944 93.931 93.906 93.881 93.864 93.871 93.851 93.824 93.791 93.824 93.821 93.866 93.896 93.924 93.949 93.966 93.991 94.036 94.074 94.109 94.131 94.159 94.224 94.249 94.304 94.331 94.389 94.421 94.476 94.531 94.604 94.624 94.676 94.716 94.764 94.784 94.826 94.839 94.889 94.944 94.999 94.966 94.989 95.031 95.004 95.006 94.991 94.954 94.981 94.974 94.976 95.016 95.029 95.009 95.029 95.039 95.046 95.061 95.069 95.054 95.059 95.041 95.109 95.166 95.276 95.241 95.366 96.796 97.041 96.539 95.736 95.721 95.639 98.846 101.481 101.936 101.514 101.451 97.176 95.536 95.579 95.414 95.176 95.089 95.086 95.136 95.134 95.156 95.181 95.251 95.299 95.341 95.356 95.389 95.456 95.524 95.611 95.744 95.811 95.849 96.056 96.059 96.131 96.141 96.216 97.239 96.566 96.771 97.489 96.786 96.774 99.426 99.964 100.479 100.986 101.046 100.554 100.701
97.716 97.741 97.676 97.564 97.459 97.309 97.159 96.989 96.789 96.561 96.449 96.289 96.114 96.059 95.634 95.539 95.661 95.811 95.911 95.944 96.009 96.029 96.089 96.191 96.299 96.406 96.516 96.646 96.774 96.831 96.961 97.006 97.119 97.194 97.256 97.334 97.411 97.504 97.584 97.646 97.716 97.784 97.786 97.836 97.844 97.824 97.804 97.779 97.726 97.716 97.726 97.691 97.691 97.694 97.694 97.671 97.691 97.669 97.666 97.641 97.644 97.611 97.604 97.591 97.579 97.556 97.561 97.516 97.491 97.436 97.426 97.414 97.379 97.449 97.414 97.444 97.489 97.506 97.511 97.581 97.686 97.731 97.776 97.831 97.924 98.024 98.101 98.214 98.324 98.399 98.541 98.729 98.844 99.041 99.251 99.384 99.546 99.719 99.869 99.989 100.139 100.291 100.409 100.524 100.644 100.752 100.899 101.002 101.077 101.172 101.262 101.382 101.529 101.642 101.734 101.849 101.937 102.054 102.169 102.287 102.422 102.552 102.679 102.789 102.919 103.082 103.264 103.384 103.532 103.637 103.812 103.929 104.042 104.164 104.239 104.302 104.374 104.432 104.502 104.551 104.626 104.699 104.791 104.817 104.866 104.89 104.971 105.012 105.054 105.062 105.102 105.105 105.062 105.059 105.046 105.029 104.976 104.964 104.886 104.859 104.821 104.744 104.719 104.704 104.689 104.684 104.659 104.664 104.674 104.661 104.654 104.651 104.649 104.626 104.651 105.386 104.981 103.959 103.911 103.854 103.736 103.629 103.486 103.386 103.319 103.259 103.214 103.149 103.069 103.016 102.961 102.919 102.874 102.846 102.819 102.806 102.811 102.794 102.759 102.719 102.644 102.496 102.371 102.319 102.219 102.139 102.036 101.939 101.816 101.734 101.649 101.596 101.514 101.429 101.384 101.319 101.249 101.139 101.036 100.946 100.854 100.769 100.691 100.621 100.559 100.531 100.489 100.414 100.356 100.271 100.201 100.134 100.056 99.994 99.919 99.859 99.771 99.781 99.744 99.701 99.656 99.831 100.434 99.571 99.466 99.444 99.454 99.486 99.481 99.479 99.496 99.496 99.466 99.446 99.376 99.289 99.149 99.019 98.861 98.681 98.479 98.246 98.011 97.776 97.536 97.269 97.021 96.759 96.491 96.231 95.986 95.729 95.476 95.244 95.034 94.819 94.656 94.489 94.324 94.199 94.136 94.041 93.979 93.949 93.916 93.869 93.874 93.851 93.841 93.826 93.826 93.784 93.764 93.771 93.776 93.796 93.789 93.819 93.846 93.879 93.899 93.926 93.954 93.994 93.996 94.021 94.029 94.094 94.129 94.179 94.229 94.264 94.304 94.354 94.424 94.529 94.481 94.529 94.589 94.611 94.654 94.731 94.759 94.774 94.779 94.799 94.819 94.831 94.831 94.826 94.824 94.846 94.831 94.819 94.841 94.856 94.861 94.876 94.874 94.924 94.901 94.899 94.884 94.881 94.876 94.909 94.869 94.911 94.991 95.079 94.959 95.164 95.971 96.181 95.906 95.714 96.349 96.611 95.706 96.884 99.344 99.496 99.341 96.009 95.434 95.216 94.986 94.966 94.981 95.004 95.029 95.029 95.176 95.211 95.244 95.309 95.286 95.311 95.386 95.396 95.461 95.524 95.559 95.554 95.609 95.704 95.846 95.916 95.981 96.489 96.226 96.261 96.444 97.736 96.624 96.796 96.789 96.711 97.026 97.454 98.306 98.934 99.841
97.714 97.686 97.661 97.596 97.479 97.376 97.226 97.064 96.844 96.616 96.464 96.386 96.199 96.016 95.779 95.534 95.601 95.786 95.921 95.936 96.009 96.039 96.066 96.171 96.299 96.394 96.514 96.619 96.766 96.849 96.954 97.024 97.086 97.169 97.239 97.316 97.376 97.461 97.539 97.579 97.639 97.701 97.764 97.819 97.836 97.809 97.769 97.756 97.689 97.666 97.666 97.621 97.636 97.661 97.731 97.724 97.666 97.656 97.629 97.614 97.584 97.596 97.561 97.556 97.509 97.494 97.504 97.471 97.431 97.384 97.364 97.376 97.381 97.349 97.349 97.404 97.484 97.481 97.531 97.601 97.651 97.724 97.771 97.811 97.896 97.986 98.099 98.214 98.321 98.439 98.561 98.706 98.869 99.074 99.244 99.394 99.556 99.714 99.869 99.991 100.124 100.241 100.366 100.502 100.602 100.704 100.797 100.917 101.024 101.192 101.239 101.307 101.402 101.507 101.627 101.739 101.824 101.929 102.024 102.149 102.289 102.454 102.567 102.702 102.884 103.079 103.227 103.367 103.484 103.612 103.712 103.874 103.974 104.064 104.134 104.257 104.337 104.409 104.477 104.556 104.628 104.689 104.787 104.837 104.91 104.956 105.006 105.038 105.078 105.103 105.125 105.136 105.167 105.177 105.119 105.086 105.024 104.986 104.944 104.899 104.844 104.801 104.774 104.766 104.776 104.771 104.749 104.734 104.751 104.741 104.709 104.704 104.694 104.709 104.686 104.731 105.361 104.104 103.971 103.884 103.801 103.694 103.556 103.501 103.414 103.359 103.281 103.219 103.139 103.081 103.039 102.991 102.979 102.906 102.919 102.894 102.866 102.839 102.809 102.764 102.674 102.554 102.481 102.404 102.306 102.196 102.096 102.009 101.904 101.836 101.769 101.699 101.636 101.579 101.489 101.399 101.299 101.206 101.111 101.026 100.934 100.831 100.754 100.696 100.651 100.616 100.579 100.506 100.436 100.349 100.271 100.186 100.131 100.066 99.991 99.906 99.856 99.879 99.839 99.794 99.729 100.056 99.969 99.634 99.544 99.511 99.501 99.511 99.536 99.559 99.574 99.564 99.529 99.506 99.436 99.336 99.249 99.101 98.934 98.769 98.534 98.329 98.116 97.876 97.651 97.411 97.191 96.904 96.609 96.336 96.079 95.816 95.566 95.321 95.096 94.889 94.696 94.501 94.361 94.229 94.101 94.009 93.936 93.904 93.859 93.834 93.831 93.799 93.816 93.781 93.756 93.754 93.726 93.734 93.749 93.756 93.744 93.771 93.784 93.776 93.784 93.834 93.856 93.871 93.856 93.936 93.966 93.989 94.011 94.061 94.101 94.131 94.209 94.231 94.264 94.321 94.366 94.401 94.486 94.521 94.556 94.579 94.626 94.674 94.674 94.706 94.704 94.694 94.729 94.691 94.664 94.666 94.656 94.681 94.701 94.694 94.704 94.696 94.719 94.746 94.724 94.709 94.716 94.711 94.741 94.719 94.684 94.749 94.831 94.899 94.686 95.699 96.374 95.189 94.924 94.879 94.874 95.999 95.541 96.334 94.846 94.924 95.286 95.784 95.696 95.019 94.891 94.889 94.896 94.966 95.214 95.146 96.046 96.639 95.576 95.259 95.361 95.554 95.639 95.434 95.476 95.471 95.464 95.504 95.511 95.514 95.596 95.666 95.771 96.649 96.029 96.164 96.456 97.151 96.439 97.269 96.849 96.689 96.579 96.616 96.624 96.951 97.476
97.701 97.684 97.666 97.591 97.511 97.399 97.256 97.106 96.896 96.694 96.529 96.414 96.216 96.046 95.904 95.546 95.549 95.834 95.869 95.979 95.994 96.061 96.101 96.181 96.251 96.371 96.511 96.621 96.734 96.846 96.951 97.046 97.084 97.139 97.216 97.274 97.354 97.441 97.499 97.554 97.604 97.654 97.729 97.771 97.791 97.766 97.754 97.731 97.661 97.639 97.629 97.614 97.611 97.674 97.699 97.656 97.636 97.621 97.596 97.584 97.574 97.544 97.494 97.474 97.464 97.436 97.431 97.374 97.371 97.331 97.324 97.326 97.326 97.339 97.334 97.359 97.396 97.469 97.526 97.546 97.601 97.709 97.761 97.834 97.924 98.011 98.116 98.259 98.359 98.504 98.601 98.781 98.929 99.064 99.229 99.411 99.574 99.714 99.876 100.021 100.094 100.196 100.334 100.444 100.532 100.614 100.724 100.847 101.007 101.069 101.194 101.294 101.347 101.419 101.534 101.659 101.742 101.842 101.967 102.069 102.199 102.369 102.482 102.634 102.827 102.979 103.119 103.304 103.424 103.522 103.634 103.754 103.869 103.997 104.087 104.189 104.292 104.389 104.462 104.549 104.617 104.705 104.795 104.866 104.902 104.982 105.022 105.058 105.12 105.162 105.181 105.219 105.238 105.222 105.199 105.136 105.094 105.061 105.004 104.941 104.919 104.889 104.874 104.846 104.849 104.861 104.846 104.819 104.821 104.794 104.746 104.704 104.729 104.741 104.724 104.681 104.966 104.909 104.004 103.936 103.866 103.771 103.649 103.561 103.484 103.416 103.349 103.286 103.209 103.164 103.111 103.076 103.039 102.989 102.994 102.986 102.944 102.896 102.834 102.781 102.719 102.649 102.581 102.479 102.364 102.281 102.161 102.094 102.004 101.954 101.869 101.814 101.761 101.669 101.581 101.474 101.369 101.284 101.191 101.114 100.991 100.909 100.861 100.814 100.759 100.709 100.644 100.554 100.481 100.431 100.329 100.261 100.201 100.114 100.034 100.009 99.944 99.949 99.921 99.859 99.769 100.299 100.326 99.629 99.604 99.594 99.561 99.554 99.554 99.571 99.586 99.581 99.589 99.576 99.516 99.401 99.311 99.181 99.004 98.816 98.639 98.411 98.211 97.991 97.756 97.524 97.281 97.029 96.781 96.501 96.219 95.944 95.669 95.421 95.199 94.961 94.761 94.559 94.374 94.229 94.116 94.039 93.964 93.894 93.846 93.814 93.801 93.776 93.744 93.741 93.699 93.684 93.679 93.671 93.694 93.696 93.694 93.714 93.716 93.749 93.721 93.729 93.766 93.769 93.754 93.776 93.839 93.856 93.901 93.954 94.004 94.006 94.089 94.121 94.164 94.224 94.254 94.306 94.351 94.379 94.436 94.479 94.526 94.571 94.564 94.584 94.586 94.576 94.609 94.564 94.544 94.516 94.504 94.516 94.524 94.531 94.564 94.564 94.556 94.576 94.579 94.561 94.576 94.564 94.574 94.561 94.539 94.569 94.654 94.684 94.576 95.511 95.729 94.916 94.816 94.761 94.789 98.069 98.621 97.329 94.759 94.756 94.806 94.956 94.994 94.926 94.896 95.426 95.151 95.364 96.261 95.701 95.579 97.636 95.326 95.106 95.771 96.164 95.889 95.441 95.521 95.504 95.781 95.764 95.524 95.461 95.516 95.561 95.589 95.704 95.854 95.979 96.874 96.574 96.206 96.476 96.316 96.449 96.481 96.504 96.534 96.639 96.734
97.699 97.691 97.686 97.639 97.554 97.429 97.311 97.156 96.986 96.754 96.564 96.486 96.241 96.041 95.919 95.594 95.589 95.869 95.904 96.001 96.016 96.061 96.086 96.161 96.251 96.351 96.496 96.604 96.729 96.826 96.934 97.014 97.086 97.146 97.219 97.276 97.336 97.364 97.461 97.481 97.544 97.601 97.671 97.716 97.754 97.754 97.721 97.696 97.659 97.621 97.611 97.599 97.611 97.629 97.624 97.609 97.604 97.601 97.536 97.544 97.511 97.474 97.444 97.394 97.384 97.344 97.336 97.311 97.324 97.291 97.291 97.326 97.339 97.301 97.289 97.346 97.366 97.446 97.486 97.559 97.619 97.734 97.781 97.854 97.976 98.101 98.219 98.326 98.414 98.539 98.714 98.811 98.914 99.066 99.214 99.401 99.534 99.664 99.784 99.954 100.061 100.169 100.246 100.352 100.432 100.562 100.697 100.797 100.897 100.997 101.094 101.217 101.312 101.394 101.477 101.582 101.689 101.824 101.937 102.027 102.127 102.274 102.422 102.542 102.684 102.872 103.027 103.187 103.312 103.447 103.559 103.699 103.822 103.962 104.099 104.179 104.287 104.374 104.464 104.544 104.636 104.737 104.787 104.858 104.941 105.023 105.081 105.121 105.175 105.189 105.228 105.249 105.237 105.253 105.236 105.199 105.149 105.116 105.076 105.061 105.009 104.984 104.964 104.951 104.961 104.944 104.904 104.891 104.874 104.846 104.791 104.761 104.766 104.744 104.749 104.724 104.666 105.224 104.114 103.966 103.891 103.819 103.746 103.654 103.551 103.484 103.409 103.344 103.281 103.231 103.196 103.149 103.104 103.081 103.084 103.054 103.026 102.976 102.874 102.841 102.791 102.726 102.626 102.531 102.421 102.359 102.269 102.201 102.116 102.069 101.976 101.911 101.841 101.744 101.639 101.546 101.436 101.359 101.249 101.169 101.084 101.014 101.006 100.919 100.894 100.794 100.716 100.619 100.521 100.464 100.391 100.324 100.264 100.206 100.171 100.084 100.064 100.031 99.986 99.959 99.901 101.126 100.099 99.696 99.696 99.646 99.626 99.609 99.614 99.601 99.746 99.634 99.601 99.571 99.521 99.459 99.351 99.211 99.089 98.889 98.719 98.509 98.311 98.084 97.859 97.646 97.409 97.154 96.879 96.629 96.354 96.079 95.809 95.554 95.281 95.064 94.839 94.634 94.436 94.269 94.129 94.034 93.954 93.871 93.816 93.824 93.769 93.719 93.669 93.651 93.646 93.654 93.671 93.621 93.634 93.656 93.661 93.669 93.674 93.681 93.686 93.696 93.714 93.721 93.744 93.759 93.759 93.744 93.801 93.834 93.866 93.924 93.964 94.019 94.046 94.089 94.136 94.186 94.239 94.264 94.316 94.349 94.384 94.426 94.461 94.481 94.476 94.499 94.446 94.454 94.439 94.406 94.421 94.394 94.371 94.411 94.404 94.404 94.429 94.441 94.429 94.409 94.409 94.404 94.414 94.411 94.379 94.421 94.501 94.449 94.989 97.551 94.906 94.789 94.689 95.579 95.814 98.201 99.449 97.786 95.344 94.764 94.686 94.716 94.776 94.876 95.019 96.294 96.069 95.296 95.826 95.559 94.861 94.896 94.916 94.909 95.779 96.014 95.691 95.356 95.531 95.491 96.191 96.229 95.691 95.439 95.436 95.469 95.466 95.559 95.696 95.971 96.796 96.569 96.459 96.026 96.084 97.199 96.671 96.384 96.436 96.596 96.734
97.691 97.706 97.731 97.629 97.584 97.481 97.364 97.221 97.044 96.826 96.599 96.469 96.291 96.121 95.921 95.649 95.534 95.639 95.989 96.039 96.039 96.066 96.131 96.181 96.241 96.344 96.489 96.601 96.686 96.801 96.891 96.956 97.026 97.086 97.171 97.256 97.294 97.364 97.439 97.496 97.526 97.569 97.636 97.664 97.714 97.749 97.754 97.694 97.619 97.599 97.576 97.579 97.624 97.621 97.581 97.621 97.561 97.501 97.496 97.459 97.441 97.404 97.371 97.344 97.309 97.271 97.269 97.291 97.309 97.296 97.299 97.279 97.289 97.249 97.284 97.334 97.374 97.451 97.481 97.559 97.616 97.719 97.821 97.924 98.046 98.154 98.231 98.351 98.431 98.541 98.739 98.796 98.899 99.024 99.179 99.354 99.504 99.636 99.761 99.906 99.994 100.144 100.204 100.349 100.462 100.557 100.634 100.737 100.844 100.942 101.074 101.179 101.277 101.327 101.399 101.527 101.629 101.727 101.849 101.934 102.014 102.159 102.294 102.454 102.609 102.754 102.917 103.112 103.257 103.399 103.517 103.649 103.772 103.929 104.054 104.159 104.272 104.382 104.444 104.574 104.7 104.753 104.813 104.879 104.978 105.041 105.107 105.16 105.201 105.216 105.255 105.288 105.272 105.275 105.286 105.256 105.221 105.184 105.176 105.154 105.131 105.094 105.076 105.036 105.019 104.984 104.971 104.909 104.906 104.874 104.846 104.811 104.774 104.791 104.791 104.761 104.779 105.456 104.921 103.999 103.954 103.869 103.821 103.716 103.609 103.536 103.464 103.406 103.349 103.306 103.276 103.199 103.186 103.189 103.146 103.119 103.079 102.986 102.936 102.899 102.846 102.764 102.666 102.591 102.544 102.466 102.386 102.321 102.236 102.164 102.086 102.009 101.916 101.811 101.716 101.631 101.524 101.424 101.316 101.239 101.189 101.134 101.104 101.039 100.951 100.866 100.761 100.669 100.581 100.519 100.459 100.391 100.336 100.289 100.246 100.174 100.144 100.099 100.046 99.986 100.301 101.706 99.949 99.836 99.786 99.699 99.709 99.716 99.711 99.709 100.016 99.681 99.639 99.604 99.546 99.471 99.374 99.234 99.106 98.934 98.779 98.591 98.389 98.184 97.974 97.739 97.509 97.261 97.019 96.764 96.494 96.199 95.926 95.676 95.411 95.169 94.909 94.726 94.526 94.344 94.176 94.051 93.946 93.856 93.804 93.771 93.714 93.714 93.641 93.611 93.589 93.549 93.544 93.564 93.554 93.609 93.596 93.609 93.631 93.631 93.619 93.619 93.681 93.676 93.699 93.674 93.706 93.686 93.671 93.701 93.726 93.789 93.866 93.911 93.954 94.004 94.046 94.056 94.101 94.161 94.209 94.251 94.281 94.331 94.349 94.376 94.386 94.391 94.366 94.351 94.314 94.306 94.296 94.296 94.294 94.306 94.296 94.284 94.279 94.254 94.256 94.279 94.274 94.271 94.251 94.229 94.256 94.284 94.351 94.229 95.084 96.816 95.806 94.719 95.934 97.849 99.061 101.039 101.931 100.859 99.224 95.416 94.639 94.621 94.849 95.311 94.729 94.791 95.551 94.979 95.256 95.316 95.489 95.251 95.891 95.461 95.384 95.366 95.494 95.389 95.506 95.486 95.904 96.106 95.689 95.484 95.379 95.364 95.374 95.394 95.531 95.924 96.346 96.191 96.099 95.859 95.919 96.189 96.306 96.294 96.301 96.321 96.371
97.709 97.721 97.714 97.664 97.621 97.549 97.454 97.249 97.066 96.854 96.631 96.489 96.354 96.141 96.001 95.751 95.539 95.529 95.871 96.131 96.114 96.086 96.144 96.239 96.274 96.339 96.464 96.591 96.699 96.816 96.859 96.941 97.014 97.074 97.166 97.211 97.289 97.329 97.401 97.461 97.506 97.546 97.594 97.646 97.701 97.691 97.694 97.659 97.589 97.559 97.541 97.549 97.589 97.541 97.519 97.581 97.504 97.491 97.449 97.429 97.404 97.379 97.336 97.289 97.301 97.254 97.294 97.361 97.324 97.286 97.261 97.239 97.256 97.279 97.266 97.314 97.384 97.466 97.526 97.596 97.686 97.791 97.861 97.966 98.034 98.151 98.229 98.346 98.436 98.561 98.624 98.764 98.896 99.034 99.154 99.329 99.471 99.624 99.739 99.881 99.999 100.116 100.224 100.369 100.427 100.514 100.604 100.687 100.792 100.907 101.047 101.139 101.252 101.292 101.379 101.439 101.552 101.649 101.797 101.902 101.984 102.082 102.197 102.359 102.509 102.672 102.852 103.027 103.184 103.317 103.452 103.602 103.774 103.922 104.014 104.152 104.274 104.377 104.472 104.562 104.644 104.745 104.839 104.914 104.984 105.049 105.132 105.178 105.222 105.235 105.283 105.305 105.313 105.329 105.324 105.329 105.304 105.289 105.289 105.274 105.259 105.244 105.186 105.134 105.066 105.036 104.994 104.939 104.931 104.931 104.886 104.854 104.831 104.836 104.799 104.784 104.819 105.101 105.761 104.106 103.979 103.919 103.876 103.781 103.661 103.579 103.524 103.471 103.411 103.376 103.341 103.304 103.274 103.234 103.209 103.136 103.079 103.039 102.996 102.946 102.884 102.814 102.764 102.689 102.621 102.551 102.531 102.429 102.331 102.251 102.196 102.096 101.981 101.906 101.796 101.716 101.594 101.519 101.429 101.381 101.306 101.256 101.201 101.111 101.039 100.936 100.846 100.731 100.649 100.589 100.519 100.481 100.421 100.381 100.306 100.251 100.229 100.144 100.141 100.049 100.714 101.621 99.946 100.214 100.351 100.559 100.279 99.919 100.151 99.769 99.729 99.741 99.704 99.679 99.594 99.511 99.424 99.311 99.186 98.984 98.809 98.626 98.464 98.244 98.054 97.819 97.584 97.369 97.129 96.869 96.594 96.319 96.076 95.801 95.549 95.306 95.064 94.839 94.611 94.406 94.239 94.106 93.964 93.864 93.776 93.734 93.686 93.669 93.626 93.564 93.559 93.544 93.519 93.524 93.519 93.531 93.556 93.539 93.579 93.584 93.561 93.579 93.609 93.601 93.621 93.584 93.519 93.586 93.599 93.634 93.674 93.671 93.746 93.811 93.854 93.904 93.926 93.954 94.021 94.054 94.104 94.131 94.179 94.224 94.254 94.281 94.279 94.256 94.234 94.211 94.219 94.201 94.191 94.186 94.186 94.186 94.179 94.169 94.154 94.121 94.109 94.116 94.124 94.116 94.091 94.069 94.106 94.126 94.169 94.096 94.471 95.556 95.526 94.681 95.551 97.236 99.471 101.224 101.876 100.876 99.626 95.466 94.541 94.514 95.526 95.569 94.616 95.014 94.946 94.501 95.301 97.141 99.801 99.459 99.449 99.444 100.024 96.689 95.291 95.656 95.426 95.479 95.604 96.391 95.341 95.366 95.371 95.286 95.301 95.269 95.406 97.646 95.836 95.651 95.706 95.744 95.784 96.326 98.034 96.176 96.141 96.156 96.214
97.724 97.779 97.801 97.741 97.669 97.576 97.439 97.279 97.061 96.879 96.644 96.449 96.311 96.141 95.999 95.741 95.541 95.529 95.671 96.091 96.146 96.084 96.174 96.256 96.279 96.339 96.461 96.584 96.681 96.759 96.859 96.919 97.006 97.091 97.166 97.181 97.286 97.334 97.376 97.389 97.441 97.486 97.544 97.594 97.644 97.621 97.656 97.611 97.554 97.519 97.489 97.521 97.501 97.469 97.516 97.524 97.436 97.446 97.459 97.404 97.389 97.336 97.296 97.291 97.276 97.266 97.294 97.304 97.299 97.299 97.286 97.261 97.264 97.294 97.304 97.364 97.431 97.496 97.556 97.619 97.689 97.754 97.856 97.959 98.034 98.106 98.251 98.356 98.459 98.586 98.711 98.794 98.921 99.014 99.149 99.281 99.431 99.589 99.706 99.859 100.011 100.096 100.224 100.347 100.437 100.542 100.629 100.714 100.809 100.902 101.034 101.154 101.254 101.289 101.382 101.394 101.442 101.544 101.654 101.807 101.934 101.989 102.099 102.234 102.424 102.592 102.764 102.922 103.112 103.277 103.439 103.604 103.772 103.944 104.029 104.154 104.279 104.394 104.482 104.574 104.672 104.79 104.846 104.938 105.022 105.085 105.136 105.199 105.241 105.271 105.293 105.342 105.361 105.394 105.419 105.399 105.391 105.384 105.376 105.361 105.346 105.299 105.251 105.186 105.134 105.079 105.016 104.969 104.976 104.974 104.944 104.901 104.879 104.861 104.829 104.786 104.831 104.954 105.921 104.541 104.044 103.971 103.926 103.854 103.739 103.649 103.601 103.529 103.491 103.456 103.421 103.369 103.304 103.264 103.194 103.146 103.114 103.066 103.029 102.969 102.896 102.861 102.844 102.791 102.719 102.671 102.606 102.496 102.409 102.331 102.249 102.144 102.059 101.964 101.876 101.741 101.696 101.599 101.534 101.496 101.429 101.351 101.279 101.194 101.091 101.021 100.919 100.844 100.729 100.676 100.619 100.549 100.504 100.404 100.324 100.291 100.261 100.226 100.189 100.126 101.044 100.724 99.884 100.071 101.434 101.694 101.731 102.351 101.844 101.339 100.664 101.329 100.319 99.736 99.654 99.574 99.476 99.364 99.219 99.066 98.884 98.676 98.504 98.301 98.124 97.914 97.709 97.456 97.181 96.946 96.694 96.446 96.181 95.911 95.661 95.451 95.189 94.966 94.784 94.536 94.339 94.196 94.001 93.876 93.799 93.706 93.629 93.579 93.581 93.546 93.511 93.489 93.486 93.494 93.534 93.521 93.501 93.514 93.546 93.529 93.509 93.521 93.534 93.534 93.504 93.459 93.396 93.511 93.499 93.514 93.591 93.601 93.616 93.694 93.744 93.791 93.836 93.901 93.934 93.969 94.006 94.021 94.086 94.121 94.141 94.161 94.186 94.169 94.176 94.161 94.134 94.126 94.096 94.089 94.084 94.081 94.059 94.054 94.049 94.021 94.019 93.989 93.974 93.971 93.931 93.951 93.979 93.999 93.999 94.041 94.586 94.966 94.606 94.704 94.629 94.641 98.006 101.306 101.811 100.791 98.949 95.151 94.436 94.426 95.524 97.254 98.779 98.769 98.951 99.176 96.776 98.409 101.114 101.059 101.031 100.966 100.919 98.364 97.724 99.586 97.866 97.221 97.289 96.509 95.414 95.389 95.354 95.261 95.199 95.191 95.256 95.571 96.084 99.741 101.136 95.911 95.651 97.311 96.586 96.164 96.009 96.006 96.039
97.804 97.834 97.836 97.781 97.704 97.559 97.454 97.294 97.114 96.916 96.684 96.506 96.404 96.244 96.031 95.814 95.579 95.539 95.566 96.006 96.124 96.166 96.181 96.241 96.276 96.341 96.439 96.546 96.686 96.781 96.829 96.889 96.984 97.081 97.136 97.179 97.261 97.291 97.346 97.374 97.389 97.456 97.516 97.524 97.554 97.581 97.566 97.564 97.536 97.486 97.444 97.476 97.476 97.451 97.419 97.429 97.439 97.406 97.396 97.366 97.361 97.334 97.334 97.309 97.284 97.276 97.284 97.306 97.289 97.316 97.314 97.311 97.311 97.356 97.356 97.391 97.449 97.494 97.554 97.611 97.656 97.776 97.849 97.981 98.034 98.136 98.271 98.386 98.511 98.621 98.721 98.821 98.904 99.034 99.164 99.284 99.439 99.596 99.749 99.904 100.021 100.139 100.276 100.352 100.479 100.557 100.627 100.742 100.839 100.879 100.987 101.112 101.172 101.237 101.307 101.362 101.422 101.524 101.582 101.702 101.814 101.919 102.009 102.154 102.349 102.497 102.677 102.867 103.099 103.267 103.404 103.562 103.744 103.899 104.047 104.159 104.272 104.384 104.462 104.589 104.688 104.797 104.887 104.943 105.02 105.093 105.14 105.214 105.259 105.3 105.345 105.415 105.431 105.485 105.494 105.469 105.494 105.476 105.431 105.401 105.349 105.324 105.294 105.239 105.166 105.131 105.086 105.029 105.019 104.994 104.961 104.909 104.891 104.879 104.859 104.836 104.849 104.846 105.431 105.361 104.196 104.024 103.984 103.909 103.814 103.731 103.681 103.619 103.579 103.479 103.436 103.416 103.354 103.284 103.254 103.194 103.179 103.164 103.136 103.081 103.034 103.016 102.961 102.914 102.869 102.814 102.729 102.651 102.571 102.466 102.361 102.249 102.189 102.079 101.991 101.896 101.811 101.726 101.646 101.591 101.526 101.451 101.374 101.274 101.199 101.106 100.999 100.904 100.831 100.756 100.656 100.611 100.544 100.446 100.361 100.331 100.319 100.289 100.236 100.226 100.881 100.609 99.909 99.919 100.046 99.979 100.566 100.661 100.929 100.686 101.604 102.136 102.266 101.776 100.219 99.736 99.569 99.414 99.274 99.111 98.946 98.749 98.599 98.386 98.191 97.976 97.744 97.509 97.269 97.039 96.776 96.514 96.254 95.989 95.741 95.511 95.231 95.009 94.801 94.614 94.429 94.236 94.064 93.926 93.796 93.671 93.626 93.569 93.541 93.491 93.444 93.414 93.426 93.434 93.481 93.434 93.444 93.486 93.489 93.476 93.474 93.474 93.486 93.454 93.466 93.334 93.459 93.556 93.406 93.434 93.431 93.506 93.566 93.614 93.674 93.689 93.736 93.779 93.816 93.869 93.916 93.941 93.989 94.016 94.041 94.041 94.064 94.089 94.069 94.071 94.049 94.039 94.021 94.001 93.984 93.976 93.971 93.971 93.936 93.916 93.914 93.894 93.886 93.851 93.804 93.844 93.839 93.869 93.836 94.084 94.951 95.141 94.496 94.506 94.506 94.674 98.419 101.419 101.781 100.704 99.036 94.614 94.309 94.309 94.911 98.879 100.576 100.511 100.446 100.406 99.044 97.744 101.629 101.689 101.764 101.801 101.804 99.356 98.881 101.054 100.901 100.736 100.771 100.574 97.326 95.824 95.674 95.974 95.074 95.066 95.076 95.284 96.301 99.669 101.781 98.726 98.249 97.219 97.134 96.754 95.851 95.871 95.864
97.859 97.864 97.854 97.809 97.709 97.604 97.539 97.341 97.156 96.936 96.736 96.554 96.474 96.274 96.074 95.836 95.619 95.534 95.539 95.874 96.131 96.136 96.186 96.276 96.296 96.331 96.411 96.499 96.649 96.751 96.816 96.881 96.959 97.074 97.099 97.156 97.221 97.271 97.316 97.304 97.336 97.394 97.441 97.459 97.489 97.516 97.509 97.554 97.504 97.451 97.439 97.391 97.456 97.456 97.419 97.379 97.399 97.369 97.376 97.414 97.371 97.336 97.331 97.324 97.319 97.281 97.314 97.286 97.341 97.364 97.349 97.326 97.339 97.356 97.349 97.389 97.444 97.469 97.521 97.604 97.699 97.801 97.869 97.961 98.096 98.174 98.291 98.401 98.481 98.559 98.614 98.781 98.901 99.046 99.214 99.364 99.496 99.634 99.799 99.954 100.054 100.201 100.314 100.422 100.559 100.627 100.707 100.779 100.829 100.887 100.979 101.024 101.139 101.172 101.234 101.299 101.382 101.477 101.547 101.582 101.689 101.819 101.949 102.089 102.244 102.407 102.597 102.819 103.067 103.204 103.377 103.557 103.727 103.887 104.034 104.177 104.257 104.374 104.472 104.584 104.692 104.775 104.874 104.974 105.041 105.097 105.188 105.263 105.32 105.377 105.437 105.484 105.527 105.557 105.549 105.531 105.524 105.484 105.449 105.431 105.389 105.339 105.314 105.286 105.241 105.209 105.139 105.111 105.069 105.039 105.001 104.954 104.926 104.914 104.864 104.889 104.894 104.859 104.959 105.471 104.404 104.091 104.049 104.009 103.926 103.844 103.781 103.736 103.666 103.574 103.544 103.486 103.434 103.381 103.306 103.279 103.279 103.254 103.211 103.161 103.161 103.116 103.081 103.029 102.941 102.866 102.786 102.716 102.676 102.559 102.451 102.366 102.291 102.144 102.056 102.021 101.931 101.859 101.774 101.734 101.646 101.566 101.464 101.369 101.276 101.199 101.086 100.989 100.879 100.799 100.696 100.646 100.576 100.474 100.411 100.409 100.379 100.316 100.281 100.869 100.626 100.036 99.919 99.964 99.974 99.974 99.906 99.939 99.926 99.931 99.979 99.994 100.579 101.341 101.531 101.711 101.599 100.469 99.769 99.194 98.976 98.801 98.629 98.474 98.271 98.054 97.854 97.614 97.356 97.106 96.834 96.571 96.339 96.094 95.811 95.574 95.329 95.106 94.869 94.681 94.484 94.291 94.106 93.959 93.841 93.736 93.636 93.564 93.514 93.471 93.459 93.414 93.381 93.396 93.479 93.399 93.424 93.441 93.426 93.434 93.429 93.441 93.431 93.414 93.404 93.224 93.389 93.439 93.406 93.394 93.371 93.391 93.496 93.511 93.601 93.614 93.659 93.671 93.699 93.749 93.779 93.836 93.864 93.916 93.946 93.954 93.959 93.971 93.964 93.974 93.966 93.956 93.926 93.919 93.911 93.909 93.891 93.864 93.824 93.821 93.801 93.796 93.789 93.734 93.686 93.709 93.716 93.764 93.714 93.854 97.171 95.761 94.809 94.734 94.164 94.214 95.404 96.611 97.736 97.429 96.086 94.176 94.206 94.219 95.249 98.946 101.254 101.256 101.276 101.341 98.846 98.346 100.741 100.789 100.851 100.904 100.969 98.006 100.629 102.054 101.939 101.871 101.856 101.819 98.054 96.651 95.751 95.646 94.946 94.939 94.939 95.006 95.319 97.996 99.329 104.416 105.476 104.261 101.866 98.129 95.789 95.724 95.746
97.869 97.854 97.839 97.796 97.736 97.636 97.531 97.379 97.224 96.991 96.789 96.584 96.489 96.259 96.094 95.874 95.651 95.516 95.541 95.679 96.031 96.164 96.256 96.279 96.309 96.354 96.426 96.549 96.634 96.706 96.781 96.839 96.926 97.011 97.089 97.146 97.206 97.234 97.261 97.251 97.271 97.316 97.354 97.399 97.421 97.409 97.424 97.429 97.461 97.401 97.399 97.379 97.429 97.389 97.404 97.399 97.381 97.374 97.361 97.356 97.384 97.346 97.366 97.361 97.356 97.329 97.336 97.354 97.359 97.359 97.324 97.326 97.351 97.346 97.349 97.369 97.419 97.496 97.571 97.654 97.734 97.801 97.901 98.001 98.084 98.206 98.311 98.391 98.486 98.554 98.671 98.846 98.954 99.081 99.226 99.354 99.489 99.664 99.814 99.984 100.094 100.204 100.311 100.437 100.542 100.632 100.704 100.759 100.784 100.829 100.939 101.014 101.089 101.149 101.179 101.219 101.324 101.394 101.457 101.512 101.599 101.739 101.879 101.987 102.164 102.354 102.592 102.777 102.972 103.147 103.339 103.537 103.732 103.882 104.032 104.169 104.244 104.357 104.497 104.612 104.714 104.812 104.906 104.984 105.078 105.143 105.257 105.34 105.413 105.481 105.498 105.54 105.561 105.577 105.576 105.564 105.524 105.516 105.494 105.466 105.439 105.409 105.389 105.349 105.304 105.261 105.204 105.186 105.139 105.119 105.079 105.031 104.994 104.956 104.926 104.941 104.936 104.924 104.984 105.724 104.846 104.126 104.091 104.066 104.021 103.929 103.839 103.781 103.734 103.696 103.621 103.539 103.456 103.429 103.369 103.351 103.326 103.274 103.251 103.234 103.194 103.146 103.099 103.054 102.949 102.864 102.776 102.721 102.639 102.534 102.474 102.389 102.286 102.176 102.114 102.039 101.979 101.894 101.826 101.799 101.729 101.636 101.541 101.446 101.369 101.271 101.184 101.081 100.979 100.891 100.784 100.689 100.619 100.544 100.484 100.441 100.436 100.366 101.024 102.074 100.196 99.971 100.019 100.086 101.184 100.994 100.864 100.239 99.889 99.864 99.841 99.856 99.796 99.786 99.844 100.286 101.374 101.339 101.766 100.764 100.496 99.999 99.021 98.469 98.329 98.141 97.919 97.679 97.451 97.199 96.951 96.646 96.361 96.106 95.894 95.656 95.396 95.164 94.941 94.746 94.539 94.349 94.136 93.996 93.876 93.759 93.699 93.591 93.494 93.436 93.399 93.371 93.374 93.354 93.414 93.401 93.436 93.391 93.439 93.421 93.404 93.389 93.371 93.364 93.346 93.176 93.309 93.384 93.336 93.311 93.336 93.389 93.396 93.411 93.439 93.521 93.564 93.561 93.616 93.639 93.661 93.716 93.751 93.786 93.831 93.831 93.849 93.881 93.876 93.866 93.846 93.834 93.829 93.814 93.796 93.791 93.779 93.779 93.769 93.734 93.691 93.686 93.681 93.639 93.591 93.644 93.639 93.659 93.586 95.541 98.134 94.514 94.116 94.091 94.149 95.494 98.379 97.699 96.064 95.111 94.214 94.101 95.044 94.151 95.739 99.359 100.434 100.471 100.521 100.564 97.904 96.164 96.521 99.001 99.059 97.199 97.439 96.014 100.846 101.829 101.886 101.929 101.919 101.781 96.909 95.421 95.486 95.526 94.849 94.819 94.776 94.774 95.126 95.451 97.859 105.059 106.319 105.751 101.111 97.754 95.771 95.606 95.644
97.866 97.859 97.829 97.811 97.744 97.646 97.526 97.379 97.246 97.049 96.829 96.606 96.466 96.274 96.156 95.964 95.754 95.536 95.531 95.541 95.784 96.174 96.246 96.264 96.311 96.371 96.421 96.519 96.576 96.666 96.751 96.866 96.929 97.026 97.051 97.104 97.141 97.164 97.211 97.221 97.236 97.256 97.294 97.321 97.316 97.319 97.346 97.379 97.374 97.356 97.341 97.351 97.344 97.389 97.391 97.364 97.354 97.376 97.356 97.354 97.374 97.404 97.409 97.394 97.369 97.356 97.346 97.361 97.356 97.331 97.364 97.364 97.369 97.371 97.411 97.416 97.451 97.489 97.561 97.666 97.756 97.829 97.904 98.014 98.051 98.174 98.266 98.379 98.516 98.589 98.704 98.839 98.966 99.106 99.234 99.366 99.519 99.684 99.851 99.984 100.104 100.211 100.341 100.449 100.522 100.607 100.669 100.729 100.757 100.822 100.944 101.049 101.089 101.117 101.157 101.169 101.234 101.299 101.384 101.452 101.522 101.649 101.814 101.989 102.137 102.327 102.524 102.749 102.964 103.152 103.337 103.512 103.677 103.862 104.017 104.124 104.257 104.372 104.479 104.589 104.713 104.81 104.891 105.015 105.103 105.201 105.31 105.383 105.453 105.493 105.488 105.52 105.549 105.538 105.576 105.576 105.579 105.564 105.559 105.531 105.531 105.529 105.451 105.431 105.436 105.371 105.331 105.314 105.244 105.211 105.184 105.119 105.076 105.036 104.989 104.969 104.969 104.926 104.924 105.409 105.354 104.199 104.131 104.091 104.059 103.956 103.886 103.786 103.744 103.674 103.606 103.551 103.496 103.439 103.356 103.364 103.336 103.276 103.286 103.246 103.184 103.134 103.099 103.084 103.001 103.049 103.054 103.061 102.704 102.541 102.624 102.466 102.294 102.181 102.101 101.999 101.939 101.889 101.804 101.766 101.716 101.641 101.564 101.476 101.386 101.291 101.206 101.106 101.021 100.936 100.854 100.769 100.709 100.616 100.581 100.526 100.494 100.431 100.854 100.896 100.141 100.099 100.236 101.709 102.391 101.714 102.081 102.129 101.524 100.614 100.284 99.889 99.846 99.786 99.779 99.729 99.726 99.724 100.094 100.746 100.884 101.739 101.289 100.106 99.316 99.046 97.976 97.714 97.549 97.334 97.056 96.751 96.461 96.199 95.944 95.679 95.451 95.231 94.991 94.784 94.596 94.386 94.211 94.041 93.889 93.766 93.674 93.591 93.516 93.476 93.449 93.421 93.411 93.391 93.369 93.361 93.359 93.356 93.384 93.346 93.361 93.349 93.314 93.316 93.274 93.106 93.226 93.334 93.206 93.221 93.249 93.311 93.359 93.344 93.309 93.349 93.434 93.471 93.481 93.531 93.586 93.619 93.664 93.679 93.736 93.746 93.766 93.781 93.769 93.764 93.756 93.736 93.734 93.716 93.699 93.684 93.666 93.659 93.661 93.651 93.604 93.571 93.551 93.526 93.514 93.529 93.531 93.529 94.299 96.429 96.061 94.121 94.104 93.991 94.006 95.876 100.174 101.106 100.304 99.259 95.396 94.081 95.116 94.121 97.804 96.229 95.421 97.999 98.669 97.386 96.709 96.474 95.214 96.289 95.941 94.689 94.704 95.811 99.339 99.309 100.389 100.684 100.876 100.891 96.496 95.051 95.054 95.131 94.776 94.696 94.696 94.591 94.884 95.196 95.441 98.221 104.049 106.191 105.734 102.481 95.941 95.494 95.561
97.854 97.859 97.821 97.776 97.711 97.636 97.546 97.449 97.284 97.064 96.861 96.646 96.484 96.384 96.139 96.004 95.704 95.539 95.534 95.521 95.629 96.086 96.236 96.299 96.314 96.386 96.426 96.496 96.541 96.611 96.701 96.816 96.926 96.989 97.036 97.069 97.104 97.131 97.131 97.151 97.171 97.199 97.204 97.224 97.221 97.211 97.274 97.344 97.321 97.324 97.306 97.329 97.336 97.371 97.384 97.371 97.361 97.356 97.404 97.371 97.396 97.414 97.461 97.416 97.354 97.339 97.351 97.359 97.364 97.376 97.409 97.379 97.396 97.376 97.426 97.446 97.479 97.539 97.581 97.684 97.736 97.849 97.924 98.011 98.081 98.176 98.261 98.416 98.521 98.646 98.754 98.876 99.001 99.136 99.299 99.429 99.559 99.711 99.866 99.999 100.129 100.236 100.319 100.419 100.534 100.601 100.684 100.734 100.784 100.841 100.879 100.949 101.006 101.034 101.081 101.129 101.171 101.226 101.336 101.409 101.526 101.646 101.781 101.951 102.091 102.336 102.521 102.719 102.916 103.079 103.294 103.471 103.621 103.789 103.936 104.069 104.241 104.366 104.491 104.638 104.748 104.842 104.965 105.074 105.193 105.305 105.323 105.388 105.453 105.483 105.487 105.52 105.551 105.569 105.619 105.631 105.646 105.654 105.699 105.664 105.641 105.611 105.554 105.529 105.519 105.464 105.449 105.401 105.331 105.296 105.234 105.226 105.184 105.124 105.086 105.036 105.024 104.969 104.881 105.399 106.294 104.334 104.139 104.101 104.054 103.994 103.884 103.804 103.746 103.659 103.581 103.521 103.466 103.434 103.481 103.424 103.444 103.589 103.481 103.709 103.996 103.909 103.904 103.871 103.886 104.161 104.021 103.651 103.589 103.619 103.369 103.581 103.449 103.311 102.759 102.674 102.899 102.671 102.286 101.964 101.669 101.589 101.564 101.464 101.384 101.279 101.214 101.131 101.036 100.964 100.871 100.841 100.781 100.709 100.641 100.586 100.564 100.601 100.759 100.184 100.189 100.254 100.931 102.084 101.001 100.179 100.441 100.621 100.694 101.296 101.834 101.399 101.029 100.266 99.886 99.796 99.731 99.624 99.549 99.529 99.474 99.784 99.934 100.046 101.094 100.604 99.631 98.454 97.991 97.579 97.199 96.796 96.529 96.284 96.011 95.754 95.529 95.289 95.049 94.831 94.614 94.411 94.219 94.074 93.926 93.821 93.704 93.579 93.494 93.456 93.439 93.416 93.394 93.384 93.381 93.366 93.366 93.351 93.341 93.321 93.321 93.314 93.286 93.283 93.231 93.166 93.256 93.328 93.148 93.141 93.128 93.178 93.238 93.276 93.233 93.191 93.246 93.331 93.341 93.401 93.446 93.518 93.581 93.606 93.646 93.636 93.678 93.683 93.676 93.638 93.653 93.623 93.611 93.616 93.601 93.576 93.541 93.543 93.526 93.551 93.501 93.441 93.418 93.376 93.398 93.416 93.423 93.386 93.448 95.946 94.851 94.046 94.023 93.911 94.921 97.738 100.281 101.101 100.191 98.726 95.073 94.028 94.048 94.443 97.578 96.431 94.383 95.688 96.483 94.376 95.051 95.503 94.588 94.606 94.623 94.618 94.873 95.651 95.003 95.581 98.308 97.256 95.666 96.483 95.028 94.738 94.683 94.651 94.813 94.643 94.566 94.508 94.681 95.033 98.526 103.051 104.611 104.471 104.616 100.991 95.971 95.408 95.478
97.851 97.839 97.819 97.779 97.744 97.659 97.594 97.481 97.296 97.089 96.886 96.686 96.524 96.464 96.266 96.126 95.794 95.564 95.544 95.959 95.614 96.061 96.299 96.291 96.319 96.399 96.451 96.506 96.556 96.629 96.684 96.761 96.811 96.909 96.971 97.021 97.041 97.054 97.074 97.079 97.086 97.124 97.099 97.134 97.149 97.129 97.191 97.229 97.266 97.289 97.296 97.331 97.359 97.364 97.364 97.351 97.351 97.399 97.426 97.424 97.396 97.396 97.419 97.411 97.386 97.384 97.384 97.356 97.371 97.434 97.444 97.434 97.426 97.446 97.471 97.459 97.504 97.541 97.584 97.644 97.689 97.779 97.891 97.959 98.069 98.191 98.301 98.424 98.576 98.709 98.824 98.976 99.096 99.221 99.336 99.479 99.599 99.746 99.879 100.016 100.129 100.229 100.339 100.451 100.549 100.626 100.669 100.771 100.796 100.829 100.861 100.904 100.954 100.991 101.059 101.101 101.159 101.264 101.341 101.436 101.526 101.654 101.791 101.974 102.129 102.291 102.519 102.694 102.861 103.049 103.236 103.431 103.589 103.759 103.946 104.099 104.244 104.389 104.536 104.667 104.789 104.921 105.055 105.138 105.213 105.282 105.321 105.384 105.43 105.461 105.512 105.566 105.603 105.655 105.699 105.694 105.684 105.701 105.716 105.726 105.704 105.681 105.624 105.629 105.599 105.561 105.524 105.536 105.629 105.424 105.359 105.379 105.526 105.436 105.326 105.389 105.529 105.384 105.326 105.726 106.196 104.869 104.174 104.781 104.754 104.439 104.196 104.236 104.456 104.271 104.026 103.971 104.371 104.089 103.924 103.874 104.174 103.989 103.949 103.826 103.249 103.241 102.846 102.679 102.736 102.516 102.396 102.326 102.374 102.211 102.159 102.096 102.194 102.389 102.254 102.174 102.326 102.631 102.874 102.936 102.954 102.729 102.356 101.921 101.524 101.286 101.299 101.276 101.089 100.961 100.894 100.846 100.819 100.731 100.701 100.664 100.706 100.779 100.619 100.219 100.241 101.179 101.871 101.069 100.594 100.126 100.034 99.976 99.916 99.849 100.099 100.449 101.134 101.209 100.844 100.751 100.231 100.074 99.696 99.566 99.344 99.124 98.984 98.899 98.844 98.861 99.309 99.626 99.949 99.849 98.079 97.349 96.774 96.386 96.111 95.814 95.584 95.339 95.129 94.886 94.671 94.431 94.246 94.091 93.934 93.801 93.709 93.619 93.521 93.484 93.461 93.411 93.401 93.391 93.389 93.401 93.374 93.371 93.356 93.344 93.331 93.264 93.234 93.253 93.118 93.153 93.303 93.303 93.166 93.151 93.123 93.123 93.116 93.108 93.121 93.126 93.073 93.173 93.238 93.278 93.308 93.363 93.438 93.481 93.518 93.533 93.546 93.553 93.546 93.523 93.543 93.513 93.503 93.511 93.511 93.491 93.468 93.443 93.438 93.391 93.383 93.346 93.316 93.268 93.296 93.323 93.363 93.306 94.258 96.413 94.236 93.911 93.893 95.256 97.126 98.948 100.373 101.101 100.091 98.146 95.101 95.648 96.601 96.831 97.576 96.051 94.246 94.268 94.426 94.353 95.151 94.936 94.441 94.508 94.528 94.536 95.543 96.006 94.946 94.938 96.723 95.563 94.793 94.816 94.703 94.618 94.596 94.533 94.626 95.008 94.436 94.421 94.501 95.803 101.948 105.841 104.673 100.213 100.751 97.536 95.198 96.881 100.333
97.834 97.824 97.801 97.776 97.754 97.689 97.596 97.496 97.334 97.136 96.936 96.746 96.591 96.486 96.299 96.149 95.861 95.586 95.556 95.534 95.546 95.981 96.316 96.336 96.359 96.386 96.444 96.486 96.561 96.604 96.656 96.714 96.769 96.826 96.896 96.904 96.951 96.969 96.979 97.011 97.021 97.019 97.031 97.044 97.084 97.079 97.136 97.204 97.229 97.271 97.311 97.359 97.361 97.386 97.396 97.389 97.376 97.389 97.376 97.419 97.406 97.404 97.419 97.426 97.424 97.416 97.404 97.416 97.429 97.451 97.451 97.469 97.494 97.451 97.494 97.471 97.504 97.556 97.594 97.656 97.714 97.824 97.879 98.021 98.099 98.246 98.384 98.491 98.611 98.766 98.919 99.031 99.159 99.271 99.381 99.504 99.616 99.746 99.884 100.031 100.141 100.301 100.409 100.509 100.589 100.674 100.721 100.756 100.794 100.841 100.846 100.881 100.909 100.979 101.051 101.104 101.161 101.256 101.326 101.426 101.541 101.679 101.799 101.976 102.111 102.264 102.466 102.649 102.809 103.011 103.226 103.381 103.586 103.784 103.956 104.124 104.271 104.419 104.581 104.7 104.805 104.935 105.024 105.097 105.175 105.272 105.344 105.405 105.453 105.494 105.571 105.637 105.663 105.702 105.734 105.774 105.766 105.761 105.796 105.826 105.971 106.319 106.139 106.251 106.369 105.966 106.334 106.494 106.829 106.739 106.464 106.086 106.474 106.609 106.331 106.394 106.209 106.311 105.844 105.476 105.334 104.681 104.389 105.091 104.806 104.894 104.989 104.666 104.211 104.366 104.246 103.749 103.614 103.359 103.229 103.136 103.109 103.004 102.874 102.831 102.781 102.686 102.619 102.551 102.456 102.401 102.384 102.331 102.254 102.184 102.106 102.074 102.021 101.971 101.931 101.839 101.769 101.729 101.651 101.661 101.649 101.896 102.174 102.429 102.634 102.436 102.341 102.569 102.364 102.221 101.884 101.369 101.124 100.794 100.729 100.911 101.501 101.089 100.341 100.464 101.034 101.826 100.799 100.224 100.124 100.069 100.009 99.929 99.869 99.796 99.774 99.749 99.774 99.796 100.139 100.804 101.006 101.264 101.246 100.574 99.981 99.566 99.129 98.891 98.704 98.546 98.374 98.244 98.201 98.909 99.254 98.924 98.424 98.676 97.321 96.619 95.889 95.396 95.169 94.954 94.709 94.529 94.304 94.106 93.949 93.814 93.711 93.636 93.549 93.494 93.459 93.429 93.416 93.409 93.401 93.394 93.384 93.381 93.346 93.331 93.306 93.249 93.221 93.196 93.101 93.233 93.351 93.178 93.141 93.146 93.158 93.136 93.111 93.103 93.073 93.066 93.023 92.998 93.118 93.193 93.218 93.243 93.266 93.326 93.356 93.381 93.433 93.448 93.453 93.481 93.451 93.423 93.423 93.408 93.408 93.403 93.396 93.376 93.351 93.308 93.273 93.238 93.188 93.176 93.203 93.211 93.301 93.156 94.206 94.338 93.693 93.876 93.758 94.258 95.268 98.178 100.473 101.041 100.006 98.158 96.998 97.118 97.693 96.981 97.288 94.963 94.093 94.096 94.123 94.253 95.286 94.653 94.283 94.318 94.351 94.338 95.701 95.146 94.763 94.783 94.653 94.666 94.593 94.633 94.531 94.441 94.346 94.371 94.508 94.576 94.358 94.368 94.363 95.271 97.558 100.428 99.476 95.166 95.823 95.323 96.348 103.613 104.308
97.854 97.834 97.826 97.819 97.754 97.666 97.619 97.491 97.374 97.201 97.026 96.841 96.651 96.539 96.439 96.201 96.004 95.639 95.539 95.534 95.546 95.764 96.346 96.384 96.414 96.364 96.416 96.471 96.506 96.554 96.611 96.651 96.699 96.759 96.796 96.831 96.859 96.891 96.916 96.934 96.934 96.954 96.961 96.994 97.034 97.026 97.111 97.174 97.234 97.284 97.326 97.376 97.394 97.389 97.411 97.386 97.364 97.394 97.416 97.409 97.396 97.434 97.486 97.481 97.484 97.476 97.441 97.449 97.464 97.516 97.461 97.486 97.544 97.489 97.501 97.486 97.496 97.556 97.599 97.651 97.736 97.831 97.939 98.069 98.189 98.326 98.461 98.544 98.679 98.811 98.961 99.061 99.189 99.334 99.444 99.544 99.666 99.816 99.939 100.091 100.249 100.381 100.469 100.539 100.606 100.676 100.739 100.764 100.816 100.804 100.836 100.881 100.956 100.999 101.034 101.104 101.196 101.259 101.371 101.491 101.584 101.684 101.829 101.976 102.116 102.286 102.461 102.609 102.814 102.999 103.206 103.404 103.601 103.776 103.969 104.146 104.294 104.454 104.544 104.688 104.804 104.931 105.035 105.121 105.178 105.269 105.317 105.375 105.459 105.562 105.62 105.71 105.881 105.8 105.951 106.406 106.304 105.854 105.909 107.149 106.824 107.194 106.936 106.184 106.021 105.701 105.776 105.894 105.699 105.754 105.481 105.234 105.136 105.226 105.109 104.989 104.869 104.806 104.646 104.396 104.231 104.174 104.179 104.159 104.024 103.856 103.749 103.686 103.576 103.486 103.426 103.354 103.241 103.196 103.114 103.046 102.976 102.934 102.859 102.824 102.746 102.696 102.621 102.569 102.534 102.464 102.419 102.374 102.324 102.261 102.201 102.156 102.086 102.006 101.921 101.864 101.784 101.734 101.661 101.596 101.539 101.476 101.419 101.339 101.309 101.351 101.371 101.331 101.599 101.731 101.934 101.761 102.054 102.266 101.984 102.041 101.801 100.519 100.364 101.204 102.611 100.784 100.234 100.154 100.046 99.989 99.936 99.921 99.859 99.809 99.779 99.726 99.694 99.709 99.676 99.679 99.734 100.091 100.661 100.734 101.119 100.666 100.324 99.781 99.864 99.249 98.374 98.096 97.839 97.654 97.559 97.556 98.249 98.481 98.926 99.009 98.019 97.194 96.181 95.151 94.871 94.581 94.384 94.209 94.041 93.871 93.749 93.641 93.541 93.499 93.466 93.454 93.434 93.429 93.431 93.431 93.426 93.411 93.376 93.331 93.311 93.269 93.236 93.148 93.021 93.191 93.298 93.116 93.113 93.103 93.098 93.131 93.123 93.138 93.106 93.066 93.031 92.981 92.971 93.036 93.098 93.133 93.146 93.208 93.246 93.251 93.246 93.276 93.298 93.323 93.341 93.346 93.358 93.328 93.318 93.308 93.288 93.271 93.241 93.198 93.158 93.096 93.098 93.103 93.126 93.138 93.176 93.173 94.576 95.633 95.826 95.146 95.148 93.606 93.536 97.391 100.563 100.933 99.906 97.678 93.758 95.996 96.813 96.898 97.208 94.976 93.991 93.856 93.938 93.988 95.546 94.403 94.146 94.133 94.176 94.228 95.858 95.283 94.683 94.428 94.573 94.636 94.521 94.461 94.296 94.701 94.941 94.526 94.298 94.498 94.316 94.256 94.253 94.266 94.328 94.416 94.543 94.948 97.913 98.968 97.173 102.871 102.008
97.884 97.876 97.819 97.799 97.781 97.716 97.651 97.549 97.429 97.279 97.121 96.951 96.751 96.601 96.484 96.231 96.099 95.844 95.534 95.529 95.571 95.591 96.169 96.394 96.399 96.391 96.381 96.441 96.454 96.501 96.534 96.609 96.651 96.689 96.679 96.709 96.769 96.801 96.829 96.871 96.859 96.896 96.931 96.976 97.001 97.016 97.076 97.161 97.226 97.281 97.349 97.366 97.386 97.394 97.416 97.404 97.411 97.434 97.444 97.446 97.446 97.449 97.501 97.526 97.539 97.499 97.501 97.501 97.484 97.479 97.479 97.499 97.501 97.506 97.534 97.516 97.516 97.579 97.631 97.711 97.786 97.906 97.994 98.111 98.229 98.374 98.479 98.584 98.719 98.839 98.974 99.116 99.241 99.381 99.504 99.619 99.749 99.886 100.031 100.186 100.334 100.434 100.521 100.589 100.636 100.679 100.741 100.784 100.801 100.806 100.869 100.901 100.971 101.021 101.101 101.154 101.244 101.301 101.414 101.544 101.651 101.741 101.814 101.971 102.121 102.306 102.461 102.639 102.844 103.029 103.226 103.426 103.616 103.779 103.941 104.116 104.284 104.421 104.539 104.653 104.814 104.926 105.002 105.1 105.19 105.288 105.387 105.438 105.584 106.145 106.078 106.366 107.095 106.994 106.949 107.206 107.361 105.926 105.864 106.436 106.076 105.979 105.934 105.814 105.711 105.594 105.561 105.541 105.454 105.344 105.204 105.101 105.011 104.936 104.846 104.726 104.661 104.539 104.376 104.246 104.181 104.176 104.129 103.989 103.859 103.736 103.684 103.569 103.476 103.446 103.366 103.281 103.236 103.206 103.144 103.119 103.086 103.011 102.991 102.949 102.904 102.829 102.776 102.691 102.646 102.601 102.551 102.509 102.444 102.401 102.346 102.286 102.206 102.129 102.046 101.981 101.894 101.804 101.746 101.661 101.559 101.474 101.404 101.329 101.251 101.196 101.171 101.141 101.111 101.049 101.021 100.951 100.906 100.859 101.069 100.959 100.501 100.439 101.121 103.034 101.481 100.266 100.181 100.074 100.004 99.956 99.921 99.891 99.856 99.809 99.784 99.771 99.699 99.671 99.659 99.621 99.589 99.581 99.576 99.579 99.629 99.914 100.194 100.966 100.254 100.834 99.559 99.589 98.806 98.031 97.486 97.236 97.074 96.859 96.836 97.424 97.489 97.424 98.214 97.756 96.531 95.394 94.459 94.261 94.124 93.961 93.824 93.714 93.626 93.529 93.466 93.451 93.434 93.424 93.434 93.434 93.409 93.394 93.381 93.334 93.294 93.269 93.219 93.156 93.013 92.973 93.093 93.076 93.058 93.061 93.053 93.063 93.083 93.026 93.023 93.033 93.041 93.026 92.996 92.963 93.001 93.051 93.078 93.113 93.131 93.126 93.136 93.153 93.161 93.173 93.168 93.201 93.193 93.186 93.203 93.183 93.158 93.118 93.096 93.063 93.041 93.016 92.983 93.016 93.046 93.118 93.331 94.448 95.381 94.331 95.653 94.988 95.221 93.501 93.521 95.793 97.446 99.618 99.811 96.078 93.676 93.641 93.656 95.786 96.896 95.123 94.601 95.433 96.476 96.023 95.748 94.251 94.141 94.083 94.251 94.581 95.531 95.928 95.758 95.061 95.118 95.076 94.368 94.213 94.166 94.561 94.526 95.453 94.341 94.608 94.476 94.201 94.141 94.158 94.168 94.943 95.363 97.426 99.536 98.553 98.061 96.928 97.616
97.869 97.856 97.814 97.821 97.814 97.751 97.734 97.604 97.506 97.374 97.229 97.056 96.829 96.609 96.504 96.361 96.119 95.981 95.569 95.546 95.549 95.539 95.766 96.354 96.326 96.381 96.346 96.386 96.411 96.414 96.454 96.471 96.534 96.536 96.564 96.631 96.694 96.721 96.756 96.776 96.839 96.839 96.909 96.934 96.976 96.984 97.064 97.131 97.194 97.264 97.336 97.369 97.404 97.436 97.414 97.426 97.461 97.471 97.474 97.484 97.484 97.471 97.519 97.539 97.546 97.531 97.564 97.556 97.494 97.491 97.481 97.476 97.464 97.506 97.489 97.526 97.574 97.641 97.681 97.784 97.859 97.954 98.019 98.154 98.251 98.371 98.504 98.624 98.729 98.884 99.021 99.174 99.326 99.449 99.584 99.676 99.814 99.944 100.074 100.201 100.301 100.399 100.514 100.564 100.634 100.696 100.734 100.799 100.839 100.876 100.924 100.989 101.049 101.064 101.131 101.234 101.291 101.389 101.471 101.526 101.639 101.726 101.841 101.971 102.136 102.316 102.449 102.669 102.864 103.044 103.224 103.426 103.594 103.761 103.924 104.069 104.251 104.404 104.546 104.682 104.796 104.937 105.09 105.292 105.519 105.846 106.359 106.377 106.524 106.931 106.842 106.436 106.137 106.281 105.809 105.829 105.924 105.874 105.874 105.949 106.009 106.016 105.899 105.826 105.736 105.636 105.531 105.484 105.381 105.291 105.156 105.056 104.964 104.884 104.789 104.699 104.641 104.526 104.404 104.301 104.204 104.141 104.041 103.926 103.811 103.739 103.661 103.599 103.531 103.484 103.434 103.374 103.336 103.319 103.294 103.259 103.221 103.201 103.169 103.099 103.086 103.026 102.944 102.866 102.811 102.756 102.696 102.654 102.601 102.526 102.491 102.419 102.341 102.271 102.176 102.114 102.016 101.946 101.866 101.789 101.694 101.596 101.501 101.409 101.289 101.194 101.099 101.089 101.039 100.991 100.964 100.936 100.859 100.791 100.691 100.539 100.539 100.799 101.654 101.211 100.309 100.194 100.104 100.036 99.979 99.904 99.889 99.866 99.826 99.819 99.806 99.766 99.746 99.709 99.679 99.664 99.599 99.531 99.501 99.429 99.379 99.361 99.329 99.311 99.419 99.509 100.054 100.799 100.489 100.314 99.734 99.716 97.846 97.031 96.856 96.619 96.446 96.284 96.474 96.861 97.349 97.381 96.186 96.084 94.859 94.179 93.901 93.801 93.724 93.649 93.579 93.501 93.461 93.406 93.399 93.391 93.384 93.396 93.344 93.321 93.266 93.256 93.199 93.178 93.173 93.061 92.923 93.013 93.033 93.011 93.021 93.031 93.011 92.953 92.946 92.948 92.953 92.981 92.973 92.948 92.993 92.961 92.986 93.011 93.053 93.046 93.026 93.011 93.001 93.058 93.066 93.098 93.086 93.083 93.033 93.031 93.011 93.003 92.976 92.951 92.966 92.931 92.916 92.958 93.056 93.193 93.168 93.658 93.238 93.101 93.133 93.091 93.141 93.368 93.401 93.406 93.288 93.248 93.273 93.481 93.196 93.528 93.493 94.671 96.656 96.063 94.993 95.951 96.086 95.953 96.938 94.146 94.458 94.256 94.218 94.603 96.533 94.748 94.698 95.796 95.631 94.553 94.416 94.548 95.613 96.018 96.356 96.383 94.956 94.101 95.016 94.128 94.121 94.026 94.083 95.878 96.011 96.326 98.396 96.363 96.348 94.571 94.381
97.856 97.861 97.836 97.829 97.874 97.786 97.776 97.706 97.594 97.444 97.264 97.104 96.886 96.686 96.536 96.434 96.194 96.129 95.746 95.541 95.536 95.539 95.551 95.989 96.299 96.344 96.309 96.274 96.319 96.309 96.339 96.376 96.399 96.459 96.471 96.531 96.586 96.646 96.699 96.751 96.794 96.866 96.904 96.871 96.906 96.966 97.026 97.104 97.159 97.236 97.314 97.366 97.434 97.456 97.476 97.464 97.476 97.476 97.489 97.516 97.534 97.549 97.549 97.539 97.559 97.539 97.516 97.476 97.436 97.444 97.454 97.479 97.506 97.519 97.529 97.564 97.609 97.684 97.751 97.811 97.871 97.959 98.054 98.161 98.314 98.406 98.509 98.646 98.754 98.911 99.061 99.214 99.376 99.509 99.626 99.709 99.849 99.974 100.086 100.206 100.334 100.411 100.534 100.591 100.654 100.706 100.766 100.801 100.861 100.986 100.996 101.069 101.074 101.119 101.201 101.251 101.331 101.421 101.529 101.524 101.619 101.746 101.869 102.031 102.186 102.316 102.494 102.691 102.819 103.021 103.151 103.346 103.544 103.721 103.954 104.071 104.216 104.414 104.554 104.694 104.925 105.461 105.464 106.171 106.526 106.003 105.895 105.567 105.267 105.359 105.416 105.584 105.517 105.549 105.661 105.756 105.816 105.891 106.029 106.066 106.166 107.089 106.234 105.884 105.789 105.744 105.646 105.521 105.421 105.346 105.254 105.146 105.054 104.974 104.869 104.739 104.646 104.569 104.486 104.386 104.281 104.194 104.111 104.014 103.934 103.849 103.764 103.686 103.639 103.576 103.521 103.476 103.429 103.399 103.374 103.331 103.326 103.294 103.266 103.201 103.171 103.116 103.056 103.014 102.951 102.906 102.824 102.796 102.716 102.661 102.594 102.526 102.461 102.379 102.316 102.241 102.146 102.069 101.976 101.889 101.806 101.734 101.634 101.531 101.429 101.329 101.211 101.139 101.071 100.991 100.904 100.809 100.776 100.794 100.769 100.679 100.881 102.694 103.286 101.741 100.191 100.104 100.061 100.004 99.951 99.891 99.839 99.826 99.791 99.786 99.776 99.779 99.764 99.719 99.704 99.694 99.646 99.616 99.556 99.489 99.391 99.319 99.229 99.166 99.101 99.021 98.961 98.911 98.889 99.074 99.164 99.511 98.994 98.186 98.446 98.174 96.934 96.304 96.119 96.049 95.964 95.829 95.714 96.351 96.281 97.059 96.219 94.594 93.841 93.684 93.626 93.631 93.556 93.489 93.446 93.399 93.349 93.354 93.336 93.281 93.266 93.234 93.194 93.161 93.213 93.173 93.051 92.923 92.941 93.003 93.013 92.981 92.968 92.938 92.903 92.896 92.888 92.903 92.901 92.938 92.983 92.953 92.943 92.963 92.963 92.983 92.956 92.943 92.941 92.916 92.931 92.951 92.936 92.951 92.981 92.983 92.956 92.936 92.928 92.883 92.883 92.861 92.881 92.958 93.036 93.006 92.858 93.408 93.221 93.338 92.981 93.026 93.003 93.056 93.136 93.071 93.016 93.421 93.216 93.196 93.073 92.996 93.151 93.351 93.846 94.263 93.376 94.121 93.531 93.753 94.008 93.473 97.271 94.238 93.876 95.213 95.328 94.278 94.381 94.296 94.821 93.493 93.533 93.671 94.333 95.181 95.218 95.663 94.941 93.878 94.296 94.038 94.051 93.988 95.418 95.096 94.183 94.026 94.126 94.518 96.016 94.226 94.281
97.881 97.881 97.891 97.889 97.896 97.881 97.804 97.729 97.619 97.491 97.339 97.179 96.974 96.776 96.591 96.539 96.324 96.179 96.089 95.559 95.536 95.534 95.534 95.604 96.046 96.289 96.291 96.209 96.226 96.229 96.224 96.246 96.306 96.339 96.396 96.446 96.499 96.574 96.631 96.661 96.714 96.771 96.791 96.836 96.869 96.924 97.001 97.091 97.164 97.269 97.329 97.371 97.436 97.471 97.509 97.499 97.524 97.534 97.546 97.566 97.556 97.554 97.566 97.526 97.536 97.504 97.499 97.479 97.474 97.456 97.481 97.521 97.539 97.576 97.614 97.661 97.664 97.719 97.786 97.839 97.899 97.989 98.084 98.189 98.316 98.434 98.564 98.669 98.801 98.969 99.099 99.239 99.396 99.521 99.646 99.766 99.901 100.009 100.099 100.211 100.349 100.484 100.546 100.631 100.729 100.776 100.804 100.859 100.906 100.989 101.021 101.079 101.121 101.134 101.199 101.269 101.339 101.394 101.531 101.591 101.669 101.741 101.884 102.011 102.134 102.251 102.396 102.629 102.801 103.011 103.241 103.406 103.601 103.769 104.121 104.621 104.849 105.104 105.324 105.751 105.596 105.68 105.1 104.794 104.792 104.714 104.777 104.815 104.971 105.12 105.291 105.406 105.516 105.649 105.771 105.806 105.861 106.026 106.149 106.266 106.389 107.224 106.841 105.969 105.906 105.861 105.809 105.696 105.596 105.466 105.359 105.284 105.199 105.106 105.031 104.931 104.819 104.711 104.589 104.501 104.381 104.296 104.196 104.101 103.991 103.904 103.824 103.729 103.696 103.629 103.596 103.556 103.504 103.489 103.461 103.431 103.414 103.379 103.331 103.306 103.264 103.201 103.169 103.086 103.051 102.986 102.914 102.851 102.774 102.731 102.676 102.616 102.554 102.476 102.411 102.314 102.221 102.131 102.036 101.934 101.869 101.779 101.706 101.594 101.494 101.409 101.316 101.209 101.134 101.066 101.016 100.956 100.854 100.796 100.764 100.651 100.774 101.699 102.321 101.219 100.156 100.049 100.009 99.971 99.914 99.866 99.854 99.801 99.774 99.756 99.771 99.736 99.746 99.739 99.714 99.711 99.664 99.634 99.556 99.504 99.424 99.351 99.281 99.204 99.081 98.971 98.871 98.811 98.751 98.646 98.571 98.469 98.376 98.254 99.049 99.966 99.716 97.384 96.551 96.354 95.969 95.831 95.749 95.701 95.589 95.446 95.836 96.459 96.484 94.621 94.306 93.696 93.634 93.586 93.526 93.466 93.431 93.384 93.354 93.309 93.271 93.214 93.171 93.173 93.163 93.173 93.143 93.038 92.856 92.898 93.011 92.993 92.968 92.916 92.863 92.858 92.841 92.916 92.928 92.966 92.938 92.981 92.993 93.041 93.071 93.048 93.026 92.986 92.918 92.951 92.996 92.913 92.948 92.913 92.946 92.933 92.921 92.891 92.861 92.873 92.873 92.868 92.863 92.896 92.943 92.841 92.926 93.248 93.096 94.778 94.698 93.131 92.801 92.743 92.701 92.763 93.103 92.901 93.163 92.958 93.076 93.078 93.421 93.296 93.246 93.076 93.081 93.476 93.663 93.423 93.426 93.451 93.461 93.493 94.331 94.591 94.953 93.683 93.561 93.728 94.146 93.493 93.513 94.173 94.188 94.073 93.593 93.603 93.688 93.696 94.316 94.008 93.983 93.963 95.283 94.331 93.971 93.926 94.008 94.168 95.526 94.591 94.168
97.914 97.966 97.974 97.944 97.924 97.886 97.826 97.779 97.674 97.566 97.449 97.299 97.114 96.884 96.651 96.616 96.461 96.346 96.231 95.779 95.546 95.524 95.551 95.539 95.654 96.096 96.194 96.134 96.099 96.146 96.139 96.166 96.181 96.226 96.306 96.341 96.386 96.476 96.539 96.581 96.616 96.681 96.724 96.791 96.836 96.939 97.011 97.119 97.149 97.216 97.291 97.369 97.429 97.466 97.511 97.534 97.569 97.551 97.579 97.556 97.571 97.534 97.511 97.486 97.524 97.516 97.531 97.509 97.499 97.491 97.521 97.556 97.601 97.629 97.679 97.664 97.736 97.781 97.811 97.901 97.961 98.049 98.111 98.221 98.324 98.419 98.574 98.686 98.824 98.969 99.109 99.251 99.406 99.539 99.659 99.779 99.894 100.011 100.121 100.234 100.361 100.481 100.586 100.681 100.756 100.801 100.841 100.891 100.946 101.029 101.094 101.161 101.176 101.231 101.294 101.354 101.399 101.406 101.476 101.571 101.636 101.764 101.864 101.981 102.154 102.259 102.451 102.621 102.886 103.124 103.536 104.054 104.524 104.824 105.156 105.311 104.834 105.161 104.512 104.299 104.147 104.097 104.118 104.198 104.343 104.509 104.69 104.867 105.009 105.201 105.328 105.44 105.542 105.651 105.774 105.859 105.909 106.031 106.269 106.386 106.496 106.886 107.321 106.154 106.044 105.974 105.919 105.866 105.744 105.636 105.531 105.434 105.341 105.214 105.131 105.046 104.919 104.804 104.679 104.569 104.424 104.316 104.229 104.121 104.034 103.956 103.896 103.804 103.729 103.686 103.659 103.601 103.554 103.539 103.501 103.496 103.456 103.461 103.434 103.384 103.354 103.301 103.234 103.171 103.129 103.049 102.991 102.931 102.864 102.796 102.741 102.674 102.611 102.521 102.449 102.346 102.264 102.169 102.086 101.976 101.886 101.826 101.699 101.576 101.481 101.406 101.336 101.249 101.164 101.104 101.039 100.984 100.946 100.854 100.771 100.684 100.584 101.169 102.221 101.304 100.179 100.061 99.961 99.894 99.896 99.856 99.826 99.814 99.769 99.729 99.716 99.716 99.709 99.686 99.674 99.676 99.629 99.629 99.584 99.526 99.444 99.384 99.291 99.246 99.149 99.039 98.941 98.856 98.736 98.606 98.486 98.374 98.249 98.134 98.004 98.086 97.934 97.841 97.791 98.499 98.004 96.869 96.024 95.791 95.631 95.539 95.524 95.391 95.594 95.759 96.321 95.934 95.196 93.951 93.699 93.601 93.526 93.454 93.369 93.354 93.321 93.259 93.211 93.191 93.208 93.198 93.158 93.148 93.061 92.923 92.863 92.886 92.906 92.918 92.873 92.851 92.843 92.873 92.878 92.978 92.906 92.913 92.943 92.913 92.906 92.981 92.996 92.991 92.963 92.958 92.968 92.958 92.991 92.946 92.948 92.986 92.921 92.908 92.901 92.881 92.821 92.766 92.813 92.793 92.863 92.758 92.983 93.448 92.961 92.711 94.051 93.506 92.986 93.101 93.306 92.553 93.156 92.778 92.973 93.056 93.021 93.336 93.456 93.396 93.121 92.968 92.966 93.391 93.631 93.883 93.646 93.416 93.433 93.383 94.133 94.808 93.441 93.393 93.353 93.498 94.256 93.491 93.688 93.508 94.148 94.983 93.473 93.531 93.716 93.598 94.441 94.291 93.926 93.926 95.508 94.128 94.611 93.876 94.528 95.573 95.271 94.203 96.078
97.979 98.004 97.999 97.951 97.936 97.886 97.846 97.809 97.766 97.646 97.541 97.364 97.164 96.991 96.791 96.636 96.531 96.391 96.314 96.006 95.566 95.536 95.551 95.519 95.531 95.886 96.141 96.051 95.999 95.991 96.049 96.106 96.116 96.146 96.171 96.256 96.279 96.376 96.461 96.529 96.564 96.644 96.699 96.759 96.844 96.931 97.019 97.081 97.154 97.216 97.264 97.359 97.454 97.499 97.536 97.561 97.574 97.571 97.541 97.556 97.544 97.501 97.501 97.531 97.504 97.511 97.519 97.541 97.601 97.544 97.579 97.579 97.586 97.646 97.696 97.729 97.786 97.856 97.876 97.971 97.996 98.076 98.164 98.259 98.346 98.431 98.559 98.696 98.831 98.956 99.099 99.221 99.374 99.524 99.624 99.741 99.871 99.999 100.136 100.254 100.396 100.506 100.614 100.711 100.801 100.851 100.906 100.944 101.034 101.066 101.146 101.174 101.244 101.269 101.311 101.329 101.411 101.484 101.521 101.646 101.764 102.054 102.246 102.906 103.364 102.634 103.161 103.724 103.891 104.111 104.161 104.271 104.204 103.969 103.656 103.391 103.361 103.386 103.506 103.679 103.817 103.957 104.12 104.306 104.468 104.652 104.798 104.931 105.079 105.215 105.347 105.462 105.572 105.719 105.849 105.931 105.976 106.124 106.396 106.474 106.514 106.729 107.799 106.304 106.151 106.071 105.991 105.949 105.846 105.739 105.646 105.559 105.416 105.316 105.201 105.091 104.984 104.846 104.706 104.584 104.469 104.351 104.244 104.161 104.084 103.999 103.944 103.864 103.814 103.744 103.716 103.654 103.626 103.596 103.579 103.546 103.531 103.531 103.506 103.461 103.426 103.369 103.306 103.241 103.159 103.091 103.019 102.971 102.909 102.844 102.786 102.734 102.636 102.519 102.461 102.376 102.286 102.184 102.089 101.986 101.884 101.779 101.676 101.581 101.479 101.401 101.321 101.259 101.174 101.116 101.044 100.979 100.914 100.866 100.786 100.681 100.606 100.534 101.326 102.184 100.551 100.131 99.994 99.874 99.851 99.916 99.804 99.769 99.761 99.691 99.681 99.669 99.659 99.636 99.621 99.626 99.589 99.556 99.539 99.494 99.454 99.376 99.311 99.249 99.174 99.099 98.999 98.926 98.826 98.691 98.574 98.449 98.294 98.131 97.964 97.819 97.719 97.596 97.476 97.451 97.919 97.719 97.616 98.069 96.886 95.884 95.664 95.521 95.419 95.371 95.326 95.206 96.051 96.004 95.494 94.449 93.761 93.556 93.496 93.416 93.364 93.329 93.319 93.293 93.281 93.203 93.143 93.158 93.146 93.048 92.966 92.831 92.771 92.798 92.828 92.833 92.866 92.888 92.878 92.951 92.861 92.933 92.886 92.903 92.858 92.856 92.858 92.896 92.913 92.941 92.993 93.021 93.013 92.961 92.921 92.961 92.921 92.916 92.858 92.823 92.791 92.701 92.693 92.756 92.773 92.711 92.906 93.611 93.261 92.656 92.683 92.788 92.723 92.961 93.758 92.603 92.633 92.763 92.686 92.863 92.838 93.153 93.836 93.461 92.828 92.861 92.951 93.318 93.741 93.933 93.503 93.378 93.358 93.371 93.926 94.866 93.411 93.393 93.371 93.886 94.343 93.506 93.638 93.493 93.953 94.041 93.496 93.703 94.341 93.518 94.496 94.328 93.881 93.873 95.116 94.781 95.411 94.893 97.041 96.048 94.951 94.393 95.676
97.994 97.999 97.986 97.976 97.971 97.916 97.896 97.869 97.794 97.741 97.596 97.439 97.251 97.051 96.854 96.711 96.671 96.536 96.431 96.251 95.624 95.534 95.549 95.539 95.531 95.606 95.944 95.939 95.871 95.934 95.914 95.989 95.989 96.011 96.061 96.144 96.209 96.284 96.366 96.456 96.516 96.604 96.676 96.744 96.859 96.886 96.984 97.099 97.149 97.206 97.276 97.371 97.449 97.506 97.544 97.554 97.571 97.574 97.564 97.561 97.541 97.546 97.476 97.504 97.524 97.541 97.534 97.559 97.591 97.604 97.616 97.621 97.641 97.666 97.739 97.801 97.854 97.879 97.949 98.024 98.056 98.106 98.194 98.306 98.389 98.476 98.581 98.709 98.804 98.929 99.069 99.179 99.321 99.461 99.576 99.719 99.834 100.001 100.104 100.216 100.369 100.486 100.614 100.719 100.826 100.941 100.979 100.994 101.099 101.136 101.144 101.204 101.281 101.426 101.561 101.856 102.086 102.561 102.921 103.039 103.159 102.991 102.886 103.131 103.006 102.236 102.199 102.284 102.374 102.439 102.516 102.641 102.734 102.886 103.034 103.141 103.311 103.456 103.648 103.815 103.948 104.059 104.219 104.376 104.521 104.682 104.839 104.978 105.118 105.264 105.384 105.503 105.651 105.761 105.884 105.984 106.036 106.166 106.414 106.464 106.494 106.751 107.764 106.394 106.209 106.151 106.061 106.024 105.924 105.814 105.706 105.594 105.441 105.329 105.221 105.099 104.969 104.839 104.709 104.579 104.471 104.384 104.271 104.191 104.126 104.034 103.969 103.891 103.844 103.804 103.746 103.704 103.669 103.639 103.591 103.569 103.559 103.549 103.529 103.496 103.459 103.414 103.341 103.269 103.196 103.111 103.036 102.991 102.914 102.849 102.794 102.706 102.616 102.554 102.466 102.376 102.274 102.181 102.094 101.974 101.879 101.766 101.676 101.554 101.464 101.371 101.281 101.219 101.154 101.106 101.039 100.971 100.909 100.829 100.771 100.669 100.591 100.529 100.454 101.146 101.856 100.424 100.066 99.901 99.824 99.781 99.746 99.716 99.699 99.646 99.631 99.629 99.604 99.594 99.586 99.574 99.546 99.521 99.496 99.461 99.409 99.351 99.316 99.246 99.184 99.114 99.056 98.959 98.901 98.771 98.649 98.509 98.374 98.236 98.069 97.904 97.711 97.561 97.419 97.324 97.221 97.109 97.084 97.104 97.696 98.346 98.199 96.059 95.676 95.509 95.376 95.326 95.214 95.171 95.731 95.639 94.576 94.151 93.721 93.564 93.464 93.419 93.381 93.378 93.336 93.261 93.223 93.178 93.103 93.108 93.121 93.046 92.943 92.811 92.751 92.763 92.871 93.038 92.908 92.868 92.951 92.876 92.936 92.958 92.866 92.856 92.896 92.861 92.853 92.853 92.871 92.898 92.956 92.966 92.971 92.948 92.951 92.876 92.833 92.818 92.803 92.711 92.733 92.753 92.698 92.691 92.798 93.351 92.591 92.591 92.656 92.636 92.598 93.436 92.803 92.613 92.666 92.686 92.611 92.871 92.743 93.026 93.043 92.956 92.788 92.778 92.943 93.226 93.961 93.531 93.343 93.358 93.366 93.353 93.763 94.453 93.418 93.433 93.406 94.168 95.026 93.498 95.016 95.673 94.356 94.206 93.606 96.318 95.448 93.491 94.616 94.501 93.851 93.823 94.571 94.778 94.111 94.936 98.878 99.021 99.878 99.996 100.596
97.956 97.989 97.999 97.991 97.991 97.986 97.966 97.904 97.861 97.729 97.656 97.504 97.354 97.174 96.971 96.831 96.729 96.754 96.566 96.406 95.899 95.554 95.526 95.569 95.556 95.546 95.586 95.741 95.791 95.811 95.824 95.851 95.894 95.926 95.959 96.059 96.151 96.231 96.294 96.399 96.461 96.559 96.639 96.724 96.819 96.891 96.971 97.054 97.114 97.181 97.281 97.364 97.394 97.451 97.499 97.536 97.576 97.546 97.566 97.579 97.541 97.496 97.516 97.526 97.541 97.551 97.556 97.569 97.569 97.606 97.621 97.656 97.711 97.774 97.796 97.864 97.929 97.921 97.961 98.039 98.056 98.121 98.181 98.294 98.389 98.436 98.526 98.651 98.779 98.914 99.039 99.164 99.281 99.404 99.594 99.741 99.861 100.009 100.126 100.271 100.409 100.514 100.651 100.786 100.891 101.034 101.036 101.051 101.454 101.864 101.929 102.101 102.204 102.354 102.641 102.519 102.409 102.309 102.179 101.944 101.766 101.856 101.766 101.771 101.869 101.966 102.054 102.136 102.294 102.396 102.516 102.669 102.799 102.944 103.106 103.239 103.394 103.534 103.695 103.859 103.989 104.145 104.3 104.451 104.611 104.756 104.901 105.033 105.164 105.29 105.43 105.567 105.708 105.799 105.941 106.039 106.066 106.169 106.369 106.461 106.511 106.594 107.719 106.669 106.279 106.201 106.134 106.054 105.989 105.876 105.729 105.631 105.496 105.369 105.249 105.111 104.961 104.824 104.704 104.574 104.461 104.336 104.269 104.169 104.089 104.031 103.956 103.906 103.836 103.776 103.729 103.699 103.649 103.611 103.584 103.569 103.556 103.554 103.541 103.539 103.494 103.441 103.336 103.259 103.194 103.114 103.039 102.989 102.906 102.834 102.766 102.684 102.614 102.511 102.411 102.334 102.224 102.144 102.034 101.939 101.829 101.724 101.601 101.529 101.424 101.329 101.236 101.169 101.099 101.041 100.979 100.916 100.841 100.774 100.729 100.694 100.609 100.514 100.424 100.346 100.556 101.639 100.744 99.994 99.834 99.746 99.681 99.689 99.631 99.611 99.594 99.564 99.526 99.526 99.521 99.506 99.489 99.474 99.444 99.404 99.374 99.306 99.259 99.251 99.196 99.106 99.071 99.011 98.924 98.844 98.744 98.599 98.469 98.326 98.191 98.021 97.856 97.691 97.539 97.364 97.201 97.069 97.006 96.919 96.849 97.004 97.766 97.846 97.621 97.549 95.954 95.454 95.304 95.189 95.049 95.179 95.129 95.539 95.269 94.186 93.614 93.521 93.444 93.438 93.363 93.338 93.273 93.231 93.161 93.131 93.141 93.136 93.116 93.023 92.871 92.861 92.791 92.908 92.853 92.921 92.941 92.861 92.941 92.896 92.948 92.896 92.941 92.933 92.908 92.821 92.818 92.886 92.871 92.878 92.908 92.913 92.856 92.826 92.801 92.738 92.703 92.683 92.733 92.718 92.641 92.668 92.651 92.891 92.553 92.603 92.648 92.626 95.128 93.266 92.708 93.826 92.938 92.828 92.561 92.703 92.833 93.051 92.821 92.763 92.951 92.858 93.258 93.231 93.451 93.351 93.448 93.428 93.696 93.438 93.563 94.103 93.571 93.598 93.518 93.611 95.991 93.723 97.643 97.821 97.281 96.496 96.196 98.056 96.931 93.551 94.231 94.511 93.793 93.723 94.016 95.111 93.951 95.296 100.543 101.363 101.566 101.748 101.921
97.959 97.989 98.009 98.031 98.066 98.029 97.991 97.926 97.886 97.831 97.701 97.611 97.461 97.299 97.121 96.941 96.811 96.796 96.666 96.519 96.339 95.594 95.536 95.551 95.489 95.536 95.536 95.556 95.624 95.686 95.724 95.756 95.789 95.841 95.909 95.981 96.064 96.164 96.239 96.314 96.411 96.489 96.581 96.649 96.776 96.871 96.971 97.051 97.094 97.191 97.229 97.304 97.394 97.406 97.454 97.509 97.546 97.554 97.541 97.564 97.541 97.516 97.524 97.496 97.534 97.519 97.559 97.586 97.621 97.641 97.664 97.691 97.746 97.784 97.841 97.899 97.886 97.924 97.996 98.031 98.034 98.106 98.211 98.274 98.346 98.446 98.566 98.679 98.794 98.941 99.064 99.179 99.331 99.461 99.596 99.826 100.006 100.164 100.491 100.841 100.651 101.119 101.339 101.406 101.474 101.536 101.044 100.761 101.579 101.889 101.696 101.626 101.526 101.316 101.316 101.241 101.251 101.316 101.401 101.486 101.546 101.614 101.689 101.766 101.834 101.911 101.991 102.131 102.279 102.416 102.551 102.719 102.849 102.971 103.114 103.276 103.424 103.596 103.752 103.917 104.056 104.21 104.374 104.526 104.668 104.816 104.974 105.098 105.234 105.34 105.473 105.595 105.728 105.821 105.986 106.086 106.099 106.169 106.351 106.459 106.486 106.541 107.194 106.819 106.321 106.271 106.204 106.126 106.026 105.901 105.776 105.654 105.529 105.381 105.239 105.111 104.966 104.834 104.714 104.579 104.449 104.326 104.216 104.129 104.066 103.996 103.916 103.866 103.799 103.724 103.681 103.634 103.599 103.554 103.561 103.551 103.569 103.559 103.549 103.536 103.496 103.434 103.371 103.291 103.184 103.114 103.031 102.966 102.886 102.801 102.741 102.649 102.551 102.461 102.374 102.269 102.194 102.081 101.986 101.876 101.784 101.669 101.571 101.454 101.364 101.281 101.199 101.134 101.034 100.979 100.911 100.849 100.774 100.711 100.631 100.571 100.519 100.481 100.419 100.329 100.256 100.319 101.496 100.654 99.904 99.786 99.671 99.606 99.571 99.544 99.531 99.524 99.531 99.494 99.469 99.454 99.461 99.421 99.411 99.364 99.324 99.286 99.244 99.204 99.164 99.144 99.094 99.014 98.974 98.904 98.799 98.669 98.564 98.436 98.309 98.159 97.986 97.816 97.679 97.504 97.329 97.191 97.061 96.906 96.824 96.721 96.694 96.671 96.856 97.381 98.084 96.639 95.621 95.396 95.224 95.134 95.031 94.986 95.191 95.241 94.446 93.854 93.549 93.531 93.448 93.408 93.358 93.298 93.238 93.206 93.163 93.126 93.081 93.078 93.016 93.031 93.036 92.943 92.861 92.816 92.833 92.801 92.951 92.921 92.853 92.803 92.863 92.918 92.851 92.876 92.918 92.888 92.856 92.826 92.831 92.846 92.813 92.798 92.806 92.786 92.743 92.656 92.746 92.668 92.621 92.606 92.596 92.591 92.538 92.591 92.578 92.573 92.723 92.796 93.533 93.801 92.821 93.496 93.566 92.721 92.778 92.956 92.993 93.238 93.168 92.908 93.221 93.168 93.511 94.758 95.763 96.533 98.173 97.536 96.646 95.576 96.756 98.128 96.893 95.258 94.333 94.058 99.023 100.106 100.178 100.246 100.308 100.303 98.451 93.566 93.651 94.641 93.781 93.761 93.791 94.933 93.548 93.881 99.968 102.373 102.453 102.896 102.411
97.959 97.989 98.036 98.066 98.079 98.079 98.014 97.951 97.911 97.829 97.769 97.709 97.576 97.411 97.249 97.069 96.929 96.839 96.819 96.621 96.534 96.001 95.541 95.526 95.521 95.574 95.549 95.531 95.571 95.584 95.609 95.666 95.696 95.749 95.849 95.901 95.999 96.074 96.181 96.244 96.341 96.454 96.546 96.651 96.761 96.874 96.954 97.011 97.066 97.151 97.184 97.259 97.326 97.406 97.464 97.519 97.536 97.541 97.546 97.531 97.539 97.566 97.519 97.511 97.504 97.539 97.589 97.624 97.664 97.684 97.719 97.714 97.746 97.774 97.819 97.864 97.881 97.931 97.961 98.029 98.076 98.154 98.216 98.291 98.386 98.411 98.621 98.884 98.841 99.384 99.621 99.734 99.484 99.734 100.251 100.536 100.589 100.534 100.634 100.701 100.256 100.359 100.424 100.306 100.299 100.424 100.416 100.469 100.554 100.606 100.754 100.854 100.956 101.004 101.091 101.154 101.259 101.316 101.409 101.461 101.516 101.601 101.646 101.739 101.839 101.944 102.049 102.144 102.271 102.379 102.529 102.669 102.819 102.984 103.141 103.286 103.466 103.634 103.79 103.951 104.089 104.248 104.419 104.585 104.738 104.879 105.031 105.147 105.27 105.383 105.52 105.634 105.744 105.844 105.971 106.054 106.121 106.191 106.309 106.424 106.474 106.529 106.981 106.936 106.374 106.321 106.254 106.174 106.069 105.941 105.809 105.684 105.561 105.426 105.254 105.106 104.966 104.834 104.731 104.596 104.459 104.356 104.236 104.124 104.041 103.946 103.861 103.796 103.741 103.679 103.631 103.579 103.534 103.534 103.531 103.526 103.516 103.521 103.524 103.509 103.466 103.431 103.346 103.269 103.174 103.084 102.996 102.921 102.836 102.771 102.691 102.599 102.509 102.399 102.319 102.199 102.121 102.026 101.916 101.801 101.699 101.579 101.471 101.354 101.286 101.214 101.144 101.074 101.016 100.946 100.866 100.794 100.719 100.639 100.551 100.501 100.436 100.396 100.379 100.286 100.164 100.104 100.259 101.249 100.804 99.986 99.701 99.584 99.551 99.526 99.494 99.476 99.464 99.446 99.434 99.414 99.394 99.371 99.346 99.329 99.284 99.271 99.254 99.221 99.161 99.111 99.089 99.051 98.989 98.911 98.826 98.729 98.614 98.514 98.374 98.229 98.116 97.954 97.809 97.681 97.494 97.369 97.224 97.076 96.956 96.816 96.716 96.636 96.571 96.529 96.484 96.674 98.129 97.039 96.186 95.386 95.194 94.999 94.921 95.051 95.269 95.104 94.094 93.921 93.533 93.463 93.433 93.398 93.341 93.273 93.228 93.156 93.123 93.066 93.073 93.126 93.153 93.051 92.981 92.916 92.818 92.803 92.776 92.878 92.693 92.713 92.731 92.761 92.881 92.833 92.866 92.916 92.903 92.831 92.826 92.823 92.833 92.791 92.713 92.681 92.721 92.661 92.661 92.618 92.611 92.593 92.583 92.548 92.538 92.581 92.561 92.578 94.408 92.831 92.928 92.583 93.496 93.428 94.171 94.238 93.431 92.613 92.788 92.836 92.966 92.968 93.113 93.093 93.533 96.063 96.331 97.601 99.846 100.223 100.253 100.276 100.278 99.823 97.548 96.046 95.728 99.088 100.156 101.301 101.458 101.773 101.618 101.156 98.253 93.596 93.436 94.623 93.776 93.733 93.996 95.308 93.536 93.566 100.031 101.658 101.473 101.301 101.073
97.964 98.006 98.039 98.066 98.084 98.064 98.079 98.009 97.974 97.929 97.851 97.756 97.666 97.521 97.391 97.191 97.034 96.896 96.856 96.734 96.674 96.329 95.671 95.529 95.536 95.479 95.531 95.519 95.614 95.524 95.564 95.589 95.646 95.684 95.769 95.846 95.906 96.019 96.104 96.204 96.314 96.439 96.509 96.619 96.734 96.824 96.921 96.969 97.046 97.114 97.141 97.224 97.286 97.374 97.434 97.459 97.496 97.506 97.526 97.534 97.541 97.521 97.539 97.554 97.541 97.581 97.609 97.644 97.659 97.671 97.684 97.746 97.741 97.781 97.799 97.809 97.884 97.891 97.919 98.009 98.076 98.281 98.479 98.631 99.321 98.964 99.396 99.516 99.211 99.521 99.569 99.331 98.846 98.969 99.186 99.301 99.261 99.271 99.339 99.449 99.561 99.661 99.796 99.941 100.066 100.199 100.331 100.434 100.581 100.681 100.806 100.901 101.011 101.064 101.176 101.276 101.299 101.371 101.431 101.461 101.496 101.544 101.579 101.656 101.766 101.876 101.974 102.054 102.206 102.321 102.486 102.654 102.809 102.959 103.111 103.264 103.409 103.583 103.766 103.943 104.107 104.281 104.462 104.63 104.778 104.916 105.045 105.166 105.294 105.408 105.547 105.68 105.784 105.829 105.954 106.056 106.121 106.174 106.261 106.419 106.461 106.539 106.871 107.471 106.419 106.359 106.251 106.181 106.101 105.959 105.851 105.711 105.601 105.449 105.311 105.156 105.004 104.876 104.719 104.591 104.454 104.336 104.221 104.111 104.016 103.916 103.846 103.754 103.689 103.614 103.574 103.534 103.509 103.486 103.471 103.459 103.459 103.464 103.461 103.446 103.426 103.364 103.299 103.219 103.129 103.031 102.926 102.846 102.759 102.691 102.599 102.519 102.436 102.349 102.239 102.121 102.024 101.929 101.829 101.741 101.616 101.496 101.411 101.299 101.196 101.129 101.064 100.986 100.914 100.854 100.799 100.729 100.659 100.601 100.541 100.451 100.384 100.326 100.289 100.266 100.154 100.061 99.996 100.011 100.866 101.014 100.184 99.651 99.494 99.571 99.671 99.419 99.399 99.406 99.399 99.376 99.341 99.339 99.289 99.299 99.286 99.271 99.254 99.226 99.161 99.134 99.099 99.034 98.999 98.949 98.866 98.789 98.676 98.554 98.431 98.321 98.189 98.066 97.934 97.791 97.651 97.514 97.361 97.234 97.074 96.959 96.839 96.734 96.621 96.556 96.479 96.406 96.476 96.564 98.384 97.884 96.639 95.531 95.104 94.964 94.951 94.871 95.011 96.028 95.548 95.573 93.478 93.473 93.413 93.371 93.293 93.228 93.196 93.141 93.208 93.126 93.096 93.118 93.033 93.016 92.963 93.006 92.863 92.771 92.693 92.743 92.873 92.806 92.798 92.863 92.893 92.921 92.921 92.858 92.833 92.846 92.811 92.766 92.751 92.673 92.621 92.738 92.623 92.596 92.623 92.566 92.543 92.583 92.576 92.528 92.563 92.583 92.668 92.718 92.666 92.581 92.573 93.291 93.241 93.541 94.091 92.831 92.656 92.708 92.721 92.748 93.133 93.086 93.546 96.098 96.308 96.873 100.048 101.138 101.538 101.398 101.198 100.048 98.133 95.643 95.911 100.413 100.976 101.378 101.376 101.548 101.198 100.956 98.676 93.976 94.058 94.641 93.741 93.708 93.716 95.411 95.091 93.931 99.026 100.328 99.116 98.578 96.598
