ncols 407
nrows 32
xllcorner    426010
yllcorner    544090
cellsize     2
NODATA_value -9999
110.147 109.485 113.82 116.17 117.235 116.162 114.77 111.027 108.957 108.7 108.617 108.802 109.217 108.23 107.95 107.975 108.04 108.107 108.022 107.987 107.892 107.852 107.742 107.745 109.542 111.107 108.577 107.612 107.54 107.347 106.955 106.892 106.92 106.92 107.005 107.482 106.972 106.795 108.792 112.987 113.827 110.982 109.225 108.155 108 106.865 106.525 106.4 106.335 106.265 107.617 107.97 107.162 106.282 105.74 105.695 105.825 105.505 105.422 105.612 105.59 106.017 106.977 109.495 111.325 112.755 113.302 112.215 109.63 105.495 105.247 104.742 104.242 104.352 105.025 104.767 107.455 111.97 111.362 104.192 103.132 103.13 103.122 103.145 103.265 103.192 103.06 102.995 103.005 102.93 102.872 102.877 102.787 102.85 102.67 102.612 102.537 102.582 102.57 103.472 103.18 102.6 102.99 103.955 104.185 103.632 102.687 102.787 103.52 105.857 106.537 105.1 102.75 101.83 101.802 102.23 103.28 102.927 102.207 101.975 101.607 102.26 104.42 108.17 108.962 106.622 102.387 101.19 101.297 101.575 101.78 102.122 101.385 101.405 101.617 101.9 102.115 102.292 102.422 105.332 106.285 105.147 104.352 103.532 103.507 103.36 105.74 105.742 105.612 104.982 105.397 103.597 104.932 104.137 106.235 106.652 106.72 107.19 104.765 104.525 103.875 103.872 103.925 103.937 103.86 103.75 103.772 103.785 103.772 103.81 104.035 104.372 104.205 104.37 105.995 104.762 107.43 109.155 109.08 104.397 104.562 104.027 104.09 105.33 104.647 103.002 103 107.922 109.165 109.33 109.59 109.405 104.717 103.702 103.057 102.74 102.652 102.377 102.13 101.9 101.69 101.572 101.532 101.53 101.672 101.265 101.25 101.132 101.18 101.145 101.16 101.142 101.305 101.595 102.062 102.657 102.762 102.872 104.955 106.76 106.942 106.987 106.697 104.2 103.1 103.485 104.477 104.85 103.082 102.915 103.077 102.865 103.022 103.057 103.017 103.095 102.95 102.267 101.235 100.675 101.112 102.13 102.655 102.415 101.88 102.372 102.895 102.967 102.817 102.71 102.502 102.085 102.862 105.147 98.562 97.702 97.512 98.247 99.252 99.962 100.947 101.975 102.777 102.68 102.502 102.345 102.112 101.805 102.015 101.595 101.425 101.357 101.187 101.052 101.062 101.14 101.357 100.855 100.84 100.732 100.72 100.645 100.492 100.385 100.36 100.242 101.122 100.092 100.615 101.192 100.807 98.52 97.122 96.595 96.832 96.22 96.485 96.352 96.147 96.18 96.192 96.345 96.947 96.602 95.957 95.83 95.682 95.582 96.682 96.02 95.112 95.03 95.002 94.885 94.67 95.477 95.125 95.01 96.575 96.36 95.462 95.492 95.895 97.09 96.107 96.07 96.152 97.492 96.222 100.875 101.6 102.427 103.157 102.115 99.682 95.565 95.95 95.762 95.902 96.725 98.722 99.155 97.262 97.45 97.462 97.29 97.272 97.25 97.157 97.1 97.085 97.04 96.95 96.827 96.715 96.655 96.542 96.297 96.017 95.737 95.472 95.227 94.98 94.72 94.587 94.58 94.83 95.142 95.097 95.18 95.27 95.405 95.72 95.752 95.687 95.53 95.477 95.422 95.292 95.535 95.815 95.975 96.02 96.035 96.072 96.202 96.205 96.262 96.295 96.33 96.382 96.395 96.332 96.282 96.23 96.145 96.007 95.98 95.99 95.987 96.05 96.055 96.415 95.61 95.24 95.01 94.6
109.62 109.382 112.347 109.785 114.262 115.335 113.405 109.505 108.747 108.7 108.722 108.402 108.92 107.96 107.942 107.942 108.002 108.145 108.017 107.947 107.895 107.807 107.732 107.697 107.997 108.637 107.657 107.572 107.46 107.07 106.915 106.922 106.897 106.992 107.152 106.812 107.09 107.342 111.825 113.952 114.765 113.635 110.872 109.927 108.625 106.997 106.737 106.31 106.277 106.815 107.992 108.32 106.1 106.13 105.82 105.757 107.207 106.315 105.447 105.345 105.207 105.252 107.407 111.185 112.435 113.4 112.75 110.917 106.15 105.255 104.972 104.487 104.095 104.162 104.695 105.445 103.777 103.345 103.212 103.165 103.12 103.132 103.137 103.217 103.325 103.26 103.06 103.02 102.965 102.927 102.887 102.785 102.727 102.732 102.63 102.55 102.455 102.467 102.422 102.367 102.412 103.092 104.23 104.93 103.53 102.665 103.83 104.48 106.157 106.905 107.752 104.717 101.857 101.835 102.05 101.837 102.727 101.425 101.552 101.045 101.125 101.1 105.13 108.31 109.232 107.277 102.657 101.435 102.927 101.59 101.667 101.71 101.38 101.457 101.725 101.94 102.032 102.232 103.17 107.705 109.84 110.105 109.677 106.967 104.917 103.385 104.18 104.67 104.525 103.747 104.475 103.567 103.735 103.862 105.242 106.902 107.122 109.407 110.302 110.167 108.73 104.115 104.78 104.58 104.447 103.74 103.7 103.732 103.705 103.785 104.59 104.575 104.537 106.447 106.942 104.637 103.992 105.522 106.375 106.375 105.295 103.967 104.815 106.28 105.272 102.987 102.975 104.792 106.49 108.865 110.477 111.257 109.215 106.587 103.09 103.23 103.41 102.455 102.02 101.815 101.632 101.435 101.312 101.127 101.14 101.162 101.175 101.052 101.042 101.095 101.105 101.057 101.18 101.487 101.84 102.275 102.575 103.09 103.352 103.39 103.935 104.48 105.222 103.972 103.752 105.002 105.13 103.46 103.14 103.012 102.902 102.99 103.122 103.062 102.995 103.055 102.682 101.755 100.89 100.565 101.122 101.937 102.095 101.735 101.375 101.88 102.597 102.895 102.772 102.647 102.407 101.685 105.97 103.102 98.307 97.582 97.445 98.332 99.21 99.927 100.972 101.325 101.617 102.08 101.425 101.365 101.487 101.017 102.162 101.347 101.007 100.735 100.552 100.615 100.482 100.41 100.262 100.2 100.197 100.117 100.8 100.387 99.767 99.542 99.347 99.475 99.925 98.262 97.952 96.745 97.082 96.505 96.77 96.35 95.997 96.462 96.697 96.025 96.077 96.12 96.162 96.085 96.89 96.605 95.797 96.317 95.102 95.585 96.427 95.655 93.977 93.927 93.645 95.17 95.99 95.08 95.597 96.235 98.067 98.055 95.582 95.002 95.257 96.125 95.982 95.945 96.242 96.17 95.57 96.737 100.192 101.74 102.917 102.797 101.587 96.512 95.472 95.67 95.947 97.135 96.777 97.287 98.362 97.245 97.135 97.075 96.97 97.017 96.932 96.88 96.872 96.785 96.715 96.64 96.58 96.457 96.305 96.127 95.832 95.485 95.205 94.995 94.655 94.195 93.83 93.93 94.445 94.755 94.75 94.635 94.74 94.98 95.26 95.26 95.107 95.052 95.087 94.947 95.017 95.292 95.587 95.74 95.812 95.922 95.975 96.055 96.125 96.16 96.207 96.26 96.272 96.265 96.47 96.47 96.167 96.045 95.887 95.825 95.76 95.715 95.672 95.717 95.527 95.9 96.147 94.637 94.44
109.07 108.84 109.117 111.047 110.34 112.13 110.012 109.862 109.125 108.512 108.832 108.68 108.202 108.025 107.875 107.935 107.962 108.032 107.98 107.885 108.045 107.817 107.72 107.652 107.63 107.565 107.477 107.45 107.23 106.952 106.97 106.902 106.917 107.472 106.927 106.815 106.83 111.63 113.797 114.66 113.687 112.505 110.382 107.902 108.97 106.59 107.012 106.79 106.452 107.907 105.895 106.095 105.735 105.727 106.832 107.125 107.655 107.805 106.845 105.557 105.955 106.122 110.315 112.115 113.455 113.055 111.887 108.042 104.772 105.607 105.295 104.517 103.93 104.417 104.612 104.565 103.452 103.22 103.29 103.262 103.13 103.142 103.142 103.21 103.24 103.14 103.035 103.002 102.93 102.872 102.837 102.69 102.685 102.615 102.7 102.465 102.37 102.335 102.342 102.315 102.632 103.887 104.562 103.795 102.385 102.22 105 106.425 107.177 107.502 106.95 106.032 102.447 101.907 101.547 101.377 101.497 101.585 102.402 101.302 103.615 103.945 106.677 108.352 108.71 107.49 102.385 101.32 101.557 101.562 101.417 101.43 101.417 101.477 101.66 101.957 102.065 102.357 103.54 108.212 110.31 111.14 109.82 105.615 103.52 103.067 103.227 103.362 103.445 104.277 104.615 103.537 103.62 103.87 104.302 106.615 107.227 109.905 111.402 111.372 109.307 105.387 104.525 104.465 104.045 103.967 103.652 103.73 103.687 103.825 104.64 103.877 104.377 109.382 109.707 108.885 106.832 104.942 105.19 105.707 104.442 103.63 104.552 105.66 103.782 103.905 103.385 103.4 105.675 109.612 110.955 111.197 109.83 105.215 102.74 102.655 102.775 102.25 101.865 101.7 101.527 101.362 101.212 101.055 101.015 101.002 100.982 100.922 100.95 100.982 100.967 100.992 101.097 101.455 101.815 102.132 102.457 102.787 103.135 103.475 103.785 103.402 103.352 103.332 104.462 105.642 105.69 103.295 103.27 103.125 103.09 103.255 103.282 103.162 103.135 103.03 102.217 102.067 100.405 100.502 101.347 101.747 101.71 101.182 100.917 101.262 101.962 102.53 102.727 102.55 102.16 101.427 100.282 99.107 98.032 97.395 97.435 98.382 99.085 99.755 100.615 100.732 100.807 100.897 100.76 100.827 101.105 100.962 100.812 100.695 100.322 100.102 99.962 99.932 99.892 99.807 99.692 99.642 99.68 99.415 99.322 99.86 98.425 97.937 97.332 97.195 97.512 96.862 96.59 96.13 96.095 96.06 96.422 96.14 95.247 95.307 95.032 94.96 95.145 95.077 95.132 95.292 96.652 95.505 94.757 95.58 94.955 95.945 96.577 93.872 93.657 93.64 93.652 96.127 96.86 95.112 96.982 99.267 99.617 100.13 99.69 100.35 95.335 95.692 95.8 95.752 95.73 95.637 95.512 95.425 97.337 100.807 102.26 103.11 102.245 97.502 95.562 95.677 95.127 95.475 95.78 98.59 98.702 97.8 96.785 96.715 96.675 96.81 96.757 96.702 96.677 96.652 96.562 96.49 96.435 96.335 96.167 95.96 95.68 95.332 95 94.775 94.39 93.887 93.475 93.34 93.68 93.967 94.202 94.152 94.267 94.225 94.515 94.512 94.67 94.71 94.682 94.517 94.852 95.137 95.377 95.572 95.765 95.81 95.85 95.967 96.047 96.077 96.147 96.237 96.262 96.282 96.685 96.137 95.87 95.982 95.81 95.705 95.665 95.862 95.535 95.552 96.327 96.017 95.947 95.32 94.39
108.872 108.72 108.822 109.307 109.27 109.862 110.042 110.462 108.832 108.42 108.385 108.405 108.022 107.89 107.827 107.84 107.847 107.932 107.922 107.865 107.827 107.847 107.765 107.615 107.57 107.52 107.47 107.435 106.987 106.915 106.925 106.9 107.207 107.115 106.805 106.765 110.397 113.255 114.712 114.39 112.672 108.915 108.072 106.78 106.562 106.682 106.355 106.88 106.967 106.177 105.65 105.755 105.47 105.445 107.657 107.935 107.185 107.225 105.592 105.25 107.57 109.385 111.8 112.94 113.56 112.225 110.745 106.037 105.232 105.31 104.912 104.742 104.062 103.845 104.887 103.66 103.275 103.262 103.325 103.267 103.147 103.15 103.185 103.255 103.162 103.092 103.025 103.015 102.947 102.872 102.765 102.665 102.607 102.57 102.505 102.412 102.322 102.227 102.25 102.275 102.212 103.385 103.537 102.25 101.945 101.995 103.867 107.42 107.335 106.692 105.342 103.117 102.53 103.327 101.562 101.302 101.24 101.537 101.865 102.262 102.005 104.395 105.517 107.987 108.355 107.205 102.41 101.307 101.542 101.485 101.447 101.485 101.43 101.48 101.8 102.095 102.172 103.43 103.125 107.03 110.312 111.235 109.875 105.477 103.192 103.3 103.812 103.537 103.395 103.892 104.24 104.74 103.637 103.887 104.53 106.38 107.262 109.967 111.877 111.44 109.465 104.49 104.237 103.87 103.892 103.975 103.772 103.935 104.015 104.037 104.492 104.01 104.167 109.96 111.302 111.04 108.67 103.815 103.705 103.64 103.562 103.53 105.152 104.657 102.982 102.892 103.027 104.77 108.097 110.095 111.605 110.717 109.175 103.602 103.162 102.422 102.127 102 101.82 101.73 103.612 103.397 101.65 100.977 100.932 100.917 100.852 100.81 100.855 100.917 100.887 100.907 101.095 101.405 102.64 102.64 102.777 103.452 105.652 106.607 106.785 106.582 105.65 104.715 104.242 104.72 105.215 103.337 103.242 103.332 103.345 103.347 103.32 103.252 103.195 102.762 101.622 100.585 100.115 100.47 101.352 101.482 101.105 100.645 100.49 100.767 101.435 101.885 102.347 102.412 101.887 102.65 103.862 98.872 97.825 97.31 97.485 98.372 99.057 99.697 100.19 100.245 100.315 100.197 100.195 100.435 100.95 100.672 100.29 99.992 99.672 99.537 99.347 99.302 99.307 99.332 99.3 99.245 98.792 98.142 97.515 97.067 96.812 96.78 97.255 96.997 97.51 96.13 95.915 95.742 95.742 95.782 95.35 95.512 94.53 94.08 94.1 94.255 94.215 93.85 93.81 94.69 94.767 94.457 96.512 97.492 96.29 94.227 94.427 94.16 94.927 96.777 97.535 98.46 99.065 96.39 97.497 101.275 101.422 101.525 101.637 101.767 95.955 95.83 95.512 95.505 95.567 95.43 95.332 96.205 95.967 99.215 101.642 102.202 97.247 95.135 94.482 94.19 94.512 95.085 95.527 95.937 97.122 98.075 97.225 96.557 96.632 96.502 96.507 96.56 96.557 96.52 96.365 96.345 96.31 96.185 96.017 95.822 95.592 95.292 94.995 94.622 94.11 93.61 93.285 93.012 92.617 92.745 93.26 93.312 93.36 93.19 93.525 93.555 93.777 94.105 93.965 94.265 94.805 95.09 95.152 95.335 95.6 95.637 95.772 95.865 95.92 95.955 96.322 96.677 96.395 96.167 95.912 95.8 95.847 96.29 96.13 96.095 96.487 96.545 96.22 96.2 96.092 95.862 95.85 95.237 94.242
109.502 108.66 108.627 108.787 108.407 110.59 114.642 113.89 109.512 109.217 108.755 108.317 108.145 108.152 107.777 107.81 107.805 107.875 107.875 107.805 107.772 107.71 107.68 107.635 107.525 107.48 107.4 107.117 106.972 106.972 106.942 106.96 107.447 107.07 106.762 106.71 112.67 114.202 114.617 112.655 110.01 107.455 106.775 106.582 106.537 106.392 106.192 107.462 106.497 105.675 105.687 105.5 105.397 105.285 105.475 106.965 107.932 106.327 105.822 105.195 105.63 110.787 112.342 113.272 112.455 109.862 105.617 104.787 104.775 104.767 104.102 103.962 104.755 104.2 103.472 103.28 103.267 103.362 103.38 103.257 103.175 103.177 103.295 103.205 103.142 103.105 103.01 103.02 102.917 102.86 102.76 102.645 102.54 102.477 102.495 102.357 102.26 102.157 102.257 102.227 102.07 101.955 101.935 101.86 101.852 101.96 102 104.707 106.477 105.175 104.2 102.587 104.222 103.995 101.372 101.3 101.047 100.942 101.135 101.56 101 100.915 102.705 107.94 108.24 105.42 101.612 101.355 101.465 101.452 101.45 101.495 101.42 101.5 101.677 101.995 102.152 102.367 102.68 108.087 110.29 111.202 109.865 106.715 103.07 103.245 103.045 103.34 103.42 103.292 104.422 103.945 104.42 103.502 104.407 104.13 104.797 110.177 111.947 111.495 108.877 103.84 103.72 103.75 103.752 103.745 103.78 103.782 103.815 104.467 103.745 104.265 105.745 110.275 111.71 111.157 107.98 103.87 103.682 103.582 103.507 103.462 104.53 104.19 102.765 102.795 103.645 106.22 109.2 110.535 111.665 110.267 107.827 103.075 105.757 102.277 101.922 101.727 101.572 102.587 110.097 112.185 107.76 100.962 100.867 100.81 100.732 100.727 100.76 100.805 100.78 100.842 101.03 101.412 102.687 102.892 102.962 103.34 106.455 107.77 108.287 107.175 106.037 105.437 103.27 103.33 103.23 103.157 103.275 103.362 103.457 103.372 103.315 103.25 103.15 102.52 101.232 100.162 99.92 100.4 101.1 101.295 100.605 100.097 100.025 100.19 100.662 101.192 101.837 102.135 101.832 107.235 112.212 98.55 97.557 97.28 97.555 98.33 98.942 100.107 99.682 99.707 99.697 99.685 99.892 99.872 100.162 99.957 99.605 99.357 99.147 99.017 98.945 98.685 98.825 98.977 98.342 97.93 98.03 97.025 96.86 96.762 96.642 96.577 96.282 96.152 97.432 95.62 95.177 95.017 94.757 97.317 96.33 95.002 93.79 93.43 94.377 94.215 93.625 93.55 93.607 93.67 96.415 100.037 99.905 99.755 99.13 98.267 95.47 95.915 97.867 100.067 100.177 100.382 100.525 98.447 98.655 101.725 101.602 101.447 101.31 101.367 96.36 95.517 95.37 95.172 95.175 95.105 95.2 95.662 96.147 97.307 97.712 96.01 95.995 96.917 98.907 96.58 94.307 94.73 95.13 95.2 96.582 97.555 97.642 96.425 96.262 96.215 96.32 96.667 96.357 96.31 96.275 96.24 96.13 95.992 95.845 95.672 95.45 95.18 94.827 94.402 93.917 93.445 93.087 92.592 92.175 91.977 92.15 92.39 92.182 92.167 92.255 92.467 93 93.315 93.425 93.977 94.63 95.057 95.127 95.172 95.687 95.487 95.62 95.735 95.81 95.997 96.76 96.482 96.117 95.73 96.862 95.915 96.177 96.52 96.4 96.142 96.197 96.965 96.157 96.52 96.76 96.757 95.597 95.292 94.617
111.08 108.965 108.865 108.625 108.312 113.63 115.38 114.24 111.52 110.53 109.297 108.592 108.64 108.075 108.355 108.015 107.712 107.75 108.07 107.797 107.705 107.642 107.66 107.647 107.472 107.405 107.147 106.982 106.965 106.93 106.99 106.997 107.55 108.007 107.085 107.787 110.945 113.722 113.807 111.052 106.895 106.735 107.182 106.75 106.477 106.117 106.112 106.787 105.767 105.66 105.667 105.37 105.477 105.235 105.18 105.22 106.25 105.13 105.205 106.627 106.14 106.592 109.165 112.205 111.632 108.542 105.115 104.825 104.64 104.477 104.252 104.052 103.687 103.607 103.307 103.155 103.182 103.475 103.412 103.212 103.177 103.172 103.18 103.15 103.125 103.037 103.06 103.03 103.007 102.952 102.862 102.667 102.502 102.382 102.335 102.27 102.24 102.115 102.155 102.127 101.927 101.852 101.85 101.84 101.912 101.907 101.922 102.137 103.302 103.555 104.017 105.277 105.362 104.387 102.137 101.065 100.897 100.817 100.762 100.815 101.47 100.977 103.945 107.832 107.967 104.517 101.31 101.41 101.427 101.437 101.427 101.49 101.437 101.485 101.82 101.827 101.982 102.255 102.96 107.835 110.297 111.152 109.855 107.665 105.327 104.547 102.942 103.105 103.265 103.267 103.94 103.802 103.577 103.415 103.522 103.605 105.657 110.065 111.63 111.125 108.162 103.655 103.697 103.895 104.252 103.652 103.77 103.68 103.687 104.007 103.812 104.195 104.807 110.415 111.702 111.14 107.557 103.7 103.615 103.515 103.46 103.375 104.195 105.497 105.17 104.06 105.167 107.63 109.66 110.985 111.142 109.77 105.162 102.632 103.082 102.28 102.377 101.945 101.502 101.78 110.455 112.435 108.74 102.772 100.937 100.805 100.65 100.63 100.632 100.71 100.685 100.757 100.957 101.402 102.465 102.882 102.985 103.11 106.29 108.03 108.44 107.07 105.392 103.932 103.22 103.297 103.26 103.557 103.31 103.36 103.382 103.352 103.235 103.187 102.845 101.865 100.807 99.855 99.74 100.295 100.812 100.687 100.187 99.802 99.662 99.727 100.115 100.612 101.312 101.665 102.94 115.687 107.855 98.187 97.342 98.347 97.56 98.445 100.062 99.802 99.442 99.31 99.18 99.127 99.29 99.485 99.36 99.225 99.087 98.752 98.865 98.317 98.61 98.58 98.225 97.387 97.227 97.98 99.83 96.642 96.52 96.412 96.18 95.907 95.81 95.685 96.432 95.207 95.037 94.582 95.255 97 96.732 94.817 93.705 99.08 99.085 98.83 98.115 97.125 95.045 93.81 96.545 100.987 100.96 100.847 100.8 100.71 95.595 96.312 99.035 101.345 101.327 101.267 101.235 99.867 97.627 100.565 99.192 98.612 99.442 98.93 95.105 95.137 95.05 94.79 94.745 94.787 94.917 95.632 95.407 95.92 95.482 94.502 99.282 100.612 100.427 98.195 94.195 94.267 94.647 94.87 95.385 97.32 98.172 96.097 95.992 95.83 95.922 96.425 96.322 95.997 95.975 95.925 95.875 95.802 95.675 95.525 95.182 94.757 94.62 94.247 93.755 93.25 92.757 92.232 91.887 91.65 91.212 91.345 91.295 91.31 91.55 91.955 92.375 92.767 93.107 93.71 94.295 94.797 95.14 95.187 95.25 95.415 95.515 95.567 95.98 96.38 96.647 96.46 95.95 96.387 96.477 96.247 96.112 96.052 96.05 95.78 96.052 96.565 96.16 95.772 96.232 96.432 95.112 95.317 94.33
108.872 109.837 109.59 108.897 110.852 114.765 116.112 116.325 113.802 111.325 108.735 108.612 108.867 108.51 108 108.042 107.707 107.64 107.71 107.725 107.685 107.64 107.557 107.492 107.48 107.195 107.037 106.93 106.962 106.972 107.387 107.13 106.917 106.937 108.595 107.97 108.437 109.497 111.775 107.745 106.662 106.602 106.532 106.812 106.682 107.767 106.285 106.502 106.22 106.292 105.395 105.277 105.225 105.195 105.14 105.095 105.045 105.045 105.747 105.252 105.992 105.837 104.95 108.81 108.855 105.287 104.695 104.635 104.707 104.512 104.44 104.7 103.712 103.335 103.2 103.082 103.075 103.24 103.347 103.182 103.152 103.217 103.15 103.135 103.075 103.085 103.16 103.22 103.215 103.132 102.925 102.73 102.51 102.325 102.217 102.22 102.185 102.107 101.997 101.915 101.857 101.827 101.802 101.792 102.027 101.797 101.782 101.762 101.835 103.587 104.932 106.527 106.107 104.862 102.665 101.317 100.93 100.912 100.737 102.067 101.397 102.12 103.005 104.597 104.457 102.785 101.347 101.467 102.455 102.032 101.567 101.497 101.46 101.477 101.725 101.805 101.9 102.23 102.677 107.317 110.02 110.945 109.865 107.712 105.897 104.577 102.912 103.242 103.332 103.262 103.67 103.652 103.35 103.532 103.342 103.507 105.797 110.172 110.685 110.27 107.562 103.585 103.812 104.23 104.03 103.567 103.815 103.59 103.597 103.84 104.155 103.63 106.24 110.512 111.782 110.897 109.34 107.87 104.257 103.472 103.367 104.247 105.057 105.335 105.397 105.255 105.557 104.797 106.807 111.152 110.667 109.317 103.6 102.235 102.142 101.682 101.882 102.855 102.15 102.607 106.16 106.125 102.82 101.575 100.715 100.855 100.58 100.565 100.54 100.632 100.607 100.687 100.852 101.327 102.565 102.88 102.97 103.835 106.71 108.137 108.337 106.91 103.472 103.217 103.245 103.227 103.18 103.287 103.272 103.267 103.267 103.242 103.202 102.995 102.102 101.142 100.172 99.627 99.785 100.45 100.702 100.527 100.092 99.772 99.522 99.402 99.765 100.335 100.97 100.932 100.64 103.157 101.142 97.81 97.17 97.032 97.637 98.46 98.89 99.55 99.125 98.887 98.732 98.65 98.73 98.805 98.785 98.565 98.6 98.24 97.822 98.09 98 97.522 97.185 97.087 97.012 97.23 97.647 96.282 96.08 95.84 95.475 95.46 95.415 95.24 95.625 96.785 97.49 97.36 97.745 97.877 97.72 94.695 94.137 100.22 100.457 100.315 100.18 99.222 97.025 94.137 96.975 100.552 100.345 100.477 100.605 100.635 94.995 96.742 99.102 100.46 100.367 100.17 100.257 98.305 94.692 95.075 95.017 95.002 94.837 94.83 94.742 94.652 94.565 94.477 94.497 94.577 94.66 94.85 94.817 94.52 94.042 94.66 99.695 100.16 100.69 98.81 94.99 94.06 94.542 94.567 95.005 95.842 95.567 96.892 96.382 95.435 95.672 96.185 95.832 95.472 95.345 95.435 95.475 95.58 95.475 95.25 94.895 94.5 94.467 94.062 93.547 93.035 93.25 92.315 91.577 91.192 90.895 90.777 90.795 90.957 91.252 91.76 92.375 92.602 93.712 93.472 93.905 94.435 94.842 95.195 95.847 95.34 95.382 95.467 96.93 96.245 96.807 96.035 95.965 96.27 96.15 96.132 96.082 95.69 95.802 95.847 95.585 95.62 95.57 95.812 96.055 95.227 95.487 94.572 94.792
108.497 108.455 109.135 109.277 113.907 115.437 116.537 115.64 114.3 110.365 108.485 108.917 108.297 108.197 108.25 107.86 107.61 107.595 107.567 107.58 107.872 107.712 107.5 107.547 107.882 107.072 106.96 106.945 106.957 107.467 107.462 107.937 107.6 110.37 112.875 113.38 108.43 108.515 107.27 106.63 106.612 106.54 106.287 106.157 106.457 106.95 106.382 105.742 106.007 106.307 105.977 105.247 105.17 105.1 105.052 104.985 104.975 106.315 109.942 109.142 107.315 107.02 105.897 105.157 105.017 104.667 104.63 104.507 104.56 105.552 104.59 104.065 103.515 103.262 103.11 103.085 103.11 103.11 103.17 103.16 103.205 103.175 103.155 103.095 103.085 103.14 103.272 103.337 103.35 103.182 103.015 102.785 102.552 102.405 102.23 102.11 102.097 102.03 101.905 101.86 101.79 101.797 101.737 101.642 101.652 101.887 101.545 101.352 101.325 102.142 104.847 105.86 106.57 105.877 104.5 101.86 101.207 101.107 102.26 102.385 100.712 102.28 102.005 101.392 101.565 101.512 101.415 101.465 104.425 104.602 101.882 101.46 101.457 101.485 101.622 101.807 102.085 102.562 103.06 107.257 109.85 110.422 109.705 107.82 105.557 103.767 103.207 103.635 103.965 103.177 103.207 103.392 103.21 103.185 103.185 103.252 103.667 105.135 105.857 105.297 103.895 103.555 103.682 103.56 104.595 106.82 106.01 104.96 104.122 103.582 104.055 103.752 105.502 110.407 110.787 110.745 110.682 109.677 103.497 103.437 103.527 104.797 103.552 104.522 104.097 102.815 104.042 103.145 102.67 102.985 106.23 107.3 102.425 102.027 102.74 101.545 101.37 101.632 101.87 101.945 104.885 104.677 102.175 101.002 100.57 100.595 100.51 100.432 100.5 100.502 100.502 100.585 100.8 101.525 103.34 103.282 103.672 103.21 106.715 108.302 108.36 106.75 103.752 103.35 103.395 103.29 103.205 103.175 103.205 103.14 103.075 103.1 103.012 102.62 101.71 100.467 99.677 99.4 100.007 100.75 100.83 100.55 100.192 99.782 99.377 99.205 99.432 100.005 100.472 100.722 100.102 99.432 98.322 97.457 96.987 97.022 97.662 98.31 98.737 98.715 98.567 98.49 98.305 98.142 98.18 98.212 98.457 97.992 97.977 98.81 98.09 97.252 97.172 97.067 96.992 96.895 97.32 96.752 96.872 96.117 95.445 95.155 94.927 95.057 94.995 94.872 95.672 96.835 98.602 98.735 98.78 98.84 98.745 94.87 95.182 100.655 100.897 100.925 101.005 99.965 98.357 94.455 93.875 98.495 97.71 96.812 96.947 96.812 94.627 94.79 97.66 98.997 98.485 98.915 99.805 97.395 94.345 95.537 96.06 96.372 95 94.61 94.657 94.355 94.305 94.29 94.35 94.41 94.472 94.542 94.42 94.142 93.987 93.922 95.38 99.78 100.767 100.077 95.97 94.047 94.187 94.467 94.617 95.517 95.485 95.245 95.357 95.082 95.005 95.33 95.305 95.542 94.96 94.885 94.897 94.877 94.792 94.6 94.442 94.44 94.745 94.395 93.365 92.79 92.442 91.957 91.425 90.992 90.712 90.585 90.585 90.722 91.01 91.497 91.96 91.945 93.252 93.465 93.802 94.42 94.782 95.232 94.965 95.132 95.245 95.24 95.712 96.582 96.265 96.105 96.385 95.817 95.43 96.027 95.76 95.752 95.445 95.712 95.327 95.27 95.132 95.797 95.715 95.607 95.695 94.295 94.23
108.447 108.412 108.33 110.495 114.79 116.19 116.312 114.955 112.922 108.43 108.155 108.26 108.125 107.832 108.257 108.055 107.575 107.545 107.5 107.455 107.405 107.545 107.427 107.302 107.127 107 106.957 106.947 107.107 108.152 107.345 107.577 108.55 112.592 114.18 114.717 113.625 109.407 107.37 106.712 106.585 106.477 106.257 106.147 106.68 106.177 105.58 106.797 105.817 105.987 105.96 105.627 105.1 105.005 105.055 105.245 106.165 108.475 111.95 112.085 110.987 108.017 106.68 106.415 104.66 104.385 104.38 104.717 104.702 107.082 104.055 103.577 103.33 103.172 103.092 103.092 103.107 103.13 103.197 103.215 103.22 103.147 103.137 103.06 103.105 103.197 103.317 103.387 103.28 103.145 103.002 102.852 102.627 102.422 102.225 102.07 101.98 101.94 101.902 101.812 101.827 101.745 101.695 101.592 101.49 101.502 101.345 101.517 101.327 101.37 103.377 105.047 106.09 106.752 105.67 102.94 100.905 100.375 101.13 100.607 100.69 101.405 102.33 101.477 101.6 101.48 101.505 101.672 105.74 104.33 101.542 101.44 101.502 101.462 101.532 102.49 102.935 103.34 102.882 106.48 107.912 107.277 104.71 104.082 102.795 102.74 103.362 105.172 105.205 102.952 102.96 103.305 103.53 103.05 103.142 103.165 103.237 103.542 103.507 103.392 103.537 103.892 104.247 107.242 110.285 110.262 110.117 110.05 109.897 107.2 103.66 104.207 103.715 104.84 106.5 107.287 108.122 106.97 103.437 103.677 104.207 103.26 102.497 102.36 102.885 104.022 102.21 102.277 102.297 103.105 103.362 102.212 102.117 101.902 101.885 101.55 101.255 101.077 100.915 100.807 101.805 102.917 103.122 100.56 100.465 100.475 100.407 100.362 100.367 100.405 100.387 100.485 100.74 101.5 103.067 103.34 102.975 104.135 106.977 108.412 108.162 106.225 103.95 103.48 103.935 103.65 104.285 103.43 103.257 103.077 102.972 102.947 102.62 101.9 100.825 99.922 100.665 99.285 100.05 100.915 101.182 100.832 100.42 99.715 99.44 99.032 99.272 99.857 100.462 100.34 99.635 98.812 97.93 97.43 96.982 97.295 97.815 98.282 98.685 98.767 98.347 98.137 97.972 98.467 97.822 97.845 98.03 98.1 97.855 97.445 97.557 97.017 96.942 97.045 97.382 96.952 97.17 98.965 96.567 95.807 94.79 94.68 94.232 94.465 94.435 94.735 94.37 96.747 98.597 98.497 98.207 98.092 98.067 95.5 95.052 99.757 99.655 99.655 99.815 99.165 97.955 94.385 93.462 93.512 93.902 94.292 94.012 93.835 93.967 93.977 95.317 95.012 94.817 94.295 95.26 94.252 93.792 96.977 97.757 97.535 94.8 94.79 94.912 94.222 94.182 94.157 94.222 94.245 94.28 94.33 94.175 93.98 94.487 95.79 94.865 97.64 100.505 100.44 97.857 94.327 93.915 93.987 94.262 94.227 94.905 95.46 95.225 94.907 94.775 95.462 95.572 95.162 94.612 94.567 94.475 94.222 95.112 94.337 93.965 93.745 94.305 94.25 92.915 92.547 92.107 91.695 91.32 90.877 90.557 90.427 90.407 90.507 90.81 91.04 91.255 91.777 92.85 93.262 93.79 94.16 95.017 94.862 94.465 94.752 94.952 95.02 95.1 95.215 95.167 95.455 95.572 95.21 95.205 95.56 95.84 95.832 95.525 95.267 95.175 95.147 95.107 95.497 95.425 95.002 95.357 94.927 93.685
108.387 108.322 108.28 113.237 115.472 116.535 115.625 113.952 110.047 108.55 108.142 108.165 108.412 108.06 108.32 107.752 107.587 107.5 107.442 107.37 107.285 107.222 107.192 107.112 107.05 107 107.007 107.002 107.332 107.225 107.74 107.117 111.307 113.745 114.84 114 111.382 108.682 107.94 107.85 106.612 106.47 106.192 106.312 107.207 106.997 105.95 106.67 105.632 105.57 106.127 107.502 106.525 105.382 105.272 106.705 109.165 111.672 112.805 112.62 112.177 111.337 106.72 104.64 104.815 104.642 104.07 104.59 105.587 105.735 103.955 103.377 103.217 103.102 103.112 103.122 103.147 103.157 103.172 103.187 103.18 103.16 103.105 103.075 103.125 103.242 103.29 103.297 103.21 103.062 102.947 102.797 102.642 102.437 102.252 102.115 101.937 101.89 101.857 101.77 101.667 101.66 101.61 101.51 101.407 101.35 101.947 102.02 101.255 101.595 101.832 103.865 105.31 105.792 104.467 102.045 100.5 100.327 100.567 100.7 100.747 100.805 101.175 103.23 101.877 101.562 101.615 101.6 102.12 101.85 101.567 101.475 101.487 101.462 101.532 102.45 102.937 102.342 102.435 102.427 103.44 103.16 103.212 102.587 102.627 102.942 102.967 103.907 103.315 102.987 102.887 102.895 103.19 103.142 103.022 103.1 103.212 103.272 103.747 103.465 103.46 103.917 104.087 107.877 111.09 111.527 111.792 111.45 111.017 107.625 103.485 104.147 103.462 103.392 103.33 103.307 103.397 103.392 103.39 104.582 105.19 102.975 102.317 101.977 103.702 107.095 106.995 105.672 103.222 102.1 102.312 102.047 102.092 101.79 101.54 101.322 101.14 100.952 100.782 100.642 100.525 100.837 100.6 100.417 100.365 100.375 100.237 100.265 100.34 100.275 100.277 100.36 100.64 101.435 103.195 103.015 103.232 104.297 107.107 108.457 107.977 106.195 103.185 103.235 103.14 103.115 104.112 103.335 103.3 102.91 102.752 102.415 102.562 101.13 100.057 99.315 99.01 99.195 100.042 100.98 101.345 101.15 100.655 99.702 99.1 98.9 99.3 99.935 100.185 99.987 99.572 98.375 97.385 97.14 97.495 98.052 98.235 98.38 98.97 98.582 98.267 98.01 98.08 98.775 97.672 97.4 97.162 97.29 97.232 97.15 97.892 97.327 97.397 97.08 96.34 96.06 95.817 97.665 96.465 95.69 94.062 93.977 94.497 96.18 96.407 96.702 94.94 96.295 98.265 98.252 97.195 95.915 95.762 94.772 94.672 98.792 99.152 97.305 97.667 97.175 96.325 93.44 93.372 93.432 93.52 95.365 96.462 96.02 94.38 93.565 93.967 93.92 93.985 93.57 93.6 93.672 93.747 96.05 98.03 97.66 94.752 95.352 95.255 94.13 94.05 94.022 94.06 94.112 94.17 94.34 94.155 95.2 97.097 97.435 95.97 96 99.535 99.595 95.995 94.265 93.397 93.437 93.542 93.6 93.977 95.347 95.437 94.477 94.532 94.735 94.68 94.505 94.962 94.547 94.28 94.115 93.905 93.695 93.59 93.245 92.972 92.73 92.467 92.277 92.025 91.732 91.477 91.185 90.817 90.55 90.395 90.347 90.532 90.795 91.09 91.732 92.495 93.202 93.745 94.165 94.3 94.92 94.17 94.285 94.317 94.422 94.617 94.827 94.985 95.43 95.877 95.197 95.375 96.322 95.797 95.69 96.285 95.83 94.97 95.067 95.07 95.142 94.967 94.892 93.83 93.93 92.835
108.312 108.272 110.4 114.837 116.197 116.275 114.917 112.092 108.53 108.922 109.145 108.307 107.99 107.857 108.205 108.047 107.92 107.515 107.37 107.302 107.237 107.185 107.137 107.097 107.057 107.045 107.02 107.05 107.07 106.932 106.985 109.717 113.487 114.607 114.372 113.057 108.55 106.987 106.572 107.052 107.6 106.795 106.142 106.49 106.28 106.505 107.065 105.552 105.495 105.115 105.28 107.412 108.035 106.52 105.605 108.055 110.83 112.345 112.807 111.805 111.512 109.92 105.36 104.682 105.332 104.67 104.55 103.94 104.03 103.842 103.47 103.245 103.132 103.117 103.125 103.15 103.16 103.18 103.17 103.195 103.18 103.12 103.065 103.122 103.237 103.302 103.255 103.187 103.125 103.02 102.847 102.74 102.61 102.472 102.32 102.117 101.935 101.787 101.762 101.682 101.615 101.54 101.47 101.397 101.367 101.315 101.585 102.967 101.605 101.047 101.227 101.742 102.757 102.677 103.325 103.05 100.812 101.152 100.435 100.727 100.78 102.092 101.29 102.132 102.55 102.495 101.642 101.622 101.597 102.102 101.565 101.45 101.49 101.447 101.49 102 101.952 102.007 102.247 102.495 103.455 103.192 103.085 105.487 105.445 104.41 102.72 102.692 102.665 102.742 102.917 103.747 103.122 104.505 102.967 102.992 103.482 103.33 103.517 103.882 103.842 103.742 109.697 110.115 110.71 110.625 111.112 111.065 110.865 107.98 103.515 103.485 104.385 103.29 103.58 103.185 103.232 103.287 103.94 108.812 104.295 102.775 102.532 102.002 104.6 107.18 108.692 109.92 108.99 103.797 102.615 102.5 101.715 101.51 101.355 101.26 101.02 100.827 100.67 100.52 100.617 100.575 100.337 100.312 100.277 100.257 100.137 100.102 100.18 100.192 100.19 100.282 100.575 101.565 103.442 102.965 103 105.02 107.227 108.527 107.842 106.437 104.427 103.742 103.17 103.005 103.35 103.335 102.987 102.685 102.237 101.49 100.915 100.227 99.382 98.792 98.56 99.017 99.682 100.545 101.055 101.047 100.65 99.75 99.037 98.855 99.217 99.837 99.83 99.477 99.78 97.86 97.197 97.867 98.992 98.177 98.282 98.265 98.342 98.1 98.042 97.657 97.955 97.765 97.1 96.897 96.802 96.675 96.7 96.582 97.437 98.195 97.215 96.105 95.44 95.335 95.065 95.105 95.622 96.105 94.097 94.395 96.095 97.762 97.912 98.435 96.447 95.587 98.16 98.347 96.582 93.997 94.337 93.992 93.345 93.877 93.847 93.512 94.305 94.362 94.255 93.245 93.25 93.327 93.492 95.357 97.415 96.945 93.842 93.422 94.267 93.98 94.095 93.37 93.462 93.547 93.675 95.192 96.41 95.82 94.855 94.217 94.165 94.027 93.935 93.915 93.937 94.007 94.095 94.985 94.922 94.627 96.995 97.705 97.01 95.01 94.8 93.75 92.96 92.662 92.807 93.345 93.327 93.31 93.642 95.642 95.38 94.3 94.09 94.085 93.965 93.922 94.56 94.012 93.912 93.842 93.662 93.425 93.275 93.045 92.82 92.595 92.355 92.112 91.875 91.622 91.452 91.277 91.07 90.735 90.565 90.437 90.472 90.562 90.732 91.68 91.68 93.432 93.922 93.427 93.587 94.337 94.455 94.065 94.297 93.875 93.93 94.175 94.38 94.445 94.702 95.407 95.895 96.72 96.365 96.192 96.235 95.48 94.952 94.955 95.14 94.345 93.862 94.687 93.597 92.905 92.232
108.487 108.305 110.942 113.53 115.912 115.552 114.255 109.202 107.932 108.23 108.81 108.38 109.11 107.827 107.745 107.695 108.14 107.7 107.317 107.282 107.237 107.16 107.13 107.105 107.017 107.015 107.075 107.017 106.927 106.92 109.01 112.975 114.415 114.71 113.42 107.907 106.74 106.55 106.452 106.407 106.837 107.142 106.535 106.472 105.965 105.617 106.34 106.697 106.297 105.137 105.055 105.2 106.507 106.635 107.157 106.19 108.545 111.515 110.507 109.5 107.322 106.2 104.542 104.482 104.792 104.297 103.902 104.122 104.24 104.472 103.422 103.137 103.107 103.125 103.122 103.167 103.18 103.175 103.185 103.175 103.135 103.06 103.122 103.165 103.307 103.57 103.97 103.937 104.082 104.205 104.135 103.865 103.405 103.05 102.68 102.312 101.922 101.802 101.692 101.575 101.585 101.505 101.385 101.36 101.362 101.31 101.257 101.692 102.042 101.032 100.905 101.482 100.785 100.922 102.812 101.955 103.49 103.81 101.992 100.605 100.825 101.307 101.065 101.04 101.987 102.35 101.692 101.625 101.65 105.502 103.007 101.44 101.447 101.402 101.44 101.585 101.752 101.967 102.147 102.342 103.022 105.505 108.545 109.435 108.337 105.392 103.522 102.832 103.172 103.047 102.617 102.607 102.675 103.43 104.83 103.675 102.995 103.072 103.36 105.14 105.742 105.3 110.375 111.1 109.362 109.155 108.647 109.102 109.715 106.88 103.345 103.832 104.27 103.827 104.387 103.33 103.13 103.187 103.75 104.897 102.55 102.42 102.247 102.19 103.862 108.177 109.392 110.585 109.982 108.35 102.602 101.925 101.53 101.3 101.102 100.98 100.75 100.752 100.52 100.357 100.542 100.27 100.237 100.197 100.162 100.197 100.04 100.015 100.037 100.11 100.052 100.2 100.47 101.79 103.377 102.897 103.16 104.885 107.097 107.537 107.38 106.317 105.762 105.48 103.475 102.96 103.405 103.045 102.785 102.385 101.97 101.19 100.482 99.645 98.93 98.472 98.312 98.727 99.275 99.962 100.455 100.695 100.415 99.647 98.995 98.84 99.182 99.637 99.497 98.855 98.09 97.477 97.507 98.25 97.84 97.977 98.07 97.89 97.797 97.672 97.547 97.385 97.17 97.28 96.775 96.442 96.325 96.12 96.15 96.127 96.932 96.607 95.67 95.115 95.035 94.935 94.852 94.78 94.67 95.247 94.185 99.31 99.695 99.842 99.965 100.075 98.022 93.57 95.235 95.472 94.282 93.157 93.14 93.257 93.075 93.105 93.142 93.152 94.19 93.095 93.105 93.025 93.067 93.195 93.407 96.335 96.67 96.462 93.507 93.23 93.337 93.057 93.275 93.107 93.222 93.335 93.5 93.842 94.035 94.077 94.1 94.515 94.69 93.835 93.76 93.775 93.802 93.865 93.872 94.435 93.99 93.922 95.802 95.175 94.005 95.36 94.182 96.29 96.342 93.655 92.715 92.835 92.957 93.065 93.097 93.912 95.737 93.852 93.727 93.632 93.652 93.452 93.357 93.327 93.375 93.275 93.177 93.02 92.845 92.652 92.502 92.302 92 91.675 91.492 91.31 91.257 91.127 90.92 90.752 90.66 90.57 90.597 90.56 90.587 90.817 90.957 91.747 93.787 93.407 93.935 93.535 93.83 93.945 93.967 93.692 93.395 93.497 93.65 93.787 93.967 95.24 95.79 96.122 95.235 95.875 94.807 95.225 95.077 94.832 94.627 93.67 94.507 93.892 92.805 92.63 92.44
108.517 108.277 110.125 110.69 111.085 112.26 112.535 108.367 107.902 107.877 107.822 107.922 108.262 108.162 107.87 107.657 107.87 108.932 107.635 107.175 107.157 107.197 107.11 107.052 106.98 106.992 107.812 107.38 106.875 107.177 112.52 113.917 114.772 113.84 110.245 107.085 106.585 106.467 106.38 106.265 106.322 106.322 106.59 106.572 105.427 105.282 105.36 106.262 106.58 106.757 105.28 105.112 105.39 107.8 106.795 105.23 106.175 108.455 108.58 105.355 104.697 104.505 104.447 104.415 104.355 104.422 104.397 103.617 103.427 103.547 103.282 103.082 103.112 103.172 103.15 103.2 103.18 103.207 103.182 103.15 103.105 103.107 103.18 103.517 104.35 104.065 103.667 103.397 103.157 102.97 102.975 102.897 102.79 102.94 103.24 103.55 103.097 101.937 101.652 101.572 101.532 101.447 101.345 101.302 101.352 101.282 101.195 101.13 101.887 102.09 101.257 100.92 101.41 101.167 101.337 103.857 105.722 104.987 103.967 101.592 100.817 100.935 100.992 101.037 101.152 102.11 101.95 102.847 102.34 104.575 102.625 101.415 101.39 101.385 101.402 101.72 101.8 101.947 102.137 102.262 105.902 109.285 110.385 110.342 109.085 105.52 104.342 102.85 102.605 102.522 102.497 102.56 102.682 103.535 105.43 103.742 102.947 103.1 103.902 106.347 105.512 104.675 110.437 110.917 108.61 106.892 105.335 105.3 106.365 105.49 103.312 104.777 105.617 104.977 105.56 104.672 103.957 104.747 104.705 104.63 103.855 102.252 102.42 102.322 105.7 108.862 110.235 110.507 109.26 105.805 102.005 101.695 101.26 101.045 100.872 100.685 100.562 100.527 100.352 100.33 100.192 100.13 100.085 100.05 100.147 100.247 99.912 99.912 99.947 99.947 99.945 100.102 100.387 101.205 101.78 102.317 103.11 103.442 104.802 105.917 106.112 105.995 105.537 105.207 103.75 102.947 103.95 102.727 102.375 102.102 101.742 100.92 100.077 99.265 98.54 98.832 98 98.207 98.63 99.415 99.76 100.065 99.845 99.36 98.937 98.79 99.135 99.352 98.995 98.482 99.167 97.287 97.542 97.795 97.92 98.672 99.015 97.442 97.455 97.397 97.175 96.997 96.767 96.825 96.745 96.117 96.025 96.03 95.992 96.065 96.53 96.61 95.127 94.895 94.867 94.745 94.82 94.505 94.552 94.402 94.5 100.14 100.602 100.587 100.57 100.557 98.975 93.397 94.665 94.905 94.765 93.287 93.42 93.652 92.85 92.845 92.845 92.842 93.455 92.882 92.847 92.795 92.875 93.085 93.325 93.772 94.38 94.047 93.175 92.96 92.782 92.71 92.725 92.845 93.01 93.222 93.665 93.805 93.882 93.947 93.75 94.19 93.642 93.59 93.645 93.635 93.665 93.712 94.4 94.48 93.782 93.372 92.777 92.675 96.08 98.625 99.505 100.01 98.747 93.8 92.597 92.72 92.82 92.872 92.832 92.94 94.255 93.427 93.315 93.252 93.19 93.085 92.952 92.887 92.98 92.837 92.692 92.605 92.457 92.14 91.9 91.687 91.43 91.17 90.825 90.487 90.442 90.307 90.145 89.975 90.095 90.31 90.487 90.487 90.492 90.475 90.532 91.09 91.22 91.597 92.895 92.735 93.155 93.622 93.7 94.307 93.257 92.887 93.005 93.147 93.265 93.972 94.607 94.807 94.397 94.452 94.512 94.417 94.292 95.04 94.065 93.46 93.455 92.867 92.352 91.847 91.347
108.19 108.19 108.062 108.217 110.047 110.707 109.475 108.207 107.922 107.827 107.775 107.722 107.702 107.945 108.192 108.052 107.64 111.82 109.155 107.102 107.112 107.067 107.057 107.112 107.37 107.007 107.175 107.362 107.287 107.517 110.972 114.727 114.227 112.035 107.617 106.952 106.73 106.815 106.305 106.177 106.165 106.692 107.915 108.015 105.36 105.31 105.27 105.482 106.002 106.477 106.8 105.267 105.727 108.192 110.217 108.07 105.362 106.007 105.552 104.835 104.582 104.507 104.385 104.297 104.482 104.61 103.995 103.56 103.327 103.215 103.13 103.132 103.165 103.167 103.172 103.185 103.175 103.232 103.245 103.145 103.117 103.175 103.805 104.135 103.562 103.35 103.3 103.232 103.11 102.925 102.89 102.712 102.632 102.545 102.442 102.387 102.62 103.12 101.937 101.53 101.445 101.452 101.295 101.245 101.22 101.362 101.165 101.08 101.185 101.685 100.762 100.712 101.017 100.827 101.27 104.38 105.46 105.665 104.71 103.445 101.057 100.947 100.985 101.032 101.097 101.58 102.892 102.417 102.165 102.705 102.335 101.39 101.307 101.31 101.312 101.532 101.827 101.94 102.1 102.182 104.217 108.862 110.182 110.967 109.735 107.9 105.585 104.042 102.365 102.4 102.43 102.437 102.852 103.84 103.662 105.002 103.527 103.125 104.395 106.012 103.95 104.342 108.012 109.195 107.8 105.997 103.71 103.2 103.6 104.097 103.372 103.635 105.437 104.757 105.327 105.772 105.835 104.397 103.737 104.702 104.372 103.015 105.692 106.43 108.315 109.592 110.865 109.857 108.465 103.582 101.65 101.282 101.025 100.805 100.642 100.487 100.402 100.345 100.287 100.22 100.142 100.07 99.975 99.88 99.832 99.89 99.852 99.837 99.877 99.837 99.84 99.952 100.275 100.887 101.33 101.825 101.585 102.657 103.195 103.672 104.375 104.892 104.077 103.057 102.982 103.03 103.125 102.625 102.495 101.885 102.337 100.67 99.835 98.89 98.23 98.015 97.782 97.892 98.195 98.68 98.922 99.077 99.105 98.862 98.722 98.867 99.182 99.202 98.69 98.04 97.54 97.35 97.66 97.425 97.985 98.127 97.742 97.327 97.092 96.905 96.74 96.52 96.482 96.262 96.455 96.012 95.917 95.675 95.52 95.42 95.45 96.295 95.165 94.672 94.797 94.44 94.342 94.12 93.652 93.817 94.7 98.907 99.9 99.737 99.582 100.02 98.587 93.665 95.862 96.5 95.722 93.237 93.205 93.07 92.57 92.572 92.582 92.56 92.56 92.542 92.562 92.575 92.622 92.792 92.89 92.92 92.95 92.895 92.802 92.657 92.462 92.415 92.445 92.912 93.192 93.277 93.422 93.422 93.34 93.347 93.37 93.352 93.392 93.477 93.537 93.55 93.537 93.545 93.62 93.595 93.302 93.087 92.865 92.662 95.14 98.672 99.26 100.117 98.977 94.98 92.492 92.607 92.69 92.685 92.592 92.442 93.48 93.352 92.987 92.927 92.875 92.86 92.677 92.6 92.565 92.36 92.215 92.11 91.96 91.632 91.33 90.997 90.745 90.607 90.325 90.022 89.927 89.842 89.287 89.265 89.182 89.312 89.617 89.96 90.19 90.162 90.127 90.71 90.317 91.075 92.055 92.17 92.78 92.265 92.485 92.852 93.455 92.495 92.455 92.505 92.642 92.712 93.785 94.062 94.432 93.865 94.052 93.815 93.485 93.43 92.88 92.82 92.837 91.92 91.887 92.145 90.68
108.192 107.97 107.902 107.977 107.945 108.852 108.42 108.585 108.752 108.032 107.717 107.66 107.56 107.507 107.577 107.917 108.012 108.265 107.575 107.022 107.025 107.017 106.992 107.825 107.562 107.022 106.822 106.657 107.065 107.592 109.107 109.96 110.942 108.427 106.635 106.457 106.585 107.265 106.515 106.235 106.805 106.432 108.617 108.767 108.497 106.157 105.56 105.237 105.102 105.12 105.36 106.797 105.955 109.18 111.495 111.95 110.462 105.052 104.805 105.012 104.56 104.452 104.37 104.252 104.465 104.407 103.66 103.455 103.262 103.13 103.155 103.167 103.877 103.552 103.36 103.207 103.197 103.212 103.185 103.122 103.162 103.542 103.992 103.575 103.46 103.41 103.482 103.175 102.975 102.71 102.612 102.657 102.607 103.23 102.445 102.3 102.212 102.105 102.707 101.84 101.35 101.37 101.375 101.222 101.147 101.18 101.087 100.982 100.932 100.9 101.015 100.77 100.625 100.955 101.3 103.28 104.687 105.705 105.512 104.475 103.417 100.742 100.957 101.01 101.097 102.41 101.947 101.807 101.807 101.805 101.832 101.355 101.245 101.247 101.23 101.322 101.812 101.872 102.045 102.125 102.437 106.68 109.532 110.997 110.38 109.055 106.4 105.157 102.535 102.37 102.417 102.577 102.532 102.397 102.717 103.69 104.582 104.24 103.285 103.537 103.392 103.427 103.487 103.277 103.335 104.27 103.657 103.095 103.102 103.397 103.677 103.482 104.14 103.835 105.737 105.712 104.232 102.73 103.762 104.695 104.37 102.037 103.502 106.812 109.017 110.31 110.292 109.092 104.812 101.602 101.667 101.305 100.927 100.705 100.497 100.35 100.237 100.287 100.402 100.147 100.097 99.987 99.907 99.8 99.73 99.677 99.692 99.745 99.79 99.702 99.75 99.882 100.232 100.917 101.312 101.582 101.385 102.255 103.425 103.46 103.037 103.372 104.312 103.87 104.12 104.01 103.48 102.75 102.357 101.592 100.987 100.332 99.517 98.565 97.902 98.08 97.577 97.73 98.067 98.327 98.395 98.452 98.582 98.485 98.697 98.982 99.182 99.08 98.57 97.802 97.26 97.28 97.297 97.495 97.662 97.555 97.347 97.145 96.767 96.575 96.607 96.85 97.672 97.325 95.932 95.72 95.63 95.402 96.162 97.167 96.872 95.895 96.32 94.432 94.222 93.717 93.39 94.805 96.617 94.88 94.767 97.28 97.5 95.695 95.102 95.015 93.717 93.227 95.79 96.237 95.827 93.285 92.515 92.367 92.34 92.32 92.295 92.285 92.27 92.28 92.322 92.287 92.347 92.477 92.62 92.695 92.655 92.575 92.5 92.277 92.13 92.15 92.192 92.31 92.552 92.612 92.72 92.802 92.9 93.02 93.087 93.202 93.28 93.372 93.41 93.427 93.407 93.385 93.335 93.36 93.3 93.112 92.895 92.662 93.122 97.072 99.037 100.165 99.207 96.147 92.56 92.542 92.56 92.505 92.372 92.177 92.437 92.902 92.567 93.23 92.577 92.83 92.665 92.595 92.227 91.78 91.58 91.45 91.305 91.142 90.865 90.572 90.295 90.095 89.895 89.59 89.642 89.17 88.715 88.655 88.625 88.62 88.86 89.185 89.515 89.592 89.567 89.87 90.04 90.307 91.037 92.205 92.31 92.057 92.167 91.845 92.947 92.435 92.06 92.032 92.09 92.21 93.465 93.12 93.802 92.982 93.29 93.235 93.41 93.247 92.535 92.605 92.005 91.275 91.412 90.78 89.57
108.055 107.875 107.882 107.885 107.732 107.687 107.645 107.925 108.155 107.907 107.675 107.592 107.495 107.462 107.4 107.317 107.36 107.22 107.03 106.92 106.967 106.96 106.985 107.327 107.205 106.99 107.102 107.25 108.672 108.877 107.39 108.057 108.332 106.732 106.475 106.417 106.37 106.475 106.537 106.437 106.325 106.492 106.495 107.46 106.812 107.205 106.28 105.272 104.857 104.83 104.82 104.862 107.937 111.157 112.267 113.072 112.015 110.052 105.535 104.4 104.705 104.432 104.332 104.38 104.65 103.715 103.51 103.335 103.175 103.135 103.185 103.475 104.112 103.472 103.375 103.242 103.185 103.185 103.125 103.127 103.512 103.952 103.552 103.515 103.47 103.332 103.235 103.032 102.657 102.422 102.277 102.38 102.435 102.425 102.372 102.242 102.165 102.112 102.085 101.89 101.372 101.29 101.247 101.165 101.077 100.992 100.92 100.922 100.975 100.895 101.275 101.205 100.997 100.43 100.4 101.812 103.367 104.942 105.82 105.057 102.087 100.707 100.87 101.205 102.265 103.555 101.682 101.697 101.76 101.787 102.992 101.355 101.22 101.192 101.155 101.207 101.537 101.822 101.982 102.065 102.49 104.812 108.802 110.17 110.867 109.705 107.86 105.777 103.7 102.365 102.72 102.51 102.272 102.297 102.48 103.517 104.687 105.485 104.515 103.672 103.43 103.425 103.707 103.172 103.125 103.922 103.22 103.072 103.03 103.075 103.357 103.38 103.07 103.32 103.73 104.527 103.562 102.487 102.247 103.44 104.34 102 101.967 102.122 105.55 109.755 109.627 107.902 102.922 101.485 101.435 101.237 100.882 100.64 100.432 100.235 100.212 100.392 100.32 100.115 100.035 99.91 99.807 99.702 99.652 99.605 99.592 99.627 99.62 99.63 99.7 99.805 100.14 101.792 103.35 102.257 102.402 104.052 104.835 104.975 104.867 103.577 102.452 102.102 102.227 102.73 102.782 102.052 101.63 101.075 100.467 99.905 99.322 98.382 97.695 97.597 97.54 97.64 97.872 98.05 98.15 98.16 98.26 98.33 98.355 98.592 98.982 99.02 98.512 97.632 97.365 97.312 97.212 97.825 98.162 97.427 97.412 96.777 96.422 96.165 96.522 98.112 98.215 97.96 95.67 95.25 94.652 96.402 97.28 98.472 98.397 97.585 95.29 93.677 93.745 95.895 98.36 99.352 99.86 98.512 94.322 96.35 96.845 95.55 93.487 92.95 92.865 92.852 93.455 93.582 93.86 92.642 92.26 92.205 92.145 92.105 92.09 92.065 92.057 92.04 92.05 92.055 92.075 92.382 92.275 92.33 92.32 92.215 92.082 91.995 91.97 92.002 92.092 92.192 92.337 92.437 92.545 92.665 92.805 92.877 92.982 93.11 93.2 93.342 93.34 93.325 93.275 93.222 93.197 93.192 93.212 93.062 92.882 92.715 92.845 96.667 98.875 100.07 99.43 96.322 92.462 92.465 92.452 92.352 92.15 91.86 91.782 93.662 92.322 91.827 91.895 91.887 92.082 91.912 91.637 91.162 90.965 90.875 90.692 90.547 90.39 90.27 89.995 89.78 89.512 89.37 89.047 88.987 88.39 88.36 88.305 88.34 88.467 88.637 88.862 88.982 89.042 89.105 89.07 89.39 89.765 90.01 90.602 91.237 91.76 91.767 92.512 92.245 91.855 91.67 91.625 91.925 93.06 92.455 93.265 92.182 92.665 92.54 92.027 92.307 91.55 90.855 90.617 90.967 89.987 89.852 88.972
107.885 107.835 107.852 107.827 108.937 107.705 107.755 110.04 109.805 107.817 107.765 107.557 107.467 107.382 107.285 107.217 107.12 107.092 106.885 106.86 106.93 106.907 106.965 107.37 107.597 106.997 106.882 111.125 112.997 111.54 108.76 107.315 107.75 106.627 106.46 106.38 106.36 106.35 106.872 106.68 106.16 105.6 105.707 105.427 105.632 106.112 106.682 107.63 105.64 105.035 106.787 107.107 110.832 111.987 113.1 112.502 111.335 107.282 105.165 104.382 104.255 104.147 104.525 104.952 103.76 103.595 103.357 103.195 103.132 103.182 103.195 103.255 103.46 103.41 103.227 103.207 103.18 103.122 103.132 103.192 104.152 103.545 103.392 103.487 103.3 103.257 103.12 102.675 102.317 103.02 104.057 103.017 102.24 102.335 102.31 102.222 102.1 102.05 101.985 101.862 102.265 101.247 101.155 101.157 101.075 100.897 100.842 101.077 101.312 100.952 100.852 101.392 100.935 100.382 100.33 100.265 102.132 103.997 104.565 101.702 100.662 100.985 101.542 102.787 103.612 102.94 101.382 101.62 101.7 102.1 102.557 101.865 101.18 101.157 101.12 101.075 101.135 101.767 102.792 103.182 102.332 102.9 107.767 109.522 110.572 110.33 109.047 106.437 104.215 102.417 102.472 102.235 102.24 102.322 103.135 103.282 103.15 104.417 105.005 104.29 103.692 103.285 103.135 103.432 103.16 103.397 104.15 104.77 103.375 103.207 103.117 103.045 104.415 103.24 102.475 102.325 103.155 102.047 101.887 102.755 103.652 102.185 102.115 101.835 101.812 102.637 106.942 103.602 101.502 101.265 101.115 100.867 100.87 100.927 100.42 100.15 100.377 100.4 100.087 100.035 100.002 99.875 99.787 99.71 99.667 99.502 99.425 99.532 99.545 99.565 99.56 99.707 99.985 105.365 107.44 101.957 102.037 104.877 106.475 106.48 105.937 103.11 101.9 101.717 101.705 101.735 102.245 101.667 101.072 100.61 100.255 99.62 98.79 97.86 97.51 97.732 97.762 97.777 97.92 97.927 97.93 98.017 98.11 98.47 98.547 98.647 98.7 98.912 98.055 97.515 97.567 97.352 97.11 97.477 97.637 97.31 97.015 96.917 95.997 95.702 95.997 98.045 98.207 98.552 96.835 95.18 94.61 96.58 99.132 99.985 100.507 100.092 95.44 94.65 96.847 99.582 100.157 100.662 100.892 100.477 94.69 95.19 96.835 96.33 93.722 92.762 92.635 92.615 92.587 92.372 92.247 92.195 92.112 92.057 92.06 92.05 92 91.982 91.945 91.945 91.95 91.89 91.865 91.897 91.972 92 91.952 91.882 91.865 91.86 91.887 91.972 92.052 92.15 92.27 92.392 92.495 92.587 92.72 92.85 92.975 93.07 93.237 93.355 93.36 93.272 93.142 93.077 93.022 93.042 93.112 92.992 93.912 93.372 92.932 95.977 97.82 98.742 97.237 95.477 93.01 92.425 92.342 92.225 91.96 91.625 91.89 91.63 92.695 91.352 91.297 90.877 91.11 91.332 90.992 90.58 90.502 90.387 90.197 90.065 89.9 89.837 89.66 89.465 89.182 88.892 88.642 88.405 88.317 88.247 88.2 88.08 88.197 88.262 88.402 88.487 88.605 88.635 88.597 88.64 88.807 88.965 89.282 89.61 90.017 91.062 92.047 91.305 91.75 91.347 91.34 91.457 92.122 92.682 93.01 91.415 91.555 91.212 91.055 90.995 91.605 90.982 89.537 88.98 88.885 88.305 87.945
107.99 107.815 107.815 108.14 110.002 110 111.462 112.727 111.785 110.177 108.865 107.717 107.477 107.362 107.265 107.295 107.115 107.097 106.835 106.83 106.987 106.987 107.005 107.195 107.18 106.937 110.425 113.085 114.385 114.137 110.497 107.447 107.145 107.632 106.842 106.357 106.312 106.412 107.142 106.777 106.065 105.402 105.315 105.355 105.42 105.61 106.99 107.61 107.842 107.42 107.992 109.427 111.637 112.8 112.912 111.712 109.287 105.09 104.512 104.392 104.262 104.015 103.905 103.85 103.625 103.437 103.265 103.165 103.145 103.22 103.45 103.312 103.41 103.252 103.195 103.212 103.212 103.127 103.175 104.032 103.71 103.36 103.37 103.292 103.24 103.22 102.975 102.427 105.752 109.177 110.565 105.427 102.177 102.245 102.23 102.197 102.112 102.01 101.917 101.84 102.195 101.302 101.072 101.052 101.03 100.96 100.885 100.97 100.99 100.972 100.835 100.765 101.382 100.57 100.312 100.185 100.155 101.202 101.675 100.652 101.202 101.742 100.957 101.442 103.092 100.497 100.947 101.612 101.747 102.13 101.61 102.075 101.212 101.082 101.077 101.002 101.032 101.437 103.077 102.492 102.085 102.122 104.677 108.797 109.787 110.162 108.475 105.815 102.62 103.145 102.162 102.225 102.202 102.482 103.56 102.412 102.93 104.045 105.032 103.502 103.502 103.327 103.24 103.7 103.955 103.502 103.795 104.225 103.562 104.34 103.96 103.86 103.967 102.19 102.157 102.135 102.205 102.722 101.975 103.495 106.602 104.227 102.477 101.787 101.707 101.637 101.502 101.485 101.392 101.05 100.9 100.752 100.605 100.527 100.585 100.882 100.297 100.04 100.03 99.972 99.882 99.757 99.697 99.602 99.62 99.495 99.385 99.42 99.442 99.437 99.45 99.595 99.807 103.107 104.857 101.91 102.385 105.295 106.89 107.197 105.88 102.72 101.872 101.687 101.63 101.622 102.157 101.525 100.72 100.112 99.66 99.057 98.2 97.507 97.465 97.86 98.05 98.015 98.065 97.967 97.877 97.927 97.875 98.125 98.365 98.465 98.595 98.55 97.775 97.177 97.19 96.877 97.015 97.132 97.197 97.155 97.075 96.91 96.252 97.597 98.297 98.825 99.23 99.587 98.702 95.182 96.692 100.335 100.745 101.095 101.222 101.075 96.745 95.587 97.765 99.852 100.91 100.625 100.172 99.855 95.51 95.297 96.532 96.265 94.412 92.632 92.425 92.32 92.227 92.137 92.077 92.08 92.08 92.027 92.022 92.01 91.97 91.95 91.912 91.88 91.845 91.792 91.762 91.777 91.785 91.73 91.725 91.752 91.74 91.767 91.837 91.945 92.06 92.215 92.282 92.382 92.53 92.602 92.715 92.855 92.972 93.087 93.2 93.28 93.3 93.21 93.047 92.902 92.89 93.015 92.975 92.885 92.92 92.697 92.54 93.795 96.017 97.4 94.407 93.727 93.067 92.37 92.227 92.042 92.017 91.587 91.112 90.847 92.062 92.197 91.957 91.112 90.607 90.592 90.462 90.107 90.052 89.987 89.81 89.755 89.512 89.45 89.322 89.165 88.905 88.672 88.535 88.385 88.325 88.302 88.247 88.222 88.2 88.217 88.182 88.2 88.2 88.242 88.292 88.335 88.407 88.445 88.47 88.615 89.247 89.232 89.425 90.327 91.05 89.822 89.792 90.412 90.55 90.7 90.537 90.075 89.665 89.562 89.312 89.617 90.832 89.445 88.815 88.365 87.967 87.487 87.127
108.467 108.577 107.825 109.357 110.482 110.495 113.725 115.08 115.197 112.487 110.507 108.377 107.385 107.475 107.687 107.512 107.27 106.942 106.765 106.79 107.605 107.382 107.005 106.907 106.682 108.267 112.742 114.067 114.372 113.157 110.005 106.53 106.42 106.55 107.092 107.067 106.412 106.915 106.29 106.02 105.795 105.59 105.375 105.292 105.285 105.537 107.3 107.53 107.255 106.195 105.38 109.465 112.39 113.035 112.04 110.65 105.46 104.955 104.332 104.317 104.265 104.297 103.922 103.57 103.415 103.295 103.175 103.145 103.205 103.825 103.987 103.427 103.312 103.245 103.212 103.152 103.18 103.172 103.447 103.607 103.322 103.337 103.367 103.33 103.2 103.15 102.767 102.28 106.097 111.452 111.89 109.862 103.512 102.137 102.155 102.13 102.09 102.042 101.952 101.842 101.645 101.412 101.192 101.027 100.967 100.907 100.82 100.795 100.897 101.092 100.825 100.737 100.885 101.165 100.545 100.245 100.272 100.317 100.795 101.04 101.347 100.5 102.747 103.24 103.58 101.875 100.765 101.492 101.832 101.35 101.332 101.777 101.465 101.06 101.005 100.99 100.952 101.032 102.177 102.922 102.227 101.987 102.93 105.902 108.892 105.852 104.432 104.052 104.452 105.135 104.175 102.45 101.905 103.282 102.585 102.12 103.802 104.352 102.805 103.707 103.227 103.16 102.912 102.93 103.215 103.125 103.147 103.115 103.355 103.362 103.11 103.1 103.917 102.485 102.112 102.342 103.81 104.427 102.025 102.842 106.94 108.667 104.952 101.637 101.592 101.525 101.38 101.32 101.142 100.935 100.805 100.632 100.53 100.417 100.617 100.982 99.962 99.955 99.94 99.822 99.712 99.64 99.595 99.485 99.545 99.387 99.275 99.32 99.302 99.352 99.335 99.49 99.972 102.947 102.517 101.867 103.21 105.61 107.012 107.092 105.747 103.702 102.24 101.66 101.615 101.582 101.58 101.25 101.345 99.677 99.015 98.442 97.73 97.33 97.65 98.177 98.38 98.485 98.255 98.05 97.84 97.722 97.755 98.055 98.27 98.345 98.395 98.26 97.392 96.867 96.69 96.722 96.835 96.912 96.975 97.065 97.045 96.747 96.462 98.772 99.515 99.665 99.587 99.295 98.997 96.122 97.117 101.175 101.102 100.825 100.445 98.72 96.252 94.885 98.202 99.08 99.842 99.35 99.082 99.61 96.962 94.54 95.1 94.15 93.415 92.652 92.247 92.137 92.082 92.04 91.987 92.05 92.045 92.125 92.092 92.107 92.102 92.07 92.02 91.952 91.867 91.765 91.697 91.675 91.635 91.61 91.572 91.607 91.632 91.692 91.862 92.005 92.145 92.24 92.267 92.34 92.427 92.527 92.63 92.767 92.895 92.99 93.09 93.182 93.235 93.145 93.035 92.94 92.925 92.9 92.845 92.897 93.595 92.91 92.54 92.907 92.682 92.59 92.612 92.467 92.397 92.312 92.087 91.8 91.652 91.225 90.795 90.352 90.27 90.877 91.95 91.67 90.835 90.12 89.87 89.61 89.507 89.485 89.265 89.122 88.995 88.967 88.877 88.702 88.515 88.362 88.372 88.335 88.28 88.26 88.255 88.252 88.205 88.187 88.17 88.102 88.087 88.125 88.102 88.15 88.137 88.11 88.18 88.217 88.3 88.397 88.357 89.182 88.932 88.965 89.015 89.252 89.6 89.45 89.307 89.215 89.082 88.997 88.877 88.78 88.612 88.357 87.955 87.575 87.232 87.02 86.96
107.975 108.37 108.32 108.222 108.272 111.76 114.412 115.637 114.922 113.397 110.755 107.74 107.97 107.407 107.3 108.215 108.207 106.765 106.722 106.805 107.105 106.925 106.83 106.747 107.1 112.137 113.745 114.507 113.56 111.552 106.702 106.327 106.317 106.327 106.275 106.857 107.27 107.357 106.137 105.745 105.472 105.475 105.477 105.257 105.387 105.757 105.637 106.352 107.125 106.87 105.11 104.812 109.475 112.355 111.155 107.067 105.562 104.885 104.735 104.945 104.205 104.1 103.702 103.495 103.307 103.215 103.13 103.205 103.235 103.575 103.417 103.38 103.207 103.205 103.182 103.175 103.2 103.517 104.057 103.56 103.46 103.385 103.357 103.23 103.125 102.917 102.435 103.287 109.762 112.237 113.037 112.242 111.317 109.225 103.402 102.1 102.042 102.007 101.955 101.795 101.765 101.93 101.232 100.97 100.895 100.87 100.84 100.765 100.792 100.85 100.795 100.745 100.667 100.745 100.585 100.405 100.34 100.437 101.3 100.747 101.185 103.43 106.872 105.345 103.907 102.782 101.127 101.237 101.25 101.25 101.325 101.572 101.825 101.06 100.93 100.925 100.877 100.935 101.325 103.02 102.057 101.987 102.635 103.297 103.72 102.67 103.43 104.7 106.602 107.275 105.212 104.735 103.255 102.88 101.935 102.01 102.427 103.26 102.757 103.017 103.037 103.025 102.905 102.897 102.992 103.332 102.87 102.815 102.73 103.437 102.322 102.16 102.332 102.642 102.122 103.907 105.46 105.285 105.645 107.617 108.88 109.837 110.232 102.597 101.477 101.41 101.325 101.147 101.165 100.867 100.697 100.532 100.432 100.307 100.645 100.022 99.885 99.847 99.825 99.68 99.547 99.507 99.467 99.375 99.37 99.217 99.152 99.21 99.212 99.212 99.262 99.402 100.08 102.345 102.457 101.542 102.46 105.737 107.072 107.002 105.655 103.59 103.575 101.735 101.55 101.545 101.445 101.01 100.207 99.13 98.52 97.925 97.362 97.26 97.92 98.495 98.62 98.535 98.232 97.965 97.85 97.605 97.775 98.05 98.032 98.17 98.165 97.69 96.962 96.642 96.547 96.552 96.59 96.635 96.655 96.837 96.805 96.532 96.5 98.145 99.515 99.192 98.66 97.947 97.25 95.282 94.615 100.292 100.602 99.162 95.492 94.32 93.995 94.937 95.805 97.57 98.185 96.795 95.965 95.512 93.62 93.502 92.885 92.742 92.885 92.605 92.112 92.042 92.045 92.002 92.007 92.08 92.135 92.15 92.122 92.102 92.087 92.077 92.052 91.995 91.937 91.797 91.692 91.597 91.57 91.552 91.522 91.482 91.525 91.685 91.817 91.94 92.03 92.057 92.045 92.075 92.172 92.292 92.425 92.597 92.742 92.85 92.965 93.082 93.142 93.102 93.01 92.922 92.862 92.787 92.722 92.625 92.67 92.765 92.5 92.505 92.835 92.392 92.347 92.31 92.175 92.03 91.845 91.59 91.31 91.027 90.627 90.235 89.86 90.675 90.855 90.755 89.662 89.58 89.37 89.167 89.03 88.902 88.775 88.67 88.602 88.582 88.475 88.31 88.16 88.157 88.127 88.135 88.107 88.072 88.115 88.122 88.082 88.06 88.037 88.04 88.01 87.965 87.987 88.035 87.977 87.882 87.85 87.83 87.847 87.872 87.895 88.035 88.177 88.395 88.515 88.795 88.902 89.077 88.995 88.877 88.625 88.455 88.232 87.962 87.697 87.457 87.272 87.137 87.055 87.03 87.002
107.817 108.205 107.985 107.45 107.937 113.792 115.36 115.57 114.21 112.4 108.44 107.27 107.26 107.137 106.882 106.9 106.887 106.65 106.67 106.687 106.925 106.812 106.665 106.532 109.245 113.335 114.5 113.93 112.322 108.647 106.522 106.267 106.247 106.335 106.205 106.257 106.912 106.865 105.967 105.547 105.397 105.307 105.297 105.767 105.945 105.46 105.56 106.99 108.012 107.877 105.212 105.502 105.187 107.345 105.432 105.077 104.637 104.33 104.7 104.507 104.322 103.83 103.582 103.417 103.42 103.167 103.185 103.435 103.63 103.385 103.44 103.28 103.245 103.25 103.167 103.165 103.355 104.315 103.552 103.605 103.34 103.32 102.947 102.465 102.712 102.58 102.46 106.722 111.782 113.21 114.257 113.435 112.332 111.185 106.765 102.09 102.09 102.07 101.935 101.81 102.682 105.662 102.745 101.04 100.865 100.837 100.815 100.755 100.692 100.735 100.797 100.725 100.655 100.56 100.497 100.467 100.607 101.225 101.455 101.372 104.672 107.38 107.875 106.895 104.082 101.182 100.645 101.112 101.205 100.875 102.112 102.047 102.307 101.117 100.922 100.875 100.84 100.835 100.922 101.582 101.7 101.865 101.79 101.797 102.085 102.24 103.922 105.96 108.487 108.802 107.902 106.045 104.67 102.372 102.332 101.925 103.242 102.49 102.212 102.715 103.072 102.515 102.74 102.492 102.732 103.292 102.745 102.527 102.61 102.74 102.155 103.412 103.317 102.307 102.537 103.697 106.802 106.7 108.105 109.137 110.05 110.41 109.7 107.332 101.372 101.407 101.255 101.135 100.892 100.835 100.712 100.477 100.34 100.315 100.032 99.847 99.782 99.747 99.682 99.532 99.435 99.412 99.375 99.285 99.282 99.095 99.07 99.052 99.162 99.115 99.175 99.325 101.147 102.817 102.445 101.195 102.99 105.865 107.217 106.895 105.69 104.82 104.062 101.982 101.83 102.485 101.007 100.205 99.43 98.632 97.99 98.015 97.172 97.127 97.812 98.375 98.61 98.547 98.292 98.145 97.672 97.522 97.817 97.902 97.622 97.392 97.327 96.96 96.715 96.55 96.275 96.3 96.247 95.57 96.077 96.415 96.415 96.177 95.562 96.71 98.85 99.292 98.24 95.097 94.332 94.07 93.985 94.695 96.75 94.365 93.967 94.147 94.917 95.97 95.152 95.385 94.37 93.347 95.18 94.115 92.987 93.205 92.907 92.475 92.357 92.092 91.99 91.992 91.977 92.045 92.12 92.13 92.137 92.105 92.067 92.06 92.067 92.042 92.007 91.96 91.915 91.84 91.74 91.622 91.482 91.41 91.375 91.355 91.377 91.562 91.665 91.685 91.682 91.612 91.59 91.625 91.747 91.917 92.125 92.332 92.512 92.635 92.765 92.902 93 93.012 92.962 92.855 92.745 92.66 92.58 92.54 92.497 92.492 92.452 92.38 92.327 92.227 92.135 92.04 91.885 91.707 91.545 91.347 91.077 90.822 90.507 90.107 89.705 89.75 89.987 89.465 89.33 89.192 89.035 88.817 88.787 88.67 88.545 88.475 88.395 88.317 88.217 88.175 88.087 88.1 88.077 88.055 88.032 87.99 87.977 87.967 87.917 87.922 87.912 87.932 87.912 87.835 87.845 87.85 87.857 87.777 87.742 87.7 87.655 87.61 87.575 87.592 87.62 87.735 87.827 88.097 88.202 88.555 88.365 88.142 87.805 87.62 87.492 87.35 87.277 87.205 87.137 87.15 88.817 87.89 87.292
107.75 107.652 107.547 107.612 112.667 114.467 115.787 114.89 113.557 109.507 107.257 107.175 107.035 106.825 106.797 106.685 106.595 106.625 106.642 106.73 106.742 106.68 106.727 106.477 110.542 113.347 114.177 112.995 109.737 106.537 106.317 106.895 106.272 106.18 106.135 106.155 105.782 106.015 107.21 106.252 105.28 105.202 105.157 105.207 105.327 105.96 107.245 107.825 109.527 111.325 107.985 106.32 105.85 104.552 104.7 104.732 105.42 104.257 104.222 104.652 104.015 103.665 103.45 103.28 103.21 103.197 103.22 104.395 103.627 103.47 103.282 103.255 103.212 103.2 103.192 103.245 104.105 104.077 103.307 103.295 103.265 102.977 102.287 102 102.095 102.297 107.79 111.4 112.635 113.877 114.675 113.932 112.96 112.032 110.722 106.392 103.267 102.155 101.972 101.877 101.825 106 102.137 101.352 101.027 100.787 100.757 100.74 100.675 100.615 100.68 100.67 100.665 100.625 100.462 100.777 100.87 100.645 100.842 100.44 104.285 107.115 108.23 108.257 106.645 102.84 100.795 100.93 101.432 102.677 102.81 102.122 101.17 101.125 100.98 100.832 100.805 100.76 100.9 100.975 100.955 101.155 101.395 102.022 101.842 101.59 103.232 108 109.625 109.9 109.04 108.197 106.58 104.957 103.842 101.81 103.677 102.02 101.95 101.975 102.76 102.022 101.955 101.935 102.302 103.235 102.12 101.907 102.065 102.977 102.765 103.857 103.755 102.177 103.11 102.982 105.335 108.465 109.115 110.282 110.455 109.445 108.492 103.865 101.84 101.297 101.057 100.942 101.12 100.59 100.527 100.307 100.322 100.035 99.902 99.837 99.757 99.655 99.525 99.432 99.375 99.315 99.247 99.187 99.15 98.98 99.022 99.005 99.002 98.985 99.052 99.195 100.875 103.365 102.025 100.71 103.375 105.945 106.617 106.525 106.26 106.3 105.695 101.695 101.455 101.85 101.865 99.655 98.78 98.162 97.595 97.287 96.91 97.155 97.587 97.85 98.142 98.137 98.175 97.862 97.43 97.517 97.782 97.762 97.19 96.93 96.687 96.495 96.53 96.305 96.07 95.75 95.037 95.045 95.457 95.892 95.877 95.335 94.94 95.122 98.055 99.372 98.5 95.127 93.842 93.77 93.622 93.637 93.78 93.525 93.502 96.265 96.995 96.64 95.065 93.502 93.922 93.07 94.137 93.107 92.795 93.632 92.81 92.352 92.075 91.975 91.972 91.932 92.025 92.075 92.127 92.117 92.092 92.067 92.025 92.015 92.015 91.99 91.947 91.91 91.857 91.782 91.677 91.597 91.497 91.31 91.215 91.192 91.207 91.302 91.277 91.212 91.175 91.172 91.167 91.167 91.26 91.467 91.712 91.962 92.135 92.32 92.497 92.68 92.785 92.817 92.797 92.75 92.67 92.552 92.472 92.405 92.32 92.267 92.22 92.2 92.11 91.932 91.807 91.625 91.33 91.052 90.925 90.852 90.692 90.527 90.302 90.027 89.665 89.467 89.787 89.007 88.987 88.902 88.817 88.682 88.665 88.55 88.472 88.4 88.382 88.362 88.305 88.29 88.302 88.332 88.247 88.127 88.082 88.047 88.06 87.97 87.93 87.877 87.892 87.902 87.882 87.757 87.757 87.752 87.717 87.685 87.622 87.577 87.57 87.525 87.517 87.487 87.43 87.44 87.467 87.437 87.467 87.477 87.477 87.382 87.35 87.285 87.287 87.322 87.262 88.062 88.457 89.732 88.612 87.902 86.292
107.93 107.62 107.452 109.255 113.817 115.13 115.462 114.197 111.622 107.255 107.425 107.187 107.065 106.947 106.825 106.597 106.597 106.615 106.75 106.757 106.58 106.885 106.412 106.8 108.412 109.095 111.592 110.365 107.042 106.225 106.205 106.317 106.152 106.095 106.325 106.152 105.547 105.417 105.852 107.025 106.427 106.105 105.067 105.027 104.955 105.317 105.442 108.595 111.302 112.45 111.992 109.75 106.677 104.557 105.225 105.29 104.272 104.092 104.602 104.53 103.717 103.512 103.35 103.202 103.205 103.225 103.237 103.7 103.497 103.352 103.245 103.257 103.205 103.147 103.222 103.732 104.407 103.322 103.422 103.365 103.05 102.39 102.105 102.09 102.417 105.462 111.2 112.155 112.267 113.082 113.96 114.615 114.32 113.417 112.47 111.552 111.082 107.112 102.005 101.595 101.672 102.44 101.527 101.657 101.495 100.842 100.697 100.68 100.657 100.62 100.555 100.645 100.702 100.617 100.41 100.39 100.432 100.477 100.385 100.412 101.662 106.007 107.797 108.407 107.405 106.08 102.73 102.35 102.87 102.642 100.837 100.962 100.967 100.847 101.207 100.825 100.752 100.742 100.732 100.702 100.785 101.022 101.187 101.525 101.43 101.537 105.147 108.082 108.945 109.93 110.73 109.327 108.425 107.21 103.655 102.37 103.185 102.545 102.607 102.162 102.27 102.49 102.467 102.63 102.415 102.22 102.142 102.015 102.595 103.385 102.57 103.792 105.612 104.325 102.832 102.22 102.85 109.125 110.267 110.092 109.19 108.327 104.635 101.775 101.797 100.81 101.327 101.227 100.607 100.475 100.25 100.085 100.117 99.91 99.872 99.787 99.632 99.507 99.4 99.317 99.245 99.17 99.082 99.022 98.91 98.852 98.895 98.925 98.86 98.862 98.895 99.007 99.695 100.585 99.987 99.932 100.91 104.265 102.89 103.44 105.062 105.56 105.43 101.48 101.237 101.502 101.61 99.235 98.315 97.702 97.315 96.987 96.7 97.01 97.477 97.57 97.59 97.652 97.77 97.532 97.37 97.55 97.602 97.552 97.047 96.752 96.605 96.6 96.475 95.935 95.665 95.17 95.435 95.637 95.02 95.015 95.09 95.05 94.855 94.875 97.037 96.612 95.982 94.67 93.565 93.57 93.452 93.99 93.845 93.465 93.92 95.26 96.965 96.632 95.87 94.93 93.68 92.867 92.755 92.64 92.54 92.915 92.257 92.077 91.975 91.927 91.937 91.975 92.09 92.025 92.052 92.042 92.045 92.007 91.982 91.95 91.942 91.937 91.89 91.83 91.787 91.68 91.585 91.515 91.475 91.292 91.087 91.095 91.052 91.077 91.062 91.112 91.162 91.245 91.235 91.172 91.12 91.132 91.32 91.555 91.785 91.975 92.195 92.405 92.525 92.592 92.605 92.56 92.465 92.362 92.295 92.24 92.155 92.025 91.942 91.87 91.562 91.295 91.14 90.96 90.567 90.32 90.207 90.107 90.045 90.045 90.01 89.897 89.672 89.317 89.38 89.012 88.975 89.085 89.047 88.767 88.745 88.69 88.862 88.735 88.765 88.747 88.39 88.28 88.042 87.77 87.972 87.852 87.535 87.715 87.72 87.917 87.877 87.877 87.882 87.92 87.872 87.88 87.81 87.78 87.69 87.722 87.57 87.477 87.527 87.542 87.487 87.532 87.452 87.345 87.35 87.415 87.41 87.325 87.29 87.352 88.04 87.242 87.132 90.767 87.832 88.792 95.532 91.44 86.39 86.772 85.51
109.335 108.097 107.48 110.525 113.7 115.545 114.83 113.512 109.562 107.15 107.627 107.56 107.09 106.875 106.522 106.497 106.517 106.597 106.732 106.695 106.285 106.09 106.135 107.84 106.845 107.837 108.357 107.135 106.32 106.17 106.187 106.057 106.07 106.4 106.127 105.617 105.525 105.56 105.435 105.897 107.395 107.32 106.365 105.19 105 105.602 106.407 110.882 112.212 113.127 112.355 110.995 108.037 104.57 105.332 104.59 104.075 103.927 104.162 103.78 103.582 103.385 103.257 103.227 103.24 103.58 103.677 103.46 103.432 103.307 103.267 103.222 103.185 103.23 103.545 104.685 103.77 103.51 103.5 103.1 102.472 102.092 102.81 107.637 108.997 105.607 111.127 112.11 111.035 111.68 112.637 113.545 114.427 114.445 113.777 112.835 111.857 110.492 102.21 101.672 102.045 101.577 101.72 101.68 101.85 101.272 100.772 100.652 100.647 100.655 100.542 100.547 100.58 100.522 100.422 100.377 100.5 100.66 100.362 100.347 100.9 103.39 106.565 107.567 107.655 106.567 104.197 102.902 102.605 102.465 101.527 100.837 100.757 100.725 101.417 101.26 100.735 100.725 100.66 100.62 100.69 100.81 100.86 101.037 101.32 101.557 101.982 104.93 107.665 108.702 109.525 110.152 109.587 108.68 106.5 102.735 102.347 104.017 105.122 103.21 103.762 104.97 104.802 105.09 104.315 103.215 104.66 105.122 105.715 105.792 104.73 105.432 107.537 108.192 107.462 102.377 102.457 104.817 109.237 108.94 107.675 103.935 102.187 101.56 100.727 100.635 100.64 100.895 100.59 100.242 100.242 99.99 99.832 99.807 99.725 99.612 99.475 99.362 99.295 99.222 99.127 99.015 98.895 98.81 98.765 98.78 98.797 98.837 98.82 98.782 98.792 98.905 99.205 99.58 99.63 99.847 99.935 100.055 100.197 101.122 103.76 103.827 103.862 101.11 101.01 101.29 100.322 98.95 97.88 97.47 97.247 96.89 96.735 96.897 97.387 97.42 97.427 97.44 97.422 97.367 97.432 97.345 97.292 97.255 96.907 96.752 96.525 96.452 96.452 95.76 95.1 96.69 99.312 99.52 95.125 95.03 95.515 95.627 94.795 94.452 93.75 96.287 96.65 96.375 93.55 93.467 93.385 93.482 93.975 93.497 93.722 93.702 95.287 94.125 93.735 94.957 92.765 92.607 92.49 92.657 92.615 92.307 92.102 92.027 91.93 91.915 91.912 91.927 92.14 92.055 91.995 91.947 91.925 91.92 91.925 92.002 91.877 91.865 91.797 91.745 91.702 91.592 91.512 91.44 91.492 91.267 91.02 90.97 90.947 91.032 91.215 91.78 92.247 91.54 91.942 91.687 91.405 91.162 91.095 91.265 91.672 91.705 91.917 92.122 92.26 92.345 92.355 92.33 92.22 92.115 92.015 91.93 91.81 91.682 91.632 91.377 90.815 90.425 90.222 90.067 89.88 90.04 89.592 89.6 89.572 89.642 89.775 89.812 89.715 89.525 89.462 89.702 89.04 88.95 88.852 88.812 88.777 88.722 88.62 88.577 88.557 88.387 88.265 88.097 87.807 87.305 87.07 86.997 86.945 87.042 87.09 87.222 88.255 87.207 87.405 87.775 87.317 87.32 87.39 87.447 87.512 88.542 87.602 88.082 88.772 87.337 87.175 87.457 87.27 87.142 86.94 87.195 90.617 91.9 86.817 86.817 87.442 86.79 86.81 91.982 89.69 86.355 90.59 88.477 88.755 86.182 85.697
109.042 108.942 108.065 110.18 111.39 112.815 112.947 112.057 107.19 107.102 107.035 106.932 107.12 106.597 106.457 106.48 106.51 106.7 106.617 106.362 106.115 107.547 111.83 110.552 108.257 107.207 106.72 106.66 106.165 106.335 106.2 105.96 106.087 106.417 105.737 105.575 105.552 106.47 106.122 106.432 107.365 107.422 107.357 106.805 106.125 107.847 110.222 111.927 113.39 113.022 111.51 108.722 104.932 104.467 104.727 104.277 104.212 103.887 103.722 103.602 103.43 103.29 103.2 103.23 103.247 103.99 103.695 103.46 103.295 103.292 103.287 103.165 103.227 103.295 104 103.762 103.1 103.445 103.135 102.407 102.097 102.092 105.422 111.2 112.352 111.457 110.83 110.617 106.955 107.275 111.227 112.15 113.122 114.052 113.98 112.755 111.792 110.875 110.037 104.337 101.65 101.655 101.93 101.452 101.655 101.147 100.9 100.665 100.617 100.58 100.545 100.477 100.442 100.442 100.442 100.417 100.4 100.46 100.625 100.367 100.405 100.362 103.835 106.77 105.762 101.062 100.397 102.21 102.527 102.665 101.967 100.525 100.572 100.625 100.855 101.105 100.712 100.65 100.642 100.602 100.56 100.587 100.677 100.935 101.175 101.692 101.612 101.66 102.062 107.315 108.392 109.267 110.037 109.852 107.645 102.88 102.192 106.202 108.325 107.687 108.21 108.11 107.785 107.832 106.905 104.15 107.455 108.395 108.507 108.61 108.862 109.067 109.325 109.6 108.757 104.817 101.757 102.185 104.415 105.42 101.427 101.707 101.577 101.767 100.677 100.615 100.525 100.527 101.332 100.152 99.935 99.82 99.755 99.72 99.64 99.565 99.432 99.357 99.24 99.19 99.077 98.932 98.83 98.755 98.682 98.682 98.722 98.787 98.737 98.705 98.687 98.715 98.662 98.815 99.227 99.415 99.377 99.4 99.257 100.165 100.897 100.712 100.535 102.407 101.632 100.007 99.305 98.605 97.492 97.212 97.017 96.692 96.5 96.822 97.325 97.272 97.22 97.172 97.267 97.175 97.24 96.972 96.835 96.752 96.687 96.452 96.197 96.197 95.76 95.917 97.76 101.935 102.275 101.165 97.977 95.892 97.992 97.922 95.432 94.347 94.012 95.892 97.382 97.052 94.972 93.445 93.312 93.142 93.05 93.025 93.05 93.215 92.97 92.98 92.922 93.175 92.69 92.397 92.295 92.335 92.125 92.045 92.06 92.025 91.992 92.177 92.107 91.94 91.94 92.05 91.887 91.862 91.987 92.377 92.377 92.405 92.057 92.017 91.912 91.84 91.757 91.64 91.46 91.39 91.685 91.295 90.942 90.935 91.177 91.197 92.405 91.277 91.247 91.247 91.245 91.222 91.257 91.252 91.122 91.112 91.26 91.44 91.587 91.787 91.985 92.07 92.08 92.052 91.95 91.82 91.702 91.385 91.16 91.197 91.292 91.09 90.477 90.197 89.71 89.645 89.645 89.637 89.837 89.955 89.87 89.78 89.852 89.81 89.775 89.715 89.707 90.83 89.735 89.082 88.902 88.85 88.802 88.73 88.675 88.587 88.542 88.465 88.132 86.815 87.055 88.775 87.22 86.595 86.482 86.255 86.322 86.04 86.217 86.42 86.53 86.895 86.237 86.29 86.425 87.315 87.31 86.565 86.7 87.597 88.735 86.7 86.745 88.992 87.347 86.505 86.027 87.527 91.76 96.235 89.612 85.755 85.547 85.462 86.012 89.902 89.4 85.745 90.475 86.07 85.875 85.705 85.727
107.835 108.567 108.772 109.58 108.785 109.922 110.755 109.86 107.18 107.055 106.94 106.78 106.655 106.44 106.432 106.46 106.555 106.752 106.66 106.425 106.82 111.9 113.187 113.65 111.37 106.992 105.827 106.69 106.21 106.062 105.99 105.885 106.055 105.8 105.705 105.555 105.542 106.43 105.435 105.047 106.38 107.322 107.515 106.01 105.127 108.215 111.425 112.607 112.945 111.815 109.117 105.005 104.332 104.28 104.152 104.09 103.945 103.787 103.58 103.42 103.485 103.235 103.222 103.25 103.28 103.417 103.5 103.34 103.272 103.245 103.185 103.187 103.282 103.682 104.065 103.175 102.712 102.617 102.265 102.232 103.545 105.727 110.805 111.975 113.065 112.975 110.312 106.282 102.467 102.505 106.38 109.237 111.702 112.647 112.985 112.355 112.547 111.935 111.157 110.397 107.962 103.172 101.617 101.577 101.767 101.185 101.152 100.74 100.612 100.592 100.55 100.475 100.427 100.435 100.535 100.527 100.442 100.387 101.03 100.807 100.195 100.205 100.445 102.227 100.642 100.97 103.555 102.962 104.13 102.932 101.52 100.375 100.445 100.782 101.502 102.452 101.39 100.66 100.567 100.547 100.515 100.487 100.542 101.317 101.182 101.35 101.435 101.592 102.127 102.412 105.127 108.152 109.007 109.81 105.952 102.797 102.84 106.675 109.562 109.767 110.067 109.562 109.48 109.382 108.53 106.952 109.182 109.992 110.307 110.117 110.605 110.275 110.277 110.262 109.652 105.652 101.672 102.187 101.785 101.185 101.2 101.062 101.815 103.452 101.127 100.535 100.557 100.4 100.317 100.067 99.8 99.745 99.772 99.715 99.6 99.475 99.38 99.242 99.137 99.08 98.952 98.87 98.775 98.677 98.58 98.592 98.642 98.617 98.645 98.627 98.66 98.677 98.925 98.787 98.942 98.755 99.12 101.977 100.942 99.812 98.837 98.475 100.695 101.252 100.652 99.027 98.435 97.912 97.377 97.057 96.867 96.57 96.47 96.862 97.15 97.045 96.93 96.89 96.837 96.935 96.797 96.562 96.435 96.642 97.585 96.445 96.79 96.89 95.795 96.985 100.27 101.94 102.745 102.01 100.885 98.767 98.43 98.495 96.972 94.242 93.975 95.022 96.75 95.955 94.935 93.362 93.222 93.037 92.915 92.85 93.407 93.415 92.85 92.772 92.68 92.707 92.665 92.227 92.13 92.095 92.065 92 92.015 92.057 92.027 92.075 92.25 92.015 91.93 91.9 91.9 92.06 92.062 92.197 92.21 92.082 91.862 91.847 91.807 91.917 91.805 91.85 91.562 91.422 91.34 91.132 91.045 91.412 91.482 91.332 91.222 91.21 92.11 91.887 91.197 91.37 91.272 91.27 91.297 91.155 91.105 91.212 91.352 91.515 91.662 91.762 91.787 91.74 91.68 91.562 91.35 90.965 90.512 90.785 91.032 91.062 90.702 90.305 90.06 90.12 90.087 90.115 90.222 90.142 90.035 89.98 89.972 89.917 89.88 89.82 89.87 90.1 89.692 89.312 89.05 88.902 88.795 88.747 88.697 88.66 88.617 88.555 88.197 86.775 86.612 87.957 89.29 87.582 86.632 86.702 86.685 86.51 86.297 86.082 86.022 86.485 86.152 86.977 85.807 89.03 89.415 86.077 86.432 85.43 87.007 85.817 85.85 87.487 86.08 85.55 86.105 89.857 93.772 94.83 86.16 86.46 85.81 85.825 86.002 86.69 87.202 86.145 86.23 86.107 86 85.765 85.915
107.482 107.682 107.35 108.217 107.365 108.5 108.707 108.275 108.262 106.957 106.807 106.972 106.44 106.392 106.415 106.462 106.502 106.442 106.222 106.57 109.62 112.84 113.887 113.337 111.737 107.142 105.852 106.007 106.35 106.325 106.722 106.525 106.305 105.54 105.522 105.602 105.63 105.282 105.02 104.99 104.885 106.085 107.1 106.87 105.39 104.715 108.98 110.86 112.105 110.952 106.525 104.512 104.302 104.267 104.11 104.147 104.072 103.652 103.457 103.312 103.2 103.222 103.265 103.29 103.315 103.482 103.42 103.245 103.24 103.252 103.217 103.242 103.367 104.155 102.837 103.117 102.642 103.252 102.69 104.36 108.422 110.165 111.582 112.712 113.207 112.162 110.735 104.857 102.152 102.015 101.92 101.922 109.532 111.255 111.885 111.32 111.95 112.595 112.322 111.542 110.78 107.725 104.862 102.802 101.84 101.535 101.017 101.115 100.67 100.572 100.537 100.51 100.412 100.39 100.475 100.517 100.485 100.37 100.4 100.447 100.24 100.237 100.895 100.67 101.262 103.727 105.032 105.812 106.632 105.062 99.952 100.685 101.52 101.395 102.325 103.822 103.415 101.1 100.59 100.49 100.505 100.45 100.462 100.595 101.24 101.247 101.407 101.76 101.547 101.497 101.81 103.285 107.555 108.737 103.272 101.885 102.307 107.06 109.74 110.17 110.562 110.27 110.332 110.33 109.845 106.905 110.165 110.307 110.207 109.82 109.857 109.362 109.122 108.882 108.592 108.11 102.867 101.672 101.41 101.087 101.09 100.985 101.08 101.752 100.685 100.477 100.525 100.065 99.985 99.882 99.835 99.807 99.775 99.675 99.587 99.465 99.36 99.24 99.132 99.072 98.982 98.872 98.69 98.552 98.462 98.517 98.592 98.537 98.545 98.572 98.67 98.71 98.72 98.357 98.32 98.722 101.747 103.447 104.657 103.145 100.197 98.852 99.72 99.832 100.215 98.35 97.95 97.417 96.992 96.925 96.775 96.447 96.405 96.725 96.81 96.697 96.587 96.542 96.555 97.075 96.3 96.76 98.057 99.535 98.425 96.685 96.39 95.615 95.175 95.545 98.992 101.19 102.19 102.68 101.707 100.517 98.765 97.95 95.242 94.115 93.902 93.935 94.21 93.747 94.142 93.21 93.017 92.88 92.782 92.692 92.94 92.845 92.65 92.512 92.432 92.327 92.262 92.135 92.097 92.05 92.015 92.017 92.037 92.062 92.042 92 92.027 92.067 92.057 91.915 91.882 91.927 91.882 91.887 91.87 91.855 91.815 91.777 91.727 91.612 91.532 91.495 91.52 91.45 91.227 91.197 91.077 91.177 91.792 91.545 91.41 93.062 94.487 93.867 91.52 91.777 92.287 91.415 91.295 91.267 91.182 91.112 91.187 91.282 91.385 91.475 91.49 91.475 91.47 91.385 91.242 90.935 90.762 91.35 91.03 91.117 91.02 90.745 90.672 90.655 90.592 90.475 90.42 90.615 90.65 90.187 90.145 90.087 90.045 91.18 91.345 90.66 89.8 89.497 89.205 88.972 88.872 88.817 88.75 88.68 88.632 88.562 88.382 87.83 87.725 87.32 87.177 87.042 87.032 87.022 87.022 87.037 87.012 86.987 86.982 86.94 86.902 86.86 86.785 86.752 87.317 86.745 86.615 86.645 86.53 86.45 86.46 86.475 86.45 86.382 86.4 86.387 91.442 87.44 86.37 86.327 86.342 86.355 86.297 86.295 86.25 86.207 86.207 86.102 86.51 85.945 86.927
106.982 106.835 106.797 106.732 107.187 109.21 107.677 107.39 107.627 107.395 107.307 106.795 106.317 106.297 106.355 106.475 106.42 106.252 106.152 109.487 112.477 113.765 113.665 112.37 109.047 105.812 105.827 105.845 105.825 106.185 107.092 105.992 105.61 105.51 105.41 105.142 105.135 105.06 104.992 104.947 104.685 104.64 107.057 107.19 106.957 105.015 104.537 106.127 110.557 108.107 104.42 104.16 104.13 104.23 104.767 104.562 103.787 103.607 103.427 103.242 103.21 103.262 103.295 103.32 103.45 103.425 103.31 103.27 103.297 103.24 103.22 103.33 104.197 103.015 102.795 103.02 102.507 104.842 108.89 109.117 109.8 111.237 112.36 113.195 112.535 109.805 106.647 102.28 102.207 101.97 101.882 101.87 102.447 105.542 110.54 109.705 110.767 111.545 112.342 112.587 111.965 111.175 110.275 108.187 105.717 101.837 101.415 101.097 100.927 100.612 100.505 100.51 100.46 100.432 100.332 100.477 100.495 100.4 100.295 100.47 100.317 100.26 100.555 100.255 99.962 102.177 106.12 107.387 107.755 106.645 102.912 100.582 100.055 100.56 103.762 103.567 103.385 103.55 101.062 100.49 100.447 100.417 100.372 100.355 100.572 100.822 101.565 101.295 101.162 100.83 101.062 102.165 103.19 107.207 102.577 101.195 103.047 107.397 108.59 108.692 108.8 108.875 108.99 109.03 109.157 107.047 109.307 109.035 108.74 108.43 107.545 106.847 106.115 105.757 104.687 102.915 101.545 101.432 100.972 100.73 100.925 100.95 101.047 100.777 100.78 100.52 100.017 99.97 99.902 99.885 99.872 99.8 99.695 99.64 99.59 99.452 99.282 99.147 99.09 99.015 98.94 98.835 98.64 98.562 98.407 98.425 98.45 98.477 98.487 98.455 98.612 98.617 98.462 98.227 98.372 98.395 101.385 103.605 104.677 103.08 100.22 98.19 98.19 98.215 98.907 98.072 97.58 97.09 96.795 96.802 96.515 96.24 96.202 96.375 96.407 96.345 96.382 96.325 96.175 96.405 97.405 98.712 100.467 100.207 98.82 97.412 95.37 95.237 95.145 95.09 96.7 99.372 101.365 102.447 102.527 101.445 99.762 95.285 93.997 94.78 95.662 95.882 93.562 93.96 94.247 93.257 92.855 92.777 92.677 92.59 92.522 92.552 92.405 92.37 92.262 92.157 92.135 92.09 92.042 92.03 92.07 92.115 92.105 92.08 92.06 92.247 92.235 92.32 92.23 91.94 91.877 91.84 91.815 91.787 91.78 91.772 91.76 91.72 91.672 91.585 91.502 91.417 91.367 91.252 91.415 91.29 91.112 91.082 91.117 91.145 91.832 94.232 95.122 94.812 93.56 91.875 92.72 91.512 91.29 91.305 91.265 91.215 91.142 91.2 91.242 91.302 91.322 91.317 91.307 91.292 91.232 91.172 91.107 91.07 91.167 91.175 91.135 90.982 90.882 90.795 90.667 90.642 90.582 90.792 91.38 90.537 90.51 90.495 90.987 92.985 93.875 92.462 89.99 89.652 89.425 89.265 88.965 88.892 88.805 88.797 88.757 88.592 88.54 88.397 88.305 87.83 87.307 87.11 87.077 87.032 87.05 87.072 87.052 87.04 87.052 87.027 86.947 87.01 86.947 86.882 86.885 86.76 86.742 86.762 86.712 86.65 86.567 86.575 86.555 86.5 86.477 86.442 86.395 88.247 86.32 86.257 86.185 86.202 86.192 86.187 86.152 86.132 86.145 86.117 86.157 85.95 86.292
107.455 106.84 106.71 107.115 112.442 113.37 111.187 108.825 106.882 106.937 106.915 106.34 106.252 106.275 106.375 106.467 106.262 106.127 107.795 112.09 113.387 113.93 112.777 110.862 106.305 105.855 105.845 105.832 105.795 105.992 106.29 105.762 105.605 105.502 105.387 104.912 104.782 104.857 105.175 104.862 104.702 106.12 108.062 110.075 109.517 104.592 104.485 104.53 106.417 104.825 104.227 104.11 104.022 103.96 104.752 104.085 103.675 103.497 103.342 103.235 103.265 103.292 103.315 103.345 103.442 103.28 103.312 103.235 103.227 103.232 103.327 103.715 103.625 102.847 102.475 102.377 102.282 106.185 109.875 110.995 111.737 112.032 113.095 112.89 111.745 107.365 103.865 102.26 103.62 102.17 101.915 101.907 101.905 102.072 102.15 103.037 107.697 110.4 111.167 111.95 112.567 112.25 110.982 109.63 107.257 102.797 101.75 101.3 101.317 100.787 100.527 100.517 100.477 100.44 100.362 100.342 100.37 100.372 100.325 100.215 100.205 100.312 100.295 100.057 99.942 100.695 106.092 107.32 108.23 107.652 106.215 102.352 101.607 101.01 101.65 100.61 100.537 103.815 103.767 100.69 100.425 100.35 100.352 100.305 100.252 100.295 101.185 100.69 100.507 100.475 100.607 101.637 101.242 102.465 101.887 101.092 101.967 102.272 103.802 105.122 105.017 105.972 104.79 105.447 106.88 103.337 105.115 105.465 105.145 102.97 102.085 101.727 101.827 101.585 101.365 101.815 101.262 101.38 100.877 100.495 100.512 101.03 101.43 100.872 100.402 99.95 99.897 99.892 99.907 99.902 99.897 99.807 99.735 99.542 101 101.682 98.997 98.932 98.91 98.855 98.827 98.735 98.552 98.555 98.335 98.36 98.365 98.35 98.345 98.375 98.517 98.557 98.7 98.445 98.342 98.187 101.545 104.067 104.575 103.362 99.567 98.202 98.172 98.207 98.54 97.617 97.255 96.767 96.53 96.535 96.457 96.115 96.107 96.177 96.142 96.132 96.222 96.232 96.032 96.272 99.182 99.885 99.457 98.717 99.297 98.755 96.29 95.095 95.037 95.012 95.037 97.595 100.91 101.787 102.582 100.227 95.977 96.437 97.362 97.812 97.8 96.425 93.862 93.727 93.075 92.9 92.717 92.632 92.552 92.467 92.412 92.365 92.307 92.235 92.217 92.137 92.082 92.1 92.07 92.162 92.157 92.15 92.127 92.527 92.64 92.72 92.545 92.055 92.03 91.955 91.885 91.797 91.755 91.717 91.67 91.695 91.692 91.682 91.632 91.555 91.462 91.365 91.287 91.207 91.455 91.132 91.115 91.12 91.105 91.13 91.175 92.93 94.575 95.235 94.54 92.72 93.925 93.635 91.44 91.295 91.315 91.33 91.245 91.255 91.235 91.23 91.232 91.245 91.237 91.247 91.25 91.342 91.57 92.317 92.175 92.09 91.2 91.06 90.965 90.865 90.797 90.795 90.75 91.232 91.605 90.862 90.785 90.77 90.717 92.047 93.247 91.745 90.177 89.832 89.812 89.572 89.075 88.925 88.81 88.82 88.642 88.577 88.535 88.847 88.292 87.885 87.377 87.11 87.015 86.992 86.937 86.897 86.882 86.885 86.87 86.83 86.772 86.725 86.7 86.65 86.612 86.52 86.507 86.452 86.447 86.48 86.415 86.372 86.347 86.36 86.397 86.315 86.257 86.18 86.137 86.1 86.112 86.11 86.145 86.16 86.14 86.157 86.195 86.23 86.205 86.152 86.605
108.74 107.217 106.815 108.7 113.907 114.857 113.645 110.322 107.557 106.877 106.305 106.197 106.215 106.26 106.367 106.387 106.155 106.607 109.477 112.022 114.025 113.107 111.705 109.322 107.61 106.092 105.822 105.802 105.787 105.875 106.982 105.897 105.63 106.165 106.395 105.025 104.762 104.78 104.72 104.71 105.01 104.615 109.532 111.302 111.755 110.147 106.412 104.342 104.805 105.21 104.41 104.07 103.967 104.105 104.18 103.712 103.542 103.387 103.235 103.272 103.267 103.295 103.32 103.36 103.325 103.275 103.297 103.215 103.235 103.277 103.397 103.225 102.717 102.58 102.387 102.242 102.59 107.925 110.727 111.867 112.99 112.807 113.177 112.127 110.955 105.695 102.135 102.072 102.072 102.147 101.95 101.947 101.932 101.925 101.847 101.747 101.802 104.71 109.247 110.817 111.59 111.38 111.045 111.09 103.695 101.507 101.72 101.57 101.607 101.182 100.69 100.505 100.477 100.425 100.397 100.292 100.23 100.217 100.225 100.215 100.297 100.415 100.205 100.095 100.025 100.012 103.04 105.267 107.725 108.377 107.29 105.97 104.132 102.38 100.975 99.987 100.387 100.862 104.147 103.032 100.442 100.332 100.267 100.245 100.162 100.177 100.185 100.23 100.48 100.435 100.395 100.527 101.382 102.04 101.11 100.75 101.36 101.367 101.375 101.8 101.882 101.53 102.065 101.59 101.315 101.225 101.25 101.29 101.365 101.27 101.237 101.32 101.245 101.13 100.922 101.27 100.967 102.085 101.832 100.365 100.11 100.737 100.305 100.092 99.897 99.845 99.87 99.91 99.907 99.932 99.88 99.857 102.9 104.557 104.897 105.8 101.785 99.22 99.542 98.685 98.662 98.585 98.42 98.435 98.36 98.242 98.252 98.247 98.24 98.305 98.435 98.482 99.457 98.977 99.505 99.627 101.797 103.765 104.7 102.922 100.997 99.665 103.007 106.2 99.612 97.135 96.755 96.415 96.322 96.302 96.145 95.992 96 96.07 95.995 95.987 96.062 96.915 96.625 96.977 97.922 97.342 96.19 97.395 98.975 98.327 95.66 94.942 94.9 94.86 94.835 96.42 100.477 101.162 98.925 97.592 97.78 97.647 96.22 95.58 94.052 93.53 93.317 92.872 92.77 92.715 92.61 92.532 92.505 92.4 92.335 92.292 92.25 92.21 92.182 92.12 92.147 92.165 92.177 92.227 92.262 92.297 92.397 92.61 92.647 92.205 92.072 92.045 92.02 91.94 91.862 91.795 91.737 91.682 91.627 91.847 91.615 91.612 91.572 91.517 91.365 91.275 91.22 92.575 91.632 91.135 91.132 91.135 91.347 91.132 91.162 91.16 93.735 94.852 95.145 94.46 94.882 95.415 93.7 91.342 91.43 91.355 91.34 91.337 91.347 91.467 91.452 91.375 92.41 92.855 92.987 93.602 93.262 93.095 92.975 92.895 92.247 91.247 90.982 90.99 91.037 91.042 91.472 92.025 92.342 92.207 90.842 90.832 90.8 91.492 92.077 90.645 90.27 89.98 90.01 89.832 89.232 89.12 89.007 88.972 88.767 88.625 88.567 88.43 88.252 87.862 87.412 87.172 87.057 87.012 86.912 86.897 86.852 86.867 86.87 86.822 86.752 86.692 86.705 86.572 86.617 86.527 86.477 86.417 86.37 86.36 86.352 86.352 86.335 86.377 86.415 86.292 86.252 86.185 86.107 86.13 86.16 86.145 86.205 86.217 86.235 86.267 86.31 86.345 86.382 86.417 87.555
107.105 107.892 108.3 112.81 114.762 114.555 113.207 110.37 106.587 106.457 106.185 106.15 106.19 106.465 106.282 106.855 106.41 106.345 107.82 109.445 112.387 111.885 107.737 108.127 107.9 106.142 105.927 106.037 106.097 106.277 105.81 105.827 105.42 106.067 107.012 105.905 104.87 104.79 104.705 104.667 104.835 107.735 110.987 112.157 112.692 111.742 109.497 104.525 104.182 104.222 104.622 104.537 104.097 104.065 103.755 103.605 103.435 103.287 103.27 103.322 103.855 103.542 104.05 103.372 103.302 103.317 103.282 103.235 103.277 103.352 103.267 102.742 102.6 102.412 102.31 104.545 107.085 109.06 111.482 112.675 112.982 111.907 108.84 108.297 106.61 102.087 102.35 102.555 102.027 102 101.995 101.98 101.935 101.925 101.835 101.795 101.872 101.697 103.395 109.29 110.36 108.967 109.725 107.072 102.182 101.427 101.405 101.86 101.452 101.325 100.895 100.575 100.477 100.39 100.422 100.327 100.247 100.187 100.16 100.215 100.257 100.255 100.685 100.322 100.105 99.99 100.375 104.827 106.677 107.775 108.12 107.105 105.75 103.407 101.96 100.662 100.207 99.922 101.022 101.935 101.197 100.345 100.252 100.16 100.182 100.127 100.037 100.052 100.08 100.352 100.207 100.167 100.327 101.602 100.435 102.74 105.51 101.535 101.062 101.342 101.925 101.147 101.112 101.452 101.61 101.32 101.315 101.147 100.765 100.99 100.98 101.19 101.027 101 100.822 100.355 100.272 100.777 100.807 100.127 99.922 99.877 99.875 99.832 99.85 99.86 99.822 99.83 99.882 99.882 100.11 102.275 104.787 106.82 106.345 104.82 101.437 102.235 101.805 98.577 98.485 98.41 98.31 98.335 98.235 98.122 98.222 98.222 98.147 98.22 98.335 98.312 99.667 97.77 97.74 98.23 101.745 103.39 103.715 103.25 99.885 99.262 105.19 111.482 103.732 96.72 96.325 96.202 96.31 96.132 96.025 96.35 95.965 95.942 95.892 95.885 95.857 96.225 95.922 95.732 95.597 95.535 95.62 96.122 97.33 95.93 94.912 94.795 94.912 94.77 94.565 95.062 96.687 96.27 94.917 95.535 96.272 94.612 94.192 93.197 93.102 92.957 92.922 92.772 92.665 92.615 92.527 92.487 92.442 92.382 92.327 92.267 92.275 92.3 92.245 92.295 92.36 92.317 92.337 92.575 92.605 92.19 92.14 92.185 92.175 92.135 92.062 92.037 92.022 91.927 91.85 91.8 91.68 92.017 92.162 92.32 91.895 91.545 91.552 92.07 91.357 93.012 94.205 94.525 92.407 91.212 91.782 94.127 93.312 91.182 91.157 91.172 91.407 94.28 95.105 95.207 95.51 95.135 94.382 92.375 91.512 91.47 91.697 91.845 91.857 92.992 93.117 92.182 92.665 93.165 92.18 91.64 91.78 91.627 91.6 91.632 92.46 92.215 91.097 91.165 91.235 91.237 96.48 97.427 94.837 92.15 91.11 91.195 90.877 90.827 91.272 90.78 90.397 90.105 89.737 89.31 89.15 89.165 89.095 88.967 88.78 88.582 88.495 88.272 88.175 87.745 87.395 87.192 87.08 87.057 86.977 86.932 86.93 86.942 86.94 86.917 86.835 86.765 86.745 86.632 86.54 86.545 86.5 86.47 86.432 86.425 86.357 86.352 86.375 86.445 86.44 86.355 86.257 86.215 86.207 86.225 86.202 86.222 86.29 86.347 86.365 86.427 86.43 86.502 86.515 86.587 86.957
106.897 108.922 110.63 113.462 114.752 113.925 112.095 107.195 106.432 106.375 106.107 106.155 106.197 106.657 106.21 106.257 106.542 105.875 106.57 107.652 108.825 107.185 105.922 106.147 105.962 105.717 105.92 106.93 107.195 105.317 105.07 105.24 105.815 105.577 106.072 107.025 106.682 105.335 104.84 106.58 107.42 110.705 112.01 113.217 112.21 110.992 106.237 104.107 104.067 104.077 104.025 104.48 103.922 103.737 103.617 103.477 103.332 103.272 103.297 103.612 104.187 103.955 103.762 103.307 103.297 103.29 103.212 103.28 103.4 103.847 102.86 102.567 102.45 102.352 103.872 107.51 109.16 108.507 112.137 113.132 112.3 110.6 106.835 104.337 102.21 102.055 102.082 102.235 101.967 101.997 102.025 102.022 101.987 101.925 101.915 102.602 102.367 102.3 101.782 102.107 103.725 104.795 108.115 102.69 101.505 101.555 101.955 101.515 101.335 101.205 101.055 100.822 100.532 100.46 100.43 100.492 100.32 100.22 100.155 100.18 100.177 100.212 100.305 100.447 100.205 101.005 101.602 101.41 105.245 106.867 108.262 108.232 106.675 105.472 103.33 102.88 101.657 99.975 101.167 102.972 102.36 101.032 100.745 100.177 100.09 100.077 100.002 99.96 99.935 99.937 99.937 99.902 100.12 100.947 99.967 105.497 106.5 102.045 101.005 105.585 104.237 101.045 100.965 100.822 100.975 100.77 100.46 100.81 100.427 100.76 100.77 100.852 100.852 100.677 100.587 100.132 99.925 99.892 99.892 99.847 99.782 99.797 99.825 99.827 99.825 99.835 99.845 99.915 99.935 100.78 99.632 103.495 103.257 101.642 99.195 97.86 97.822 97.86 98.612 98.935 98.357 98.26 98.227 98.282 98.147 98.125 98.127 98.14 98.07 98.152 98.247 98.652 99.337 97.772 97.745 98.245 101.595 103.41 103.65 103.28 97.66 97.642 100.327 105.847 98.53 96.257 96.12 96.2 96.335 96.35 96.012 95.98 96.182 96.035 95.835 95.742 95.737 95.702 95.63 95.562 95.49 95.42 95.342 95.547 95.84 94.887 94.785 94.64 94.72 94.597 94.37 94.322 94.48 94.392 94.567 94.112 93.552 93.392 93.187 93.097 93.01 92.907 92.825 92.712 92.64 92.577 92.545 92.497 92.46 92.46 92.467 92.437 92.527 92.717 92.815 92.685 92.547 92.412 92.265 93.262 93.575 92.74 92.23 92.1 92.105 92.105 92.085 92.03 91.982 91.927 91.865 91.842 91.8 91.76 92.647 91.987 92.422 92.432 94.48 96.455 93.795 93.25 94.712 95.052 94.042 94.032 97.162 97.202 92.992 91.445 91.147 92.62 93.692 94.72 95.372 95.412 94.865 93.895 92.402 91.617 91.73 91.552 91.757 92.1 92.52 92.022 94.53 94.41 93.842 93.092 93.15 91.685 91.65 91.667 91.657 91.635 91.975 91.74 91.33 91.345 91.392 91.742 97.347 98.105 98.03 95.55 92.11 91.957 92.112 91.692 91.797 90.955 90.622 90.26 89.805 89.345 89.145 89.14 89.082 88.925 88.727 88.442 88.337 88.18 87.955 87.675 87.407 87.275 87.15 87.1 87.057 87.007 87.032 87.09 87.097 87.112 86.997 86.875 86.965 86.772 86.802 86.687 86.68 86.55 86.527 86.545 86.492 86.477 86.465 86.512 86.492 86.42 86.362 86.325 86.327 86.36 86.375 86.355 86.432 86.505 86.545 86.562 86.607 86.687 86.742 86.847 87.047
