ncols 438
nrows 32
xllcorner    426052
yllcorner    540404
cellsize     2
NODATA_value -9999
84.527 84.644 84.763 84.91 85.06 85.206 85.329 85.439 85.559 85.691 85.8 85.948 86.037 86.158 86.298 86.438 86.594 86.697 86.846 86.999 87.127 87.242 87.352 87.497 87.607 87.757 87.88 88.005 88.13 88.282 88.39 88.49 88.622 88.727 88.85 88.95 89.057 89.192 89.302 89.422 89.54 89.655 89.725 89.827 90.027 90.195 90.345 90.545 90.71 90.842 91.02 91.402 92.887 93.732 92.272 92.007 92.237 92.415 92.545 92.617 92.802 93.045 93.28 93.532 93.76 93.74 93.842 94.1 93.957 94.105 94.15 94.187 94.555 95.065 95.855 94.477 94.09 94.167 94.015 94.28 95.025 95.297 95.23 95.04 95.07 95.007 95.032 95.022 95.075 95.012 94.977 94.975 94.97 95.062 95.045 95.027 94.997 94.987 94.975 95.027 95.007 94.965 95.02 95.04 95.105 95.147 95.207 95.27 95.322 95.392 95.487 95.597 95.65 95.68 95.732 95.767 95.807 95.855 95.912 95.942 95.942 95.952 96.007 96.03 96.125 96.135 96.162 96.19 96.227 96.225 96.255 96.255 96.225 96.172 96.157 96.232 96.28 96.305 96.34 96.367 96.21 96.062 95.955 96.08 96.105 96.12 96.197 96.402 96.802 96.572 96.392 96.452 96.472 96.535 96.52 96.617 96.992 98.032 96.76 97.777 99.052 101.437 99.795 96.632 98.19 96.427 96.102 95.625 95.285 95.17 95.095 95.085 95.04 94.987 94.877 94.732 94.59 94.497 94.427 94.38 94.42 94.382 94.342 94.415 94.35 94.302 94.32 94.26 94.235 94.382 94.427 94.467 95.527 102.785 106.027 103.232 102.835 104.005 104.99 106.567 101.902 95.977 93.955 94.042 94.095 94.04 97.365 100.277 107.752 99.5 94.302 95.485 101.185 100.437 101.38 99.457 99.355 94.495 94.01 94.012 94.045 94.037 94.012 94.055 94.04 94.052 94.082 93.972 94.012 94.022 93.92 94.012 93.935 93.795 93.835 93.77 93.812 93.932 93.832 93.877 93.982 93.912 93.987 94.045 93.992 94.022 93.937 93.957 93.93 93.832 93.892 93.807 93.755 93.787 93.615 93.617 93.497 93.372 93.387 93.237 93.122 93.14 92.98 92.952 92.975 92.835 92.78 92.792 92.625 92.532 92.597 92.487 92.402 92.455 92.31 92.172 92.302 92.215 92.047 92.082 91.925 91.707 91.687 91.582 91.357 91.405 91.342 91.212 91.285 91.302 91.252 91.377 91.355 91.297 91.45 91.387 91.437 91.42 91.327 91.43 91.365 91.385 91.27 91.227 91.237 91.112 91.075 90.962 90.835 90.72 90.47 90.262 89.852 89.387 88.982 88.41 87.797 87.21 86.715 86.395 86.345 86.335 86.395 86.49 86.735 87.127 87.622 87.735 87.792 88.052 88.572 89.09 89.64 90.08 90.557 90.85 91.077 91.157 91.095 90.98 91.24 92.48 90.825 90.462 89.335 88.657 88.905 89.01 89.1 89.655 92.167 89.35 89.487 89.567 89.6 89.732 89.835 89.905 90.147 90.457 90.77 90.962 91.112 91.135 91.125 91.167 91.282 91.422 91.545 91.717 92.062 92.575 93.05 93.847 93.752 93.632 93.717 93.899 94.022 94.159 94.357 94.494 94.657 94.794 94.897 94.952 94.957 94.887 94.847 94.859 94.869 94.837 94.802 95.334 95.997 95.692 97.504 96.297 94.757 94.912 95.997 97.152 97.027 96.842 94.494 94.227 94.177 94.149 94.097 94.597 95.039 94.072 93.932 93.847 93.774 93.659 93.592 93.632 93.634 93.697 93.714 94.134 94.377 94.247 93.044 92.807 92.722 92.634 92.729 93.179 92.609 92.069 91.917 91.819 91.704 91.579 91.467 91.357
84.41 84.523 84.675 84.816 84.974 85.093 85.2 85.333 85.444 85.576 85.693 85.81 85.904 86.041 86.213 86.333 86.453 86.573 86.731 86.87 86.99 87.105 87.22 87.37 87.48 87.58 87.722 87.872 87.977 88.077 88.21 88.332 88.452 88.545 88.645 88.77 88.892 88.98 89.095 89.23 89.332 89.417 89.485 89.697 89.892 90.077 90.24 90.405 90.542 90.67 91.155 92.562 92.705 91.552 91.947 92.07 92.237 92.375 92.477 92.68 92.927 93.16 93.42 93.555 93.822 93.78 93.832 93.87 93.857 93.905 94.012 94.037 94.132 94.327 94.717 95.077 94.91 94.7 95.285 95.035 95.167 95.11 95.04 95.04 95.005 95.03 95.025 94.98 95.022 95.027 95.022 95 95.002 95.022 94.962 94.965 94.94 95.012 94.892 94.895 94.925 94.95 94.995 95.065 95.1 95.152 95.222 95.282 95.352 95.415 95.482 95.59 95.637 95.677 95.717 95.77 95.797 95.845 95.865 95.865 95.9 95.97 96.037 96.1 96.115 96.147 96.142 96.165 96.182 96.217 96.225 96.207 96.222 96.182 96.185 96.252 96.3 96.412 96.34 96.465 96.17 96.01 95.947 96.045 96.087 96.065 96.212 96.37 96.752 96.595 96.372 96.392 96.522 96.565 96.515 96.62 98.855 101.692 98.617 99.967 100.402 100.035 97.492 96.422 95.775 95.607 95.722 96.597 95.355 95.16 95.032 94.937 94.877 94.855 94.835 94.755 94.662 94.59 94.522 94.392 94.367 94.307 94.227 94.287 94.265 94.192 94.207 94.135 94.047 94.137 94.197 94.195 94.642 99.617 100.527 103.747 103.63 96.82 96.865 98.82 94.945 96.26 98.915 94.167 94.11 96.877 96.932 99.865 100.66 98.107 99.372 93.952 102.025 96.967 97.355 98.545 93.782 93.837 93.877 93.85 93.905 93.917 93.86 93.917 93.905 93.882 93.882 93.817 93.81 93.84 93.76 93.782 93.78 93.65 93.695 98.23 96.495 95.112 95.452 93.715 94.167 94 93.94 93.885 93.925 93.865 93.847 93.872 93.892 93.787 93.785 93.767 93.655 93.692 93.567 93.475 93.425 93.29 93.29 93.192 93.045 93.057 92.955 92.827 92.885 92.79 92.65 92.695 92.565 92.425 92.48 92.437 92.297 92.31 92.255 92.075 92.132 92.125 91.91 91.875 91.822 91.587 91.487 91.435 91.232 91.152 91.187 91.04 91.035 91.155 91.1 91.185 91.257 91.182 91.315 91.357 91.287 91.317 91.252 91.335 91.31 91.277 91.207 91.102 91.167 91.042 91.012 90.955 90.745 90.657 90.445 90.192 89.832 89.302 88.93 88.362 87.685 87.125 86.63 86.335 86.27 86.282 86.342 86.425 86.585 86.887 87.292 87.455 87.557 87.875 88.355 88.872 89.407 89.927 90.41 90.775 91.002 90.98 90.912 90.875 90.927 90.617 90.057 90.212 89.462 88.705 88.96 88.927 90.05 90.055 89.245 89.335 89.43 89.417 89.527 89.667 89.745 90.037 90.442 90.812 91.09 91.327 91.437 91.492 91.452 91.37 91.412 91.49 91.615 91.687 91.9 92.205 92.707 93.19 93.764 93.954 93.767 93.904 94.019 94.249 94.399 94.552 94.752 94.857 94.924 94.872 94.849 94.812 94.822 94.837 94.837 94.867 95.499 94.832 95.364 97.487 98.949 98.547 96.602 96.142 97.799 97.229 97.107 94.574 94.277 94.227 94.179 94.127 95.529 96.179 94.847 94.104 95.074 95.042 93.774 93.654 93.594 93.564 93.574 93.634 93.697 93.622 95.469 97.322 95.859 92.944 92.719 92.617 92.872 93.089 92.299 92.152 92.099 91.864 91.722 91.584 91.479 91.347
84.256 84.408 84.595 84.723 84.831 84.973 85.102 85.206 85.352 85.464 85.569 85.659 85.812 85.96 86.091 86.219 86.33 86.472 86.624 86.712 86.825 86.952 87.1 87.235 87.322 87.457 87.59 87.71 87.812 87.912 88.045 88.147 88.25 88.355 88.492 88.597 88.71 88.807 88.93 89.035 89.117 89.185 89.352 89.562 89.76 89.922 90.09 90.227 90.417 91.565 92.88 91.997 91.65 91.71 91.982 92.07 92.167 92.29 92.512 92.785 93.035 93.34 93.462 93.437 93.595 93.545 93.647 93.695 93.782 93.87 93.925 94.007 94.102 94.257 94.315 94.447 95.077 95.56 95.155 94.832 94.945 94.937 94.985 94.95 94.957 94.932 94.99 94.995 94.985 95.037 95.097 95.087 95.037 94.97 95.027 94.98 94.882 94.9 94.892 94.855 94.917 94.93 95.002 95.032 95.067 95.15 95.235 95.302 95.365 95.395 95.482 95.555 95.617 95.657 95.692 95.742 95.782 95.797 95.822 95.835 95.882 95.947 96.017 96.072 96.112 96.14 96.14 96.13 96.147 96.195 96.205 96.197 96.22 96.175 96.225 96.295 96.372 96.405 96.37 96.532 96.177 95.982 95.935 95.967 96.017 96.112 96.172 96.292 96.767 96.505 96.357 96.475 96.46 96.557 96.467 96.607 96.75 98.215 97.042 98.365 98.285 96.367 95.527 95.257 95.087 95.115 95.772 97.152 95.807 96.837 95.585 95.05 94.912 94.747 94.647 94.605 94.52 94.495 94.452 94.342 94.307 94.29 94.235 94.207 94.195 94.155 94.147 94.067 93.99 94.007 94 93.955 97.285 101.527 100.437 107.325 102.732 100.095 100.125 94.857 96.18 102.57 100.427 94.225 97.03 98.522 102.907 105.572 100.63 101.785 97.185 105.272 99.86 100.672 99.077 94.347 93.56 93.64 93.717 93.702 93.77 93.777 93.74 93.765 93.78 93.732 93.76 93.712 93.657 93.677 93.615 93.575 93.597 93.51 93.51 98.892 103.587 102.5 98.972 96.07 95.125 94.16 93.752 94.092 95.07 96.115 93.845 93.747 93.802 93.747 93.635 93.687 93.57 93.565 93.517 93.362 93.352 93.212 93.16 93.13 92.96 92.942 92.892 92.735 92.75 92.725 92.562 92.56 92.465 92.307 92.322 92.357 92.19 92.152 92.172 91.99 91.91 91.967 91.797 91.67 91.672 91.467 91.29 91.24 91.055 90.897 90.952 90.885 90.822 90.945 90.977 91 91.127 91.087 91.132 91.225 91.16 91.22 91.155 91.165 91.212 91.137 91.145 91.017 91.075 91.02 90.917 90.852 90.675 90.622 90.452 90.21 89.872 89.31 88.877 88.305 87.592 87.047 86.542 86.262 86.222 86.222 86.277 86.352 86.44 86.712 87.085 87.312 87.39 87.707 88.12 88.645 89.187 89.742 90.257 90.712 90.855 90.805 90.755 90.782 90.675 90.565 92.007 89.522 88.597 89.06 88.875 88.932 89.095 89.105 89.19 89.267 89.295 89.365 89.507 89.587 89.877 90.327 90.755 91.067 91.335 91.495 91.68 91.792 91.797 91.695 91.6 91.597 91.697 91.785 91.927 92.087 92.362 92.827 93.317 94.144 94.014 93.907 94.054 94.244 94.414 94.612 94.732 94.814 94.827 94.797 94.799 94.814 94.804 94.794 94.784 95.472 95.122 94.892 95.184 97.774 97.562 98.169 98.599 97.872 97.592 96.292 94.869 94.349 94.249 94.217 94.159 94.109 94.912 94.744 94.382 95.024 95.902 94.309 93.842 93.664 93.584 93.534 93.489 93.627 95.887 98.889 101.057 100.304 95.254 93.319 92.869 92.662 92.577 92.517 92.324 92.182 92.669 92.054 91.892 91.612 91.484 91.367
84.178 84.334 84.476 84.586 84.725 84.859 84.982 85.105 85.243 85.341 85.432 85.573 85.744 85.858 85.958 86.08 86.235 86.377 86.475 86.577 86.717 86.847 86.972 87.077 87.202 87.32 87.435 87.537 87.647 87.772 87.877 87.977 88.08 88.192 88.302 88.417 88.532 88.625 88.71 88.795 88.87 89.045 89.227 89.417 89.602 89.737 89.92 90.095 90.542 91.417 91.66 90.975 91.5 91.702 91.865 92.005 92.082 92.35 92.622 93.6 95.345 93.247 93.315 93.375 93.427 93.47 93.55 93.6 93.662 93.765 93.87 93.995 94.105 94.177 94.202 94.262 94.47 94.692 94.757 94.757 94.865 94.845 94.902 94.972 94.97 94.902 94.982 94.955 94.947 95.037 95.075 95.067 95.04 95.047 95.005 95.032 94.937 94.9 94.88 94.85 94.917 94.967 94.992 95.027 95.06 95.142 95.205 95.262 95.33 95.387 95.44 95.512 95.577 95.63 95.67 95.727 95.772 95.782 95.767 95.802 95.86 95.942 96.012 96.032 96.07 96.095 96.16 96.205 96.142 96.13 96.135 96.155 96.185 96.182 96.235 96.27 96.427 96.475 96.462 96.547 96.12 95.93 95.935 95.967 96.02 96.07 96.162 96.32 96.757 96.492 96.342 96.382 96.4 96.527 96.452 96.572 96.67 96.83 96.322 95.715 95.672 95.717 95.672 95.377 95.145 95.125 95.042 94.957 94.962 95.36 97.737 97.467 95.135 94.882 94.68 94.552 94.44 94.382 94.317 94.252 94.177 94.122 94.09 94.102 94.137 94.155 94.12 94.11 94.027 93.952 93.897 93.865 95.865 100.935 103.402 105.535 103.535 104.247 98.31 94.552 97.487 100.095 95.115 93.52 96.145 97.045 101.842 102.17 99.96 102.327 99.34 102.422 102.235 101.77 99.66 96.535 93.332 93.397 93.492 93.5 93.525 93.607 93.562 93.562 93.632 93.602 93.62 93.582 93.495 93.527 93.51 93.392 93.477 93.387 94.92 103.225 101.482 99.61 101.1 97.517 95.265 98.882 95.177 98.025 99.805 101.457 104.415 99.175 93.7 93.682 93.515 93.562 93.485 93.407 93.43 93.287 93.252 93.142 93.002 93.03 92.902 92.802 92.812 92.655 92.575 92.612 92.485 92.392 92.395 92.21 92.14 92.207 92.117 91.992 92.032 91.9 91.722 91.747 91.68 91.49 91.49 91.36 91.107 91.027 90.887 90.687 90.71 90.705 90.602 90.717 90.84 90.807 90.947 90.975 90.967 91.095 91.052 91.065 91.077 90.997 91.097 91.015 91.027 90.932 90.925 90.987 90.842 90.79 90.61 90.572 90.432 90.152 89.822 89.315 88.825 88.25 87.55 86.965 86.465 86.227 86.187 86.19 86.235 86.3 86.332 86.547 86.882 87.15 87.22 87.53 87.922 88.457 89.002 89.527 90.117 90.54 90.577 90.51 90.422 90.485 89.955 89.42 89.482 88.52 88.887 88.75 88.797 88.977 88.932 89.045 89.14 89.115 89.232 89.35 89.45 89.785 90.242 91.115 91.212 91.53 91.48 91.615 91.745 91.882 91.947 92.005 92.002 91.835 91.787 91.917 92.012 92.12 92.285 92.53 92.967 93.497 94.139 94.174 94.067 94.249 94.474 94.657 94.717 94.752 94.724 94.717 94.744 94.752 94.757 94.739 95.742 95.057 94.787 95.037 94.567 94.682 94.787 95.502 97.974 98.739 97.464 94.949 94.452 94.374 94.299 94.202 94.682 95.414 94.139 94.939 95.922 96.257 94.962 94.024 95.394 93.754 93.627 93.732 93.502 94.272 98.659 100.879 99.847 95.502 95.062 95.059 93.934 93.352 92.579 92.409 92.289 92.272 92.289 92.292 92.282 91.597 91.469 91.404
84.089 84.207 84.338 84.458 84.609 84.74 84.857 84.991 85.113 85.212 85.371 85.506 85.63 85.752 85.868 85.99 86.109 86.2 86.312 86.472 86.597 86.72 86.847 86.965 87.065 87.157 87.257 87.385 87.517 87.62 87.722 87.832 87.922 88.045 88.142 88.255 88.335 88.407 88.49 88.585 88.707 88.9 89.095 89.29 89.447 89.575 89.775 90.965 91.102 90.975 90.955 91.302 91.58 91.652 91.75 91.85 92.06 92.527 92.765 95.005 95.697 93.235 93.205 93.175 93.287 93.347 93.415 93.532 93.63 93.742 93.82 93.927 94.032 94.135 94.192 94.23 94.355 94.575 94.775 94.737 94.772 94.787 94.862 94.96 94.897 94.915 94.94 94.932 94.942 95.055 95.082 95.09 95.087 95.13 95.052 95.072 95.012 95.03 94.982 94.917 94.962 94.955 95.03 95.045 95.095 95.12 95.17 95.217 95.287 95.347 95.385 95.465 95.532 95.607 95.647 95.682 95.732 95.75 95.742 95.79 95.845 95.94 95.995 96.022 96.062 96.08 96.095 96.125 96.152 96.14 96.172 96.145 96.157 96.212 96.21 96.247 96.26 96.275 96.395 96.31 96.067 95.92 95.937 95.937 96.015 96.027 96.125 96.652 96.682 96.467 96.272 96.352 96.415 96.48 96.395 96.535 96.672 96.487 95.92 95.61 95.7 95.7 95.692 95.445 95.322 95.287 95.13 95.027 94.985 95.587 97.462 97.712 95.122 94.575 94.535 94.472 94.37 94.325 94.285 94.227 94.155 94.055 93.975 93.925 93.925 93.99 94.065 94.092 94.06 93.942 93.902 94.205 95.377 96.442 95.517 101.222 99.477 102.877 101.54 93.91 95.57 95.467 95.85 97.025 94.797 103.155 101.76 102.717 100.045 96.315 96.577 98.92 101.572 99.86 98.692 96.95 94.595 93.165 93.262 93.28 93.262 93.332 93.34 93.312 93.382 93.37 93.412 93.435 93.35 93.3 93.38 93.63 93.92 97.742 100.67 101.905 101.052 99.655 101.925 95.24 101.187 99.322 97.037 98.442 101.762 104.197 100.345 105.885 95.79 94.06 93.632 93.415 93.407 93.267 93.327 93.195 93.092 93.05 92.885 92.907 92.84 92.672 92.67 92.577 92.457 92.472 92.372 92.24 92.272 92.142 92.007 92.037 92.02 91.857 91.865 91.812 91.6 91.547 91.552 91.35 91.257 91.217 90.94 90.775 90.697 90.475 90.412 90.48 90.415 90.43 90.622 90.615 90.755 90.85 90.78 90.915 90.922 90.885 90.95 90.842 90.93 90.907 90.897 90.867 90.775 90.845 90.732 90.702 90.55 90.437 90.372 90.117 89.83 89.302 88.76 88.165 87.527 86.885 86.377 86.135 86.145 86.155 86.165 86.282 86.267 86.497 86.787 87.027 87.067 87.335 87.765 88.295 88.885 89.105 89.615 90.055 90.025 89.947 91.942 89.455 89.077 89.035 88.332 88.537 88.67 88.702 88.917 88.847 88.95 89.042 89.112 89.08 89.162 89.307 89.647 90.562 90.885 90.767 90.997 91.25 91.445 91.645 91.722 91.932 92.285 92.677 92.455 92.195 92.035 92 92.062 92.207 92.297 92.437 92.664 93.112 93.632 94.302 94.189 94.294 94.532 94.684 94.687 94.634 94.644 94.649 94.699 95.097 95.014 94.689 95.027 94.914 94.774 94.669 94.539 94.624 94.607 94.567 94.584 97.342 98.887 97.517 95.339 94.447 94.329 94.577 96.247 94.814 94.037 95.052 96.657 96.164 95.534 93.812 93.802 93.979 94.367 96.694 93.637 93.472 93.372 94.359 93.232 93.139 94.419 96.457 96.789 96.369 94.437 92.632 92.309 92.254 92.269 93.012 92.557 91.672 91.632 91.362
83.958 84.117 84.231 84.36 84.491 84.601 84.728 84.877 85.002 85.139 85.268 85.381 85.507 85.623 85.744 85.857 85.987 86.107 86.225 86.35 86.477 86.605 86.685 86.78 86.902 87.012 87.145 87.252 87.355 87.467 87.555 87.632 87.775 87.887 87.97 88.042 88.127 88.177 88.272 88.445 88.612 88.812 88.947 89.1 89.257 89.477 89.9 91.43 90.507 90.402 91.157 91.305 91.525 91.617 91.717 91.86 92.175 92.512 92.767 92.87 92.852 92.907 93.002 93.105 93.19 93.235 93.352 93.5 93.635 93.73 93.822 93.94 94.042 94.12 94.175 94.17 94.212 94.327 94.565 94.722 94.7 94.822 94.867 94.88 94.895 94.885 94.91 94.96 94.962 95.007 95.007 95.057 95.04 95.05 95.085 95.042 95.05 95.052 95.037 94.947 94.962 94.947 94.945 94.955 95.072 95.12 95.142 95.17 95.202 95.287 95.34 95.427 95.497 95.567 95.62 95.65 95.675 95.68 95.71 95.77 95.87 95.902 95.952 96.005 96.03 96.055 96.062 96.09 96.117 96.122 96.162 96.202 96.165 96.235 96.182 96.252 96.245 96.237 96.282 96.22 96.07 95.897 95.912 95.945 96.007 96.022 96.225 96.415 96.577 96.417 96.267 96.297 96.402 96.397 96.385 96.52 96.76 96.505 95.677 95.58 95.682 95.705 95.672 95.4 95.332 95.32 95.057 95.002 96.495 96.385 94.907 94.902 94.917 94.7 94.592 94.49 94.362 94.255 94.167 94.147 94.077 94.027 94.002 93.955 93.885 93.817 93.817 93.862 93.88 93.817 93.77 97.945 98.762 97.705 95.527 97.625 102.89 101.292 101.105 102.127 95.895 93.322 96.417 98.582 95.915 99.63 103.632 102.302 101.252 101.905 96.76 98.98 99.855 98.427 94.67 92.902 92.985 92.992 93.047 93.042 93.017 93.032 93.025 93.012 93.082 93.142 93.132 93.192 93.215 93.097 99.912 99.277 99.147 103.517 96.967 96.772 101.042 97.055 94.515 97.837 104.912 104.097 100.36 105.412 98.905 102.73 101.597 97.547 96.502 93.522 93.372 93.242 93.242 93.142 93.165 93.115 92.96 92.972 92.81 92.747 92.74 92.555 92.53 92.487 92.327 92.325 92.297 92.15 92.117 92.077 91.917 91.842 91.91 91.715 91.675 91.687 91.49 91.34 91.365 91.19 91.04 91.01 90.777 90.542 90.47 90.262 90.115 90.19 90.162 90.162 90.335 90.435 90.515 90.657 90.605 90.685 90.767 90.71 90.795 90.702 90.705 90.777 90.73 90.762 90.642 90.725 90.667 90.587 90.51 90.322 90.325 90.057 89.795 89.287 88.717 88.185 87.457 86.822 86.317 86.127 86.087 86.122 86.165 86.255 86.215 86.487 86.76 86.935 86.975 87.17 87.602 87.982 88.362 87.96 88.21 88.635 88.897 89.477 89.845 90.207 88.395 88.78 88.5 88.55 88.542 88.78 88.762 88.83 88.907 89.007 89.042 94.632 89.207 89.44 90.275 90.755 90.677 90.89 91.117 91.315 91.49 91.632 91.732 91.842 91.92 92.125 92.71 92.5 92.365 92.257 92.187 92.252 92.395 92.497 92.587 92.789 93.212 93.772 94.624 94.564 94.544 94.619 94.607 94.587 94.612 94.647 95.277 95.717 94.924 94.514 94.932 95.717 95.432 94.782 94.534 94.617 94.609 94.569 94.557 95.184 99.112 99.429 97.772 95.327 94.397 94.297 94.672 94.099 94.862 96.507 94.979 96.617 96.774 95.754 95.039 95.584 97.212 96.209 93.664 93.444 93.392 93.304 93.209 93.107 93.399 94.399 97.087 97.292 96.267 93.319 92.337 92.294 92.112 92.357 91.797 92.172 91.852 91.557
83.865 83.984 84.102 84.228 84.361 84.486 84.632 84.769 84.905 85.029 85.146 85.265 85.389 85.501 85.621 85.735 85.857 86.002 86.095 86.222 86.362 86.457 86.515 86.637 86.792 86.902 86.99 87.102 87.22 87.292 87.382 87.475 87.612 87.705 87.77 87.865 87.93 88.027 88.157 88.327 88.517 88.702 88.817 88.952 89.16 89.517 90.602 90.442 90.147 90.8 91.11 91.215 91.35 91.445 91.622 91.917 92.217 92.59 92.577 92.567 92.65 92.805 92.935 92.95 93.085 93.215 93.327 93.425 93.567 93.685 93.792 93.882 94.012 94.102 94.14 94.13 94.122 94.15 94.34 94.577 94.687 94.777 94.852 94.87 94.892 94.92 94.905 94.952 94.975 94.955 94.997 95.045 95.077 95.072 95.13 95.06 95.097 95.082 95.102 95.042 94.972 94.937 94.967 95.012 95.032 95.077 95.102 95.132 95.185 95.255 95.305 95.362 95.44 95.487 95.545 95.592 95.61 95.635 95.68 95.762 95.865 95.897 95.95 95.985 96.02 96.037 96.055 96.07 96.082 96.08 96.085 96.157 96.135 96.157 96.162 96.192 96.19 96.24 96.36 96.187 96.047 95.877 95.897 95.95 95.952 96.022 96.147 96.342 96.577 96.462 96.275 96.257 96.347 96.375 96.365 96.51 96.62 96.182 95.5 95.637 95.705 95.71 95.67 95.367 95.355 95.27 95.067 94.962 95.64 95.745 96.272 95.9 94.83 94.815 94.717 94.63 94.502 94.39 94.247 94.137 94.05 93.985 93.945 93.892 93.887 93.865 93.81 93.767 93.71 93.615 93.565 94.645 96.532 97.137 97.717 98.037 100.68 99.065 106.88 99.39 101.52 98.79 97.915 97.812 99.825 102.715 99.43 100.175 96.292 100.422 96.84 99.11 96.282 92.99 92.712 92.76 92.83 92.882 92.887 92.87 92.86 92.837 92.797 92.73 92.797 92.85 92.865 92.897 92.942 92.91 99.542 98.07 95.115 98.992 104.562 99.495 97.08 99.97 105.46 103.727 103.027 102.647 104.77 102.537 105.45 104.427 98.885 95.697 93.245 93.197 93.155 93.105 93.115 93.06 92.977 92.917 92.827 92.795 92.735 92.607 92.615 92.467 92.38 92.392 92.25 92.14 92.175 92.05 91.915 91.905 92.442 92.73 93.577 92.48 91.46 91.495 91.377 91.127 91.15 91.037 90.802 90.762 90.595 90.32 90.19 90.025 89.817 89.852 89.9 89.88 90.037 90.225 90.267 90.425 90.47 90.435 90.587 90.555 90.587 90.58 90.507 90.585 90.55 90.615 90.5 90.552 90.565 90.465 90.397 90.21 90.22 89.99 89.732 89.275 88.645 88.1 87.37 86.77 86.257 86.08 86.075 86.097 86.115 86.21 86.162 86.442 86.717 86.822 86.805 86.962 87.457 88.002 87.137 86.712 88.135 90.07 87.722 88.68 88.46 89.732 88.077 88.79 88.395 88.497 88.595 88.677 88.7 88.805 88.877 92.02 92.365 93.22 94.06 91.325 90.432 90.577 90.76 90.985 91.197 91.382 91.512 91.597 91.745 91.842 91.93 92.007 92.147 92.597 92.702 92.55 92.467 92.412 92.452 92.562 92.634 92.769 92.997 93.489 94.447 95.267 94.937 94.512 94.509 94.537 94.572 95.547 94.967 94.429 94.232 94.192 94.154 94.207 95.179 95.127 94.497 94.582 94.609 94.564 94.617 97.454 99.174 99.144 99.527 98.077 95.942 94.519 94.249 94.957 96.257 95.579 96.629 96.904 96.987 96.954 99.257 96.414 94.074 93.464 93.367 93.417 93.412 93.299 93.209 93.119 93.004 92.922 95.424 95.887 95.659 93.522 93.134 93.457 92.102 92.129 91.862 92.689 91.652 91.734
83.728 83.878 83.97 84.106 84.235 84.384 84.521 84.644 84.76 84.891 85.018 85.119 85.248 85.378 85.52 85.632 85.742 85.85 85.952 86.09 86.197 86.282 86.397 86.542 86.635 86.727 86.867 86.965 87.07 87.147 87.245 87.357 87.432 87.505 87.602 87.662 87.742 87.862 88.005 88.212 88.392 88.525 88.637 88.825 89.407 89.957 90.64 89.985 91.285 91.282 91.04 91.187 91.22 91.32 91.71 92.152 92.272 92.325 92.315 92.437 92.562 92.705 92.715 92.855 93.035 93.157 93.26 93.362 93.53 93.655 93.772 93.857 93.955 94.08 94.12 94.105 94.087 94.1 94.212 94.562 94.752 94.712 94.767 94.737 94.82 94.895 94.927 95 94.985 94.96 94.982 95.057 95.142 95.105 95.145 95.092 95.105 95.097 95.082 95.017 94.992 94.98 94.997 95.01 94.992 95.062 95.087 95.112 95.152 95.182 95.217 95.302 95.39 95.435 95.48 95.5 95.545 95.62 95.682 95.76 95.817 95.882 95.935 95.97 96.017 96.01 96.047 96.045 96.08 96.087 96.155 96.487 96.235 96.092 96.145 96.19 96.222 96.282 96.425 96.805 96.015 95.87 95.917 95.9 95.922 95.932 96.145 96.34 96.492 96.33 96.267 96.275 96.37 96.39 96.342 96.465 96.55 96.822 95.485 95.697 95.707 95.71 95.642 95.395 95.355 95.247 95.07 94.99 94.985 94.912 94.932 94.797 94.737 94.76 94.692 94.67 94.595 94.547 94.46 94.362 94.27 94.132 94.052 93.947 93.85 93.767 93.772 93.74 93.647 93.67 93.58 93.565 94.352 94.427 93.505 93.212 93.26 101.055 102.19 103.517 101.05 96.25 98.692 99.18 102.495 99.07 96.217 92.682 92.852 94.465 94.702 94.217 93.422 92.357 92.38 92.442 92.605 92.682 92.722 92.72 92.747 92.735 92.677 92.627 92.567 92.565 92.55 92.632 92.717 92.722 92.877 95.587 92.667 93.24 93.362 96.777 101.072 102.445 95.185 107.2 105.735 102.952 100.37 103.28 105.157 103.175 98.027 93.342 93.035 92.992 93.007 92.98 92.967 92.94 92.82 92.802 92.71 92.635 92.61 92.477 92.417 92.335 92.235 92.19 92.117 91.982 92.002 91.91 92.615 92.905 94.475 97.07 103.307 97.67 96.855 95.932 95.472 91.052 90.852 90.835 90.602 90.472 90.35 90.072 89.887 89.78 89.537 89.48 89.582 89.577 89.7 89.932 89.992 90.127 90.245 90.21 90.34 90.327 90.33 90.407 90.282 90.392 90.395 90.417 90.402 90.357 90.417 90.352 90.3 90.087 90.057 89.902 89.647 89.235 88.86 88.6 87.375 86.74 86.185 86.06 86.04 86.03 86.075 86.122 86.172 86.442 86.69 86.68 86.605 86.587 86.742 87.922 86.292 86.305 86.612 87.157 87.215 91.595 89.957 88.445 89.25 88.51 88.375 88.612 88.6 88.652 88.7 88.737 88.792 94.722 96.46 95.262 97.742 95.26 91.27 90.597 90.822 91.087 91.287 91.412 91.547 91.675 91.762 91.857 91.942 92.005 92.162 92.34 92.737 92.955 92.905 92.722 92.595 92.635 92.747 92.789 93.087 93.142 93.514 94.047 95.267 94.852 94.424 94.572 95.329 94.899 94.224 94.064 93.989 93.957 93.967 93.982 93.999 94.102 94.677 94.677 94.539 94.504 94.992 98.634 98.199 97.297 98.872 99.639 98.339 96.179 95.117 98.129 98.079 96.394 96.872 97.032 96.754 95.599 93.792 93.714 93.544 93.464 93.384 93.397 93.342 93.277 93.222 93.114 93.029 92.912 92.834 93.607 94.432 95.139 96.424 94.927 92.447 92.002 91.924 91.854 91.574 91.752
83.584 83.74 83.859 83.98 84.123 84.265 84.369 84.518 84.638 84.774 84.886 84.999 85.12 85.254 85.39 85.487 85.625 85.747 85.815 85.925 86.045 86.147 86.282 86.387 86.487 86.625 86.715 86.807 86.912 86.997 87.112 87.185 87.267 87.335 87.42 87.495 87.58 87.71 87.905 88.097 88.24 88.34 88.482 89.007 89.805 89.835 89.437 90.265 90.492 90.672 90.862 90.93 91.06 91.28 92.937 92.952 93.01 92.097 92.207 92.295 92.36 92.482 92.655 92.765 92.91 93.055 93.187 93.312 93.447 93.555 93.695 93.817 93.912 93.992 94.08 94.075 94.02 94.055 94.092 94.27 94.69 94.772 94.75 94.737 94.815 94.882 94.94 94.972 94.98 94.995 95.007 95.037 95.07 95.112 95.077 95.032 95.067 95.065 95.085 95.062 95.02 94.91 94.93 94.99 94.932 95.035 95.065 95.095 95.122 95.147 95.175 95.242 95.322 95.37 95.395 95.427 95.502 95.582 95.635 95.722 95.792 95.845 95.907 95.96 95.98 95.995 96.025 96.022 96.037 96.055 96.107 96.5 96.277 96.082 96.087 96.13 96.202 96.355 96.407 96.122 95.98 95.825 95.925 95.855 95.927 95.972 96.12 96.517 96.455 96.312 96.222 96.322 96.277 96.377 96.325 96.465 96.502 96.045 95.687 95.707 95.707 95.717 95.622 95.35 95.377 95.25 95.085 94.987 95.017 94.972 94.905 94.86 94.737 94.805 94.73 94.702 94.577 94.542 94.457 94.402 94.352 94.272 94.262 94.165 94.065 93.912 93.765 93.647 93.565 93.597 93.555 93.667 94.615 95.447 94.782 93.747 93.475 96.692 100.105 99.127 96.33 94.302 93.84 93.087 93.075 93.09 92.977 92.822 92.707 92.595 92.485 92.405 92.297 92.29 92.225 92.212 92.24 92.305 92.35 92.402 92.495 92.527 92.49 92.45 92.437 93.997 95.49 101.395 94.105 92.885 92.472 93.26 94.19 100.602 97.895 93.592 100.022 97.68 94.845 105.567 102.622 104.725 102.472 104.365 104.935 99.562 95.007 92.862 92.877 92.842 92.877 92.845 92.787 92.81 92.695 92.667 92.585 92.495 92.437 92.32 92.225 92.162 92.04 91.987 91.955 93.105 94.037 93.56 96.007 98.25 98.487 100.9 102.915 102.285 102.612 101.772 101.215 98.075 93.74 90.57 90.407 90.172 90.07 89.822 89.59 89.485 89.28 89.117 89.225 89.26 89.327 89.592 89.7 89.785 89.955 89.95 90.025 90.105 90.07 90.165 90.1 90.157 90.227 90.23 90.28 90.18 90.3 90.24 90.2 90.007 89.877 89.787 89.532 89.162 88.552 88.045 87.37 86.642 86.162 86.027 85.997 86.01 86.045 86.052 86.167 86.375 86.615 86.577 86.412 86.26 86.37 86.18 86.132 86.245 86.295 86.82 87.882 87.057 87.517 88.095 88.627 88.347 88.515 88.472 88.455 88.617 88.6 88.632 88.707 88.892 95.15 99.35 97.145 95.582 92.88 90.677 90.882 91.107 91.255 91.377 91.55 91.652 91.76 91.872 91.947 92.052 92.235 92.447 92.662 92.997 93.4 93.172 92.94 92.757 92.789 92.872 92.924 93.012 93.149 93.564 94.257 95.714 94.987 95.444 94.742 94.139 93.934 93.879 93.894 93.937 93.977 93.994 93.974 93.982 93.999 94.352 94.899 94.494 94.499 94.479 95.252 94.892 96.562 98.624 100.054 98.622 97.819 103.154 102.729 99.119 97.117 96.814 95.939 93.944 93.737 93.619 93.547 93.499 93.459 93.404 93.327 93.242 93.167 93.067 92.974 92.887 92.822 92.739 92.857 95.899 96.302 94.119 95.374 92.422 91.829 91.692 91.667 91.492
83.46 83.582 83.73 83.87 83.987 84.097 84.25 84.408 84.528 84.666 84.767 84.87 85.039 85.132 85.255 85.372 85.507 85.59 85.66 85.792 85.925 86.03 86.115 86.267 86.37 86.472 86.565 86.66 86.765 86.86 86.937 87 87.132 87.192 87.25 87.312 87.417 87.612 87.815 87.962 88.057 88.23 89.045 89.682 89.842 89.56 89.835 90.197 90.262 90.465 90.672 90.77 91 92.03 95.495 93.45 92.295 91.875 92.012 92.115 92.245 92.387 92.515 92.66 92.825 92.977 93.095 93.242 93.385 93.515 93.637 93.747 93.837 93.885 93.997 94.05 94.007 93.98 94.05 94.1 94.487 94.81 94.745 94.79 94.837 94.845 94.885 94.94 94.995 94.992 95.03 95.052 95.105 95.125 95.122 95.092 95.087 95.062 95.055 95.032 95.017 94.995 94.957 95 94.93 94.977 95.007 95.055 95.11 95.145 95.122 95.187 95.247 95.32 95.347 95.405 95.465 95.557 95.58 95.672 95.732 95.812 95.857 95.895 95.925 95.942 95.982 96.005 96.012 96.01 96.01 96.07 96.065 96.057 96.057 96.09 96.162 96.275 96.485 96.062 95.897 95.787 95.912 95.84 95.965 95.93 96.077 96.477 96.472 96.22 96.207 96.195 96.292 96.337 96.307 96.415 96.492 95.937 95.915 95.73 95.707 95.737 95.61 95.37 95.4 95.235 95.112 95.02 95.045 95 94.935 94.875 94.76 94.817 94.73 94.765 94.625 94.622 94.512 94.462 94.36 94.32 94.302 94.272 94.242 94.165 94.032 93.805 93.622 93.487 93.427 93.347 94.527 95.635 94.545 96.08 94.95 94.235 93.662 93.595 93.615 93.962 93.615 93.925 93.507 93.687 93.137 92.97 92.84 92.672 92.587 92.42 92.332 92.252 92.182 92.257 92.21 92.105 92.015 91.972 91.967 92.065 92.11 92.17 92.232 95.092 100.892 104.85 95.012 95.582 92.742 95.9 101.142 98.72 96.937 92.642 96.402 92.545 106.41 101.14 102.475 97.657 98.425 96.895 97.237 93.937 93 92.702 92.757 92.712 92.712 92.722 92.607 92.612 92.555 92.507 92.46 92.342 92.225 92.162 92.037 91.997 91.897 91.79 91.762 95.235 96.85 97.487 95.15 101.652 94.42 96.255 95.34 98.042 104.797 103.197 98.107 103.772 103.162 94.892 90.127 89.895 89.77 89.575 89.295 89.15 88.982 88.79 88.797 88.88 88.935 89.207 89.367 89.44 89.622 89.662 89.7 89.815 89.787 89.87 89.9 89.885 89.997 89.995 90.085 90.02 90.122 90.1 90.08 89.925 89.757 89.655 89.402 89.06 88.487 87.962 87.345 86.495 86.115 85.99 85.975 85.967 86.007 86.015 86.192 86.362 86.52 86.472 86.327 86.125 86.097 86.07 86.157 86.227 86.27 86.44 87.467 88.065 87.862 89.137 88.327 88.432 88.352 88.425 88.525 88.537 88.555 88.597 88.782 89.675 93.28 90.28 91.507 90.217 90.465 90.677 90.852 91.09 91.255 91.435 91.565 91.685 91.795 91.902 92 92.16 92.382 92.612 92.842 93.012 93.37 93.467 93.342 93.09 92.889 93.687 92.944 93.019 93.074 93.249 93.579 94.107 94.637 94.309 93.987 93.877 93.867 93.864 93.932 94.022 94.124 94.127 94.054 93.994 93.934 93.954 94.392 94.899 94.464 94.432 94.397 94.384 94.442 96.082 98.422 99.562 96.834 101.217 102.762 100.759 97.807 96.212 94.192 93.729 93.634 93.594 93.544 93.509 93.439 93.387 93.437 93.234 93.134 93.007 92.922 92.802 92.704 92.637 92.764 93.452 93.704 94.207 92.759 94.472 93.989 92.247 91.549 91.404
83.333 83.478 83.613 83.741 83.835 83.966 84.127 84.255 84.378 84.493 84.648 84.777 84.875 85.032 85.155 85.245 85.335 85.422 85.555 85.69 85.777 85.88 86.01 86.115 86.225 86.295 86.397 86.525 86.615 86.72 86.782 86.892 86.967 86.982 87.05 87.132 87.287 87.517 87.69 87.815 87.937 88.23 89.112 89.515 88.86 89.635 89.827 89.922 90.08 90.257 90.442 90.665 92.38 92.957 94.385 92.077 91.635 91.76 91.832 91.977 92.105 92.21 92.397 92.562 92.73 92.872 93.035 93.177 93.33 93.452 93.56 93.677 93.745 93.805 93.915 93.97 93.967 93.937 93.975 94.037 94.207 94.715 94.752 94.745 94.767 94.85 94.91 94.942 94.997 95.002 94.972 95.04 95.042 95.095 95.145 95.127 95.147 95.115 95.132 95.042 95.027 95.022 95.027 94.975 95.007 94.957 95.005 95.047 95.107 95.13 95.092 95.135 95.19 95.242 95.287 95.362 95.45 95.52 95.565 95.617 95.697 95.755 95.805 95.84 95.857 95.912 95.952 95.965 95.985 96 96 96.015 95.995 96 96.017 96.092 96.135 96.285 96.382 96.035 95.89 95.795 95.88 95.777 95.917 95.942 96.127 96.437 96.367 96.187 96.157 96.215 96.302 96.29 96.272 96.402 96.512 96.857 95.64 95.715 95.707 95.75 95.585 95.395 95.435 95.245 95.152 95.06 95.075 95.005 94.972 94.912 94.787 94.84 94.765 94.765 94.657 94.67 94.585 94.57 94.437 94.412 94.392 94.34 94.285 94.185 94.107 93.952 93.772 93.645 93.572 93.49 93.662 93.56 93.527 94.315 94.147 93.527 94.32 95.045 93.84 93.387 93.385 93.457 93.215 93.572 93.275 93.24 92.96 92.75 92.682 92.445 92.292 92.192 92.11 92.167 92.155 92.047 91.992 91.905 91.795 91.72 91.672 91.68 91.807 98.382 101.75 97.817 100.472 104.472 98.015 95.092 98.287 102.177 94.887 99.29 104.65 100.56 105.192 100.52 96.435 93.34 92.497 92.465 93.85 92.497 92.517 92.527 92.567 92.545 92.545 92.562 92.475 92.44 92.402 92.315 92.285 92.212 92.05 92.02 91.895 91.822 91.752 91.62 94.37 97.282 102.797 103.737 102.017 99.445 101.017 102.265 105.417 96.062 101.06 104.825 101.587 99.037 100.442 98.965 92.525 89.59 89.43 89.285 88.98 88.78 88.677 88.44 88.4 88.512 88.555 88.747 88.98 89.075 89.277 89.33 89.337 89.475 89.495 89.552 89.62 89.59 89.73 89.757 89.857 89.862 89.905 89.962 89.907 89.83 89.632 89.427 89.175 88.95 88.435 87.912 87.232 86.357 86.075 85.935 85.93 85.937 86.047 86.027 86.192 86.352 86.465 86.432 86.31 86.03 85.882 85.935 86.05 86.157 86.23 86.407 87.07 89.792 88.53 88.322 88.362 88.312 88.362 88.445 88.437 88.432 88.477 88.605 88.795 89.447 89.627 93.607 89.967 90.235 90.477 90.68 90.87 91.095 91.267 91.402 91.56 91.707 91.825 91.937 92.055 92.277 92.532 93.12 92.887 93.02 93.147 93.5 94.285 94.19 95.757 94.474 93.092 93.082 93.144 93.197 93.347 93.502 93.659 93.717 93.722 93.742 93.814 93.909 94.039 94.109 94.167 94.187 94.184 94.069 93.979 93.952 93.942 94.257 94.777 94.464 94.342 94.362 94.362 94.974 96.834 96.034 94.269 94.779 95.862 99.762 100.212 94.914 93.734 93.674 93.647 93.597 93.562 93.527 93.437 93.372 93.324 93.219 93.132 93.047 92.932 92.804 92.852 92.559 92.479 92.409 92.624 92.899 94.682 95.524 95.444 93.327 91.742 91.714
83.207 83.339 83.463 83.588 83.711 83.843 83.993 84.112 84.25 84.39 84.516 84.637 84.77 84.907 85.032 85.072 85.175 85.317 85.435 85.532 85.647 85.775 85.885 85.965 86.077 86.175 86.28 86.38 86.492 86.595 86.632 86.7 86.742 86.782 86.875 87.04 87.22 87.397 87.555 87.657 87.895 88.49 89.152 88.557 89.212 89.742 89.827 89.735 89.907 90.085 90.402 91.267 94.102 91.757 91.645 91.342 91.447 91.535 91.692 91.832 91.937 92.097 92.3 92.412 92.56 92.755 92.93 93.062 93.215 93.322 93.452 93.512 93.635 93.725 93.815 93.862 93.927 93.895 93.895 93.97 94.067 94.527 94.715 94.745 94.78 94.85 94.897 94.96 94.932 95.002 95.015 95.017 95.027 95.095 95.077 95.107 95.112 95.115 95.1 95.102 95.09 95.032 95.075 95.015 94.992 94.99 95.017 95.08 95.107 95.125 95.09 95.105 95.152 95.182 95.262 95.327 95.402 95.452 95.49 95.557 95.622 95.68 95.757 95.805 95.85 95.892 95.905 95.925 95.95 95.95 95.947 95.94 95.97 95.96 95.992 96.045 96.097 96.215 96.392 96 95.867 95.757 95.825 95.86 95.895 95.93 96.092 96.427 96.317 96.177 96.157 96.177 96.267 96.245 96.277 96.38 96.355 96.022 95.632 95.71 95.722 95.737 95.555 95.42 95.45 95.252 95.222 95.127 95.125 95.027 95.032 94.97 94.845 94.885 94.807 94.802 94.68 94.707 94.642 94.625 94.482 94.475 94.48 94.445 94.41 94.272 94.155 93.947 93.81 93.72 93.647 93.58 93.45 93.237 93.18 93.467 93.682 93.822 94.63 94.16 94.01 94.045 94.017 93.992 93.915 93.855 93.68 93.58 93.367 93.107 92.907 92.64 92.485 92.267 92.167 92.23 92.15 92.01 91.952 91.845 91.767 91.7 91.63 91.595 91.625 96.225 93.84 96.825 97.482 102.202 97.505 99.92 95.55 93.965 96.26 97.957 103.92 106.147 100.73 94.705 92.7 92.272 92.265 92.247 92.272 92.225 92.3 92.295 92.365 92.365 92.36 92.397 92.332 92.257 92.237 92.14 92.11 92.067 91.91 91.875 91.75 91.657 91.592 94.935 97.707 102.14 104.945 104 100.997 101.067 100.352 100.607 104.88 101.307 104.7 102.54 106.312 102.715 99.035 99.217 90.362 89.272 89.025 88.902 88.63 88.37 88.305 88.107 87.992 88.117 88.15 88.25 88.507 88.612 88.807 88.935 88.927 89.085 89.142 89.172 89.295 89.285 89.405 89.477 89.602 89.67 89.662 89.787 89.74 89.695 89.505 89.29 88.88 88.555 88.172 87.707 87.067 86.27 86.055 85.915 85.915 85.922 86.017 86.03 86.175 86.355 86.412 86.44 86.332 86.087 85.86 85.9 85.952 86.092 86.217 86.552 87.44 89.015 88.135 88.23 88.245 88.307 88.335 88.355 88.375 88.387 88.46 88.65 89.26 89.44 89.41 89.85 89.995 90.24 90.452 90.68 90.902 91.115 91.287 91.425 91.585 91.712 91.817 91.942 92.165 92.385 92.695 92.767 92.88 93.01 93.117 94.2 96.572 98.187 101.057 98.227 93.207 93.137 93.202 93.267 93.357 93.422 93.499 93.594 93.674 93.744 93.834 94.027 94.099 94.144 94.162 94.157 94.167 94.179 94.082 93.937 93.892 93.894 94.214 94.639 94.542 94.302 94.317 94.307 94.534 94.249 94.217 94.129 94.029 95.054 98.917 95.722 93.737 93.689 93.644 93.832 93.542 93.499 93.359 93.254 93.192 93.114 93.029 92.969 92.867 92.742 92.649 92.547 92.444 92.307 92.229 92.184 93.582 94.967 93.987 92.159 92.747 92.272
83.085 83.196 83.316 83.441 83.596 83.719 83.834 83.999 84.116 84.246 84.383 84.508 84.661 84.76 84.84 84.935 85.065 85.2 85.28 85.42 85.522 85.62 85.717 85.847 85.942 86.02 86.14 86.207 86.337 86.387 86.44 86.495 86.552 86.605 86.762 86.977 87.135 87.295 87.445 87.592 88.612 88.925 88.337 88.825 89.447 89.305 89.382 89.512 89.787 90.18 91.13 93.365 91.252 90.89 91.055 91.117 91.22 91.402 91.535 91.642 91.782 91.965 92.147 92.272 92.49 92.677 92.825 92.932 93.062 93.19 93.28 93.375 93.51 93.647 93.717 93.777 93.84 93.865 93.867 93.91 93.965 94.192 94.732 94.722 94.765 94.79 94.9 94.925 94.94 94.97 94.965 94.967 94.997 95.022 95.092 95.087 95.08 95.122 95.165 95.125 95.122 95.112 95.132 95.112 95.097 95.067 94.992 95.082 95.075 95.082 95.077 95.037 95.075 95.167 95.23 95.307 95.365 95.387 95.427 95.48 95.557 95.622 95.697 95.755 95.782 95.847 95.845 95.895 95.905 95.917 95.91 95.93 95.942 95.942 95.962 96.022 96.095 96.232 96.247 95.962 95.787 95.722 95.802 95.85 95.875 95.952 96.097 96.487 96.385 96.107 96.13 96.12 96.25 96.14 96.257 96.347 96.302 95.825 95.61 95.675 95.652 95.627 95.502 95.425 95.425 95.275 95.265 95.187 95.197 95.09 95.08 94.995 94.93 94.945 94.855 94.83 94.722 94.74 94.682 94.692 94.565 94.575 94.555 94.515 94.467 94.34 94.252 94.002 93.905 93.75 93.71 93.597 93.45 93.202 93.252 93.622 93.912 93.985 94.017 94.042 94.11 94.142 94.142 94.122 94.047 93.96 93.875 93.775 93.667 93.527 93.297 92.957 92.817 92.735 92.532 92.432 92.287 92.085 91.95 91.832 91.73 91.65 91.567 91.597 91.76 91.9 91.85 91.417 91.132 91.43 92.63 93.72 91.49 91.475 98.677 98.585 98.145 96.882 96.855 91.965 91.987 92.005 91.977 91.98 91.995 91.972 92.04 92.02 92.135 92.217 92.207 92.242 92.19 92.055 92.002 91.937 91.915 91.922 91.825 91.697 91.572 91.465 94.29 96.345 97.362 100.517 99.665 99.787 101.425 98.707 96.2 97.877 99.157 98.68 95.487 99.76 98.992 98.835 98.465 96.272 89.047 88.85 88.592 88.442 88.225 87.977 87.862 87.732 87.595 87.667 87.692 87.687 87.897 88.02 88.165 88.35 88.402 88.55 88.682 88.71 88.892 88.91 89.022 89.167 89.277 89.412 89.385 89.542 89.505 89.525 89.202 88.842 88.275 87.52 87.497 87.457 86.497 86.245 86.087 85.92 85.895 85.872 85.942 86.02 86.195 86.352 86.387 86.372 86.325 86.157 85.94 85.917 85.91 86.007 86.732 87.345 88.4 88.2 88.125 88.155 88.192 88.222 88.285 88.285 88.327 88.382 88.537 89.055 89.397 89.152 89.437 89.735 89.985 90.202 90.445 90.69 90.915 91.1 91.262 91.452 91.6 91.692 91.842 92.072 92.215 92.442 92.622 92.795 92.852 92.957 93.187 93.502 98.53 101.215 101.872 96.214 93.579 93.352 93.292 93.339 93.422 93.464 93.539 93.609 93.689 93.744 93.989 94.067 94.084 94.094 94.119 94.124 94.129 94.124 94.092 94.057 93.907 93.867 93.849 94.077 94.752 94.362 94.224 94.232 94.219 94.207 94.154 94.047 93.934 93.854 93.784 93.752 93.737 93.707 93.637 93.562 93.472 93.367 93.242 93.177 93.077 92.994 92.932 92.864 92.789 92.689 92.597 92.529 92.452 92.367 92.187 92.044 92.012 92.167 92.937 92.684 92.217 92.902
82.938 83.079 83.208 83.329 83.454 83.576 83.717 83.874 83.986 84.139 84.266 84.393 84.48 84.552 84.687 84.788 84.952 85.054 85.19 85.285 85.392 85.477 85.607 85.705 85.772 85.875 86.007 86.08 86.135 86.212 86.255 86.322 86.39 86.515 86.687 86.89 87.045 87.142 87.315 87.91 89.08 88.275 88.752 88.637 88.937 89.02 89.16 89.41 90.095 90.642 91.777 91.362 90.567 90.747 90.82 90.927 91.107 91.212 91.357 91.512 91.68 91.837 92.005 92.18 92.385 92.54 92.662 92.79 92.892 93.017 93.145 93.272 93.377 93.502 93.597 93.657 93.77 93.8 93.817 93.847 93.897 94.022 94.6 94.717 94.707 94.752 94.795 94.91 94.927 94.95 94.92 94.937 94.98 94.992 95.032 95.042 95.052 95.037 95.175 95.132 95.165 95.155 95.12 95.127 95.162 95.095 95.06 95.155 95.157 95.085 95.045 95.057 95.077 95.16 95.205 95.245 95.29 95.32 95.362 95.41 95.492 95.577 95.642 95.7 95.73 95.805 95.805 95.845 95.875 95.86 95.9 95.885 95.885 95.905 95.945 95.98 96.04 96.197 96.105 95.902 95.762 95.717 95.79 95.797 95.84 95.935 96.092 96.33 96.187 96.095 96.13 96.127 96.242 96.16 96.282 96.312 96.665 95.737 95.637 95.722 95.682 95.602 95.45 95.437 95.395 95.287 95.31 95.237 95.255 95.152 95.137 95.035 94.982 94.995 94.912 94.902 94.792 94.79 94.755 94.73 94.635 94.662 94.617 94.592 94.52 94.39 94.27 94.052 93.982 93.805 93.777 93.63 93.437 93.202 93.385 93.82 94.072 94.1 94.092 94.14 94.21 94.205 94.235 94.162 94.162 94.052 93.98 93.832 93.74 93.687 93.61 93.29 93.11 93.07 92.947 92.745 92.595 92.462 92.27 92.042 91.855 91.69 91.562 91.375 91.4 91.405 91.525 91.79 91.802 91.49 91.955 91.172 90.86 91.215 96.83 94.98 91.362 91.457 91.597 91.682 91.715 91.715 91.682 91.662 91.687 91.657 91.732 91.782 91.872 92.007 91.995 92 92 91.857 91.76 91.712 91.697 91.715 95.385 96.107 92.417 97.507 100.35 95.565 94 100.61 100.765 104.215 93.045 104.917 101.577 99.385 107.02 99.047 97.557 96.965 96.717 98.632 101.837 96.922 88.612 88.48 88.215 87.977 87.842 87.61 87.467 87.432 87.267 87.265 87.272 87.18 87.29 87.405 87.49 87.67 87.752 87.88 88.057 88.132 88.315 88.405 88.525 88.725 88.852 89.04 89.03 89.207 89.225 89.245 88.785 87.912 87.05 86.71 86.54 86.387 86.29 86.252 86.135 85.95 85.865 85.852 85.877 86.017 86.18 86.315 86.362 86.38 86.347 86.235 86.16 86.19 86.1 86.332 87.25 88.22 88.107 88.105 88.12 88.127 88.157 88.165 88.21 88.232 88.315 88.417 89.062 89.037 88.977 89.235 89.505 89.765 90.017 90.232 90.477 90.677 90.895 91.07 91.247 91.425 91.532 91.68 91.885 92.075 92.312 92.487 92.665 92.8 92.955 93.44 93.262 93.572 94.35 98.64 99.757 94.889 93.764 93.637 93.439 93.372 93.454 93.524 93.589 93.639 93.714 93.924 94.039 94.062 94.084 94.099 94.099 94.107 94.094 94.067 94.039 94.004 93.959 93.887 93.802 93.789 93.824 94.682 94.487 94.167 94.179 94.144 94.102 93.994 93.884 93.799 93.774 93.767 93.767 93.704 93.597 93.492 93.379 93.242 93.132 93.062 92.987 92.929 92.877 92.814 92.712 92.622 92.574 92.497 93.114 93.087 92.649 91.974 91.894 91.834 91.899 92.739 94.319 93.584
82.799 82.926 83.075 83.192 83.331 83.467 83.631 83.74 83.888 83.986 84.092 84.222 84.304 84.45 84.573 84.684 84.831 84.938 85.073 85.142 85.249 85.36 85.445 85.542 85.65 85.765 85.837 85.887 85.987 86.042 86.08 86.175 86.267 86.46 86.63 86.76 86.89 87.087 87.335 88.225 88.24 88.187 88.84 88.44 88.612 88.795 89.077 89.437 91.132 91.082 90.872 90.282 90.432 90.55 90.64 90.817 90.95 91.08 91.232 91.385 91.53 91.707 91.865 92.025 92.19 92.362 92.495 92.6 92.722 92.865 93.02 93.122 93.24 93.41 93.485 93.537 93.645 93.69 93.702 93.775 93.86 93.912 94.29 94.722 94.687 94.757 94.815 94.857 94.885 94.875 94.932 94.88 94.905 94.96 94.997 95.032 95.065 95.062 95.16 95.165 95.175 95.165 95.16 95.137 95.18 95.107 95.135 95.157 95.185 95.14 95.05 95.065 95.087 95.125 95.165 95.21 95.237 95.255 95.3 95.357 95.427 95.507 95.56 95.632 95.685 95.735 95.775 95.812 95.817 95.847 95.867 95.875 95.87 95.875 95.902 95.942 96.05 96.165 96.027 95.902 95.732 95.705 95.732 95.732 95.815 95.89 96.08 96.42 96.17 96.112 96.07 96.105 96.185 96.132 96.247 96.307 96.365 95.962 95.685 95.76 95.712 95.587 95.462 95.445 95.395 95.327 95.352 95.277 95.307 95.207 95.192 95.067 95.042 95.047 94.96 94.925 94.83 94.845 94.82 94.792 94.702 94.73 94.66 94.632 94.54 94.44 94.292 94.117 94.03 93.885 93.84 93.655 93.44 93.24 93.507 93.952 94.165 94.182 94.197 94.222 94.262 94.25 94.31 94.275 94.265 94.162 94.077 93.94 93.87 93.805 93.772 93.555 93.305 93.222 93.125 92.982 92.87 92.757 92.625 92.495 92.32 92.13 91.88 91.62 91.39 91.185 91.09 91.755 92.462 91.312 92.64 92.69 90.9 90.71 90.767 90.94 91.037 91.077 91.205 91.357 91.402 91.445 91.447 91.397 91.4 91.352 91.42 91.54 91.605 91.722 91.735 91.715 91.727 91.587 91.48 91.47 91.487 91.467 95.87 98.385 95.705 97.987 98.23 100.177 97.51 96.287 102.117 102.622 96.417 98.937 100.417 107.062 107.042 103.267 105.882 100.902 102.682 100.835 102.385 96.772 88.26 88.077 87.847 87.63 87.502 87.322 87.197 87.185 87.107 87.065 87.035 86.917 86.93 87.02 87.015 87.135 87.252 87.277 87.42 87.512 87.665 87.802 87.9 88.147 88.292 88.5 88.54 88.707 88.79 88.722 88.24 87.432 86.64 86.427 86.282 86.132 86.135 86.165 86.137 85.995 85.885 85.87 85.84 86.027 86.212 86.312 86.342 86.355 86.295 86.29 86.415 87.472 87.305 87.737 88.465 88.092 88.14 88.09 88.11 88.135 88.137 88.122 88.122 88.235 88.357 88.877 89.41 88.83 89.042 89.287 89.522 89.742 89.997 90.232 90.472 90.685 90.862 91.02 91.162 91.352 91.545 91.795 91.972 92.2 92.362 92.485 92.672 92.797 93.005 93.152 93.357 94.26 95.982 94.812 93.937 93.664 93.739 93.807 93.607 93.442 93.484 93.569 93.599 93.667 93.887 94.017 94.024 94.044 94.059 94.064 94.077 94.069 94.064 94.042 94.029 93.992 93.987 93.927 93.809 93.747 93.749 93.844 94.494 94.514 94.139 94.102 94.024 94.067 93.819 93.759 93.772 93.739 93.699 93.587 93.484 93.379 93.289 93.139 93.059 93.027 92.944 92.902 92.827 92.757 92.667 92.594 92.527 92.832 92.612 93.084 92.152 91.947 91.859 91.749 91.629 91.564 93.262 93.424
82.709 82.797 82.955 83.074 83.219 83.375 83.503 83.631 83.758 83.84 83.953 84.073 84.192 84.321 84.454 84.593 84.699 84.823 84.912 85.018 85.126 85.197 85.303 85.424 85.532 85.612 85.672 85.745 85.835 85.887 85.917 86.005 86.187 86.365 86.515 86.672 86.782 87.092 88.905 88.095 88.142 87.887 88.102 88.267 88.362 88.65 89.027 89.907 91.55 91.04 90.027 90.125 90.222 90.37 90.545 90.68 90.8 90.97 91.117 91.257 91.405 91.562 91.7 91.867 92.025 92.167 92.307 92.447 92.615 92.765 92.882 93.025 93.13 93.262 93.372 93.427 93.552 93.635 93.667 93.722 93.77 93.857 94.062 94.74 94.635 94.732 94.732 94.812 94.857 94.86 94.89 94.9 94.87 94.89 94.965 95.002 95.09 95.08 95.08 95.192 95.162 95.14 95.182 95.195 95.18 95.18 95.175 95.152 95.167 95.13 95.042 95.037 95.077 95.127 95.137 95.152 95.182 95.195 95.252 95.302 95.35 95.445 95.507 95.565 95.617 95.652 95.707 95.74 95.8 95.827 95.82 95.832 95.827 95.845 95.882 95.925 96.012 96.12 96.002 95.86 95.7 95.702 95.72 95.735 95.755 95.922 96.067 96.347 96.187 95.997 96.11 96.075 96.17 96.07 96.247 96.35 96.487 95.655 95.705 95.78 95.74 95.59 95.472 95.457 95.427 95.325 95.37 95.302 95.355 95.27 95.24 95.1 95.095 95.102 95.002 94.952 94.89 94.895 94.875 94.817 94.777 94.835 94.735 94.712 94.567 94.48 94.317 94.157 94.077 93.945 93.867 93.69 93.447 93.27 93.675 94.06 94.215 94.27 94.282 94.317 94.355 94.342 94.41 94.365 94.372 94.255 94.212 94.06 94.032 93.905 93.88 93.757 93.51 93.367 93.297 93.155 93.012 92.927 92.807 92.755 92.657 92.51 92.337 92.102 91.89 91.66 91.36 91.062 90.787 90.817 90.895 90.987 90.85 90.652 90.715 90.702 90.705 90.775 90.825 90.937 90.997 91.042 91.105 91.135 91.145 91.115 91.145 91.217 91.295 91.42 91.42 91.402 91.405 91.295 91.147 92.792 93.572 95.98 97.082 98.142 101.595 100.935 99.125 99.967 95.51 92.602 103.252 98.71 95.587 92.117 95.175 98.13 99.895 102.482 97.782 100.262 99.715 102.375 95.095 92.657 88.065 87.865 87.655 87.432 87.305 87.195 87.082 87.045 86.99 86.925 86.832 86.76 86.72 86.702 86.71 86.782 86.872 86.915 87.015 87.107 87.152 87.232 87.295 87.49 87.637 87.79 87.882 88.052 88.175 88.622 87.852 86.802 86.41 86.332 86.162 86.062 86.085 86.1 86.117 85.995 85.875 85.857 85.812 85.995 86.205 86.28 86.332 86.337 86.242 86.315 88.085 88.46 91.33 90.315 88.117 88.117 88.03 88.055 88.085 88.045 88.087 88.055 88.155 88.27 88.812 89.237 88.76 88.92 89.112 89.3 89.495 89.712 89.967 90.195 90.455 90.652 90.82 90.985 91.162 91.365 91.632 91.822 92.052 92.245 92.335 92.502 92.755 92.9 93.092 93.93 93.315 93.655 93.817 93.522 93.549 93.609 93.717 93.782 93.714 93.547 93.524 93.569 93.604 93.807 93.972 94.014 94.017 94.024 94.024 94.039 94.059 94.039 94.022 94.019 94.012 93.964 93.929 93.924 93.912 93.797 93.732 93.692 93.834 94.532 94.357 94.397 94.482 94.122 93.789 93.772 93.774 93.682 93.537 93.469 93.364 93.264 93.192 93.117 93.052 93.004 92.932 92.842 92.772 92.679 92.629 92.549 92.892 92.977 92.752 92.319 92.017 91.994 91.884 91.752 91.579 91.452 91.377 91.612
82.592 82.712 82.844 82.983 83.145 83.255 83.393 83.496 83.597 83.716 83.85 83.99 84.078 84.198 84.348 84.451 84.58 84.671 84.771 84.886 84.975 85.086 85.187 85.295 85.36 85.466 85.539 85.635 85.677 85.697 85.782 85.92 86.127 86.272 86.405 86.512 86.762 88.445 88.822 87.815 87.575 87.715 87.872 88.025 88.272 88.655 90.56 92.78 90.262 89.755 89.847 89.902 90.077 90.267 90.375 90.535 90.7 90.855 90.97 91.117 91.285 91.405 91.57 91.73 91.87 92.035 92.152 92.355 92.502 92.625 92.752 92.905 93.007 93.127 93.205 93.317 93.452 93.567 93.652 93.667 93.667 93.747 93.885 94.442 94.642 94.677 94.667 94.78 94.785 94.855 94.845 94.915 94.885 94.88 94.922 94.982 95.06 95.095 95.117 95.2 95.1 95.177 95.147 95.202 95.197 95.217 95.182 95.137 95.157 95.165 95.085 95.032 95.08 95.097 95.11 95.125 95.147 95.175 95.235 95.245 95.312 95.372 95.447 95.512 95.575 95.612 95.652 95.707 95.737 95.745 95.762 95.772 95.795 95.792 95.832 95.872 95.975 96.067 95.917 95.797 95.662 95.732 95.7 95.79 95.78 95.9 96.085 96.28 96.077 96.055 96.055 96.03 96.137 96.067 96.25 96.4 96.482 95.615 95.727 95.757 95.722 95.592 95.52 95.49 95.44 95.337 95.395 95.357 95.397 95.297 95.297 95.15 95.142 95.14 95.085 94.985 94.945 94.907 94.922 94.827 94.845 94.88 94.807 94.775 94.587 94.54 94.325 94.225 94.075 94.01 93.907 93.692 93.437 93.35 93.787 94.16 94.29 94.342 94.367 94.402 94.452 94.432 94.487 94.455 94.462 94.362 94.307 94.187 94.152 94.045 94.032 93.927 93.725 93.565 93.48 93.302 93.152 93.09 92.97 92.897 92.792 92.675 92.565 92.46 92.325 92.175 91.922 91.587 91.29 91.127 90.952 90.785 90.607 90.53 90.485 90.402 90.495 90.537 90.532 90.605 90.637 90.682 90.692 90.702 90.76 90.817 90.897 90.952 91.022 91.055 91.077 91.062 91.075 91.012 93.945 94.862 96.48 96.26 99.627 97.772 101.712 101.822 103.725 98.36 98.592 97.39 98.925 101.56 94.462 92.742 91.817 92.807 95.197 96.937 95.282 96.565 97.775 96.34 93.937 88.837 87.927 87.752 87.572 87.38 87.225 87.087 86.967 86.882 86.805 86.72 86.627 86.522 86.435 86.427 86.435 86.422 86.537 86.6 86.69 86.78 86.805 86.927 86.942 87.037 87.137 87.187 87.257 87.337 87.48 88.36 88.117 86.457 86.362 86.27 86.162 86.082 86.052 86.035 86.055 85.985 85.915 85.885 85.86 86.007 86.155 86.23 86.31 86.285 86.26 87.75 90.605 89.44 90.94 88.355 88.107 88.06 87.992 88.062 88.057 88.07 88.027 88.09 88.195 88.652 89.197 88.622 88.762 89.01 89.17 89.28 89.415 89.67 89.94 90.177 90.4 90.63 90.762 91 91.205 91.507 91.652 91.9 92.077 92.24 92.375 92.62 93.245 93.147 93.397 94.622 94.087 93.4 93.445 93.452 93.484 93.572 93.667 93.764 93.704 93.599 93.617 93.629 93.724 93.904 93.944 93.949 93.974 93.989 93.999 94.019 94.024 94.004 93.992 93.992 93.959 93.927 93.897 93.884 93.874 93.899 93.809 93.662 93.644 93.649 93.799 93.837 93.764 93.722 93.734 93.727 93.629 93.527 93.467 93.397 93.297 93.227 93.177 93.082 93.039 92.979 92.889 92.829 92.727 92.637 92.572 92.579 93.202 93.302 92.482 92.112 92.007 92.027 91.884 91.694 91.564 91.417 91.282 91.194
82.477 82.633 82.766 82.893 83.002 83.138 83.266 83.36 83.492 83.638 83.741 83.854 83.975 84.109 84.23 84.33 84.419 84.545 84.644 84.742 84.843 84.946 85.042 85.134 85.218 85.327 85.386 85.483 85.486 85.564 85.707 85.847 86.032 86.152 86.265 86.46 87.605 88.945 87.647 87.69 89.555 87.505 87.652 87.862 88.205 89.29 90.837 91.82 89.48 89.497 89.595 89.745 89.945 90.085 90.232 90.402 90.555 90.687 90.84 91.01 91.142 91.29 91.427 91.575 91.737 91.877 92.035 92.22 92.352 92.49 92.66 92.777 92.847 92.98 93.075 93.192 93.342 93.457 93.602 93.66 93.63 93.67 93.772 94.057 94.61 94.6 94.655 94.685 94.732 94.822 94.857 94.835 94.845 94.887 94.882 94.965 95.03 95.075 95.11 95.1 95.107 95.2 95.18 95.2 95.175 95.19 95.217 95.237 95.167 95.17 95.1 95.055 95.077 95.1 95.11 95.095 95.112 95.147 95.172 95.19 95.257 95.342 95.382 95.457 95.505 95.537 95.585 95.64 95.65 95.692 95.7 95.695 95.707 95.697 95.735 95.792 95.93 96.05 95.845 95.745 95.637 95.637 95.642 95.702 95.732 95.905 96.137 96.442 96.025 96.005 96.03 96.072 96.09 96.087 96.217 96.495 96.057 95.657 95.825 95.8 95.737 95.607 95.547 95.517 95.48 95.39 95.407 95.37 95.392 95.315 95.32 95.197 95.217 95.177 95.147 95.035 95.005 94.932 94.962 94.887 94.905 94.907 94.857 94.79 94.62 94.56 94.355 94.29 94.115 94.062 93.95 93.73 93.432 93.432 93.88 94.215 94.34 94.417 94.447 94.482 94.532 94.517 94.572 94.525 94.557 94.45 94.422 94.285 94.262 94.167 94.125 94.09 93.892 93.705 93.625 93.467 93.327 93.262 93.13 93.027 92.957 92.79 92.697 92.63 92.54 92.407 92.28 92.02 91.78 91.51 91.305 91.172 90.942 90.785 90.667 90.58 90.455 90.237 90.155 90.39 90.432 90.417 90.362 90.38 90.42 90.51 90.602 90.657 90.685 90.747 90.807 90.792 90.77 90.885 96.407 95.587 98.19 97.17 98.59 95.642 95.302 100.392 100.62 103.635 95.03 103.01 100.11 90.565 92.975 100.677 102.01 96.472 97.5 101.575 100.112 100.467 100.297 99.947 97.057 91.007 87.657 87.502 87.357 87.222 87.07 86.93 86.74 86.387 86.335 86.205 86.22 86.087 86.127 86.055 85.965 86.022 86.11 86.217 86.302 86.44 86.465 86.575 86.592 86.665 86.742 86.777 86.835 86.887 86.895 86.802 86.43 86.322 86.28 86.2 86.162 86.032 86.03 86.052 86.062 86.035 85.932 85.907 85.912 86.012 86.115 86.22 86.24 86.24 86.4 87.435 90.927 91.635 90.835 88.665 88.057 87.932 87.99 88.047 88.005 87.992 88.037 88.142 88.647 89.22 88.397 88.605 88.832 89.045 89.137 89.22 89.407 89.622 89.887 90.102 90.307 90.577 90.782 90.982 91.212 91.442 91.692 91.927 92.065 92.257 92.422 92.712 92.945 93.085 93.545 94.832 94.74 93.38 93.387 93.437 93.519 93.567 93.647 93.734 93.699 93.624 93.624 93.719 93.842 93.839 93.877 93.912 93.934 93.972 93.967 93.987 93.969 93.964 93.972 93.969 93.932 93.889 93.859 93.839 93.837 93.847 93.834 93.737 93.654 93.664 93.637 93.664 93.674 93.714 93.712 93.607 93.509 93.464 93.419 93.342 93.249 93.187 93.134 93.062 93.004 92.944 92.867 92.799 92.699 92.622 92.597 92.879 92.759 92.392 92.132 92.052 92.004 91.869 91.819 91.684 91.552 91.424 91.267 91.109
82.396 82.53 82.657 82.768 82.905 83.022 83.131 83.257 83.384 83.514 83.656 83.779 83.876 84.004 84.117 84.202 84.318 84.411 84.53 84.633 84.728 84.823 84.912 85.023 85.077 85.16 85.248 85.298 85.337 85.485 85.662 85.779 85.934 86.025 86.202 86.81 88.172 87.402 87.012 87.96 87.31 87.292 87.517 88.31 88.627 90.222 89.225 89.937 89.155 89.232 89.415 89.605 89.767 89.937 90.152 90.277 90.422 90.587 90.722 90.845 90.997 91.115 91.27 91.425 91.572 91.737 91.9 92.07 92.2 92.355 92.482 92.622 92.747 92.84 92.952 93.067 93.237 93.37 93.505 93.605 93.63 93.66 93.72 93.837 94.557 94.59 94.595 94.61 94.71 94.762 94.827 94.84 94.822 94.807 94.86 94.882 94.995 95.025 95.087 95.112 95.137 95.145 95.195 95.23 95.225 95.275 95.235 95.225 95.145 95.16 95.115 95.08 95.07 95.092 95.09 95.1 95.115 95.15 95.152 95.175 95.225 95.28 95.34 95.41 95.452 95.492 95.522 95.56 95.577 95.605 95.612 95.625 95.61 95.62 95.662 95.725 95.877 95.957 95.815 95.71 95.637 95.677 95.667 95.732 95.705 95.88 96.217 96.242 95.997 95.937 96 96.07 96.012 96.045 96.162 96.46 96.062 95.732 95.81 95.815 95.787 95.647 95.565 95.527 95.522 95.415 95.445 95.395 95.425 95.342 95.355 95.235 95.28 95.227 95.175 95.085 95.04 95.03 95.052 94.905 94.967 94.945 94.902 94.79 94.687 94.565 94.365 94.29 94.137 94.072 93.94 93.742 93.442 93.525 93.942 94.287 94.38 94.482 94.512 94.557 94.617 94.577 94.635 94.58 94.627 94.512 94.48 94.347 94.347 94.295 94.277 94.255 94.037 93.837 93.772 93.637 93.492 93.45 93.342 93.237 93.167 92.982 92.85 92.775 92.662 92.522 92.432 92.277 92.08 91.865 91.662 91.495 91.262 91.037 90.852 90.735 90.562 90.442 90.342 90.287 90.285 90.227 90.135 90.14 90.162 90.19 90.227 90.257 90.282 90.345 90.39 90.432 90.435 91.115 98.535 98.487 101.34 96.54 97.737 94.045 100.192 101.977 101.157 99.355 96.69 99.487 100.237 95.892 94.64 100.012 104.297 96.212 96.717 104.07 99.435 100.175 98.852 97.475 96.367 91.495 86.88 86.812 87 87 86.95 86.802 86.65 86.225 86.345 86.34 86.225 86.187 86.18 86.172 86.1 86.005 85.86 85.83 85.78 85.872 85.947 85.995 86.13 86.19 86.285 86.34 86.4 86.477 86.44 86.325 86.27 86.235 86.215 86.17 86.145 86.067 86.04 86.06 86.032 85.952 85.91 85.927 85.94 86.007 86.11 86.225 86.242 86.282 86.627 89.242 90.712 89.812 88.242 87.972 87.955 87.987 87.997 88 87.955 88 88.107 88.587 89.502 88.472 88.562 88.732 88.925 89.057 89.142 89.277 89.44 89.642 89.835 90.005 90.252 90.517 90.752 90.952 91.205 91.58 91.862 92.097 92.157 92.267 92.537 92.762 92.952 93.042 93.102 93.24 93.345 93.297 93.322 93.407 93.502 93.579 93.664 93.719 93.654 93.624 93.687 93.792 93.864 93.854 93.834 93.857 93.914 93.947 93.949 93.942 93.919 93.912 93.934 93.914 93.897 93.852 93.809 93.807 93.807 93.829 93.802 93.759 93.647 93.629 93.607 93.659 93.639 93.667 93.629 93.507 93.444 93.399 93.349 93.269 93.222 93.152 93.077 92.997 92.954 92.892 92.827 92.777 92.684 92.632 93.422 93.167 92.464 92.182 92.094 92.037 91.982 91.874 91.777 91.659 91.507 91.362 91.292 91.094
82.312 82.439 82.547 82.679 82.817 82.927 83.029 83.166 83.289 83.433 83.536 83.65 83.771 83.87 83.978 84.07 84.167 84.29 84.409 84.48 84.584 84.683 84.809 84.877 84.956 85.018 85.079 85.134 85.245 85.409 85.578 85.699 85.811 85.933 86.501 87.466 89.133 88.102 88.287 87.012 86.967 87.17 87.577 88.607 88.662 88.972 88.615 88.747 88.872 89.085 89.28 89.435 89.635 89.842 90 90.147 90.295 90.475 90.597 90.712 90.837 90.982 91.13 91.295 91.44 91.615 91.73 91.887 92.082 92.23 92.342 92.502 92.627 92.727 92.855 92.977 93.11 93.277 93.427 93.55 93.597 93.612 93.665 93.707 94.25 94.662 94.642 94.632 94.647 94.712 94.795 94.8 94.825 94.855 94.812 94.88 95 95.017 95.047 95.077 95.112 95.12 95.16 95.19 95.187 95.18 95.217 95.23 95.19 95.155 95.117 95.082 95.077 95.095 95.08 95.125 95.115 95.142 95.16 95.172 95.202 95.24 95.297 95.342 95.367 95.417 95.45 95.487 95.5 95.5 95.517 95.517 95.522 95.527 95.572 95.66 95.917 95.94 95.795 95.657 95.605 95.687 95.635 95.675 95.735 95.897 96.302 96.17 95.875 95.912 95.947 96.04 95.975 96.085 96.257 96.417 96.132 95.732 95.835 95.86 95.815 95.682 95.615 95.572 95.542 95.44 95.45 95.402 95.412 95.372 95.402 95.277 95.332 95.282 95.26 95.132 95.117 95.077 95.07 94.972 95.02 94.967 94.917 94.79 94.722 94.57 94.41 94.315 94.182 94.122 93.927 93.727 93.447 93.597 93.995 94.35 94.442 94.515 94.55 94.615 94.667 94.62 94.7 94.615 94.652 94.565 94.572 94.46 94.437 94.372 94.372 94.332 94.065 93.97 93.97 93.847 93.677 93.627 93.542 93.415 93.337 93.195 93.025 92.947 92.827 92.672 92.575 92.402 92.227 92.087 91.952 91.84 91.602 91.357 91.202 91.117 90.925 90.712 90.5 90.327 90.235 89.962 89.985 89.935 89.975 89.977 89.917 89.887 89.712 89.732 89.885 89.945 89.985 91.652 96.607 100.235 101.2 99.775 98.005 101.427 101.962 100.48 101.702 97.527 92.442 95.675 96.812 100.715 99.742 103.66 98.3 93.495 97.35 97.79 98.175 96.615 95.552 93.767 88.977 87.325 86.942 86.917 86.94 86.962 86.935 86.815 86.73 86.672 86.607 86.515 86.47 86.407 86.357 86.292 86.22 86.145 86.142 86.09 86.06 86.02 85.96 85.89 85.83 85.78 85.82 85.86 85.912 86.03 86.087 86.065 86.105 86.1 86.117 86.102 86.092 86.045 86.022 86.03 86 85.92 85.895 85.907 85.935 85.987 86.067 86.19 86.255 86.542 87.692 88.98 89.03 88.017 88.012 87.917 87.987 87.965 87.897 87.915 87.98 88.125 88.267 89.005 88.455 88.572 88.615 88.777 88.96 89.055 89.192 89.342 89.47 89.625 89.767 89.932 90.212 90.507 90.66 90.895 91.252 91.71 91.99 92.24 92.285 92.48 92.662 92.847 92.92 92.937 93.037 93.087 93.192 93.26 93.295 93.4 93.502 93.637 93.692 93.667 93.592 93.654 93.829 93.849 93.849 93.832 93.852 93.854 93.889 93.909 93.919 93.907 93.882 93.867 93.864 93.857 93.819 93.802 93.779 93.759 93.762 93.787 93.752 93.734 93.599 93.607 93.622 93.602 93.602 93.572 93.489 93.432 93.399 93.342 93.247 93.204 93.144 93.077 93.047 92.997 92.927 92.884 92.819 92.734 92.677 92.699 93.289 92.897 92.247 92.142 92.084 91.994 91.934 91.859 91.714 91.637 91.514 91.377 91.202 91.099
82.202 82.335 82.47 82.583 82.693 82.824 82.948 83.089 83.221 83.328 83.427 83.544 83.644 83.759 83.839 83.944 84.056 84.157 84.244 84.358 84.46 84.567 84.674 84.733 84.805 84.876 84.95 85.037 85.173 85.357 85.498 85.59 85.687 85.887 86.979 87.753 87.829 87.31 86.743 86.642 86.852 87.212 89.202 88.882 88.172 88.24 88.39 88.482 88.7 88.93 89.117 89.29 89.527 89.665 89.827 90.015 90.157 90.317 90.427 90.54 90.705 90.847 90.98 91.15 91.305 91.455 91.56 91.737 91.942 92.07 92.215 92.37 92.492 92.65 92.78 92.877 93.007 93.167 93.332 93.467 93.555 93.585 93.6 93.65 93.827 94.442 94.722 94.625 94.632 94.742 94.755 94.78 94.787 94.795 94.84 94.857 94.94 94.997 95.007 95.04 95.082 95.122 95.115 95.11 95.155 95.152 95.22 95.202 95.135 95.15 95.112 95.057 95.077 95.102 95.102 95.11 95.135 95.15 95.172 95.16 95.185 95.207 95.272 95.312 95.335 95.367 95.39 95.39 95.407 95.415 95.427 95.412 95.415 95.412 95.487 95.587 95.822 95.827 95.762 95.632 95.59 95.622 95.65 95.647 95.742 95.912 96.585 96.137 95.85 95.885 95.907 96.01 95.902 96.087 96.197 96.652 95.832 95.765 95.875 95.872 95.807 95.7 95.625 95.58 95.575 95.467 95.472 95.415 95.43 95.39 95.435 95.35 95.4 95.315 95.3 95.205 95.195 95.167 95.135 95.035 95.095 95 94.962 94.817 94.735 94.572 94.477 94.342 94.24 94.137 93.962 93.687 93.462 93.687 94.09 94.4 94.455 94.55 94.612 94.657 94.702 94.665 94.725 94.64 94.69 94.615 94.59 94.5 94.47 94.452 94.395 94.337 94.162 94.207 94.11 94 93.837 93.787 93.717 93.61 93.537 93.402 93.19 93.127 93.002 92.807 92.73 92.56 92.37 92.265 92.11 92.017 91.887 91.7 91.627 91.562 91.4 91.167 90.887 90.62 90.387 90.242 90.005 89.78 89.607 89.547 89.587 89.61 89.237 89.345 89.462 89.48 89.37 91.3 94.112 98.535 98.785 98.907 100.915 98.69 98.305 94.455 92.122 93.622 96.687 95.007 89.015 93.597 94.665 96.51 94.607 93.585 93.877 93.752 92.285 91.632 87.945 88.99 87.165 87.247 87.182 87.102 87.035 86.965 86.902 86.817 86.772 86.742 86.635 86.587 86.527 86.487 86.475 86.435 86.35 86.3 86.192 86.157 86.147 86.127 86.107 86.06 85.982 85.942 85.905 85.887 85.775 85.762 85.797 85.872 85.967 86.06 86.052 85.99 86.02 85.985 85.992 85.985 85.995 85.89 85.915 85.907 85.92 85.975 86.022 86.142 86.427 87.197 88.477 87.95 88.007 87.897 87.902 87.882 87.88 87.862 87.89 87.99 88.107 88.395 88.3 88.397 88.56 88.592 88.645 88.785 88.945 89.105 89.24 89.37 89.487 89.605 89.745 89.937 90.187 90.435 90.937 91.062 91.247 91.71 91.977 92.432 92.94 92.527 92.725 93.107 92.952 92.85 92.945 92.987 93.107 93.205 93.295 93.395 93.532 93.652 93.687 93.614 93.604 93.767 93.832 93.847 93.862 93.847 93.839 93.847 93.854 93.869 93.872 93.872 93.869 93.839 93.789 93.759 93.754 93.747 93.717 93.722 93.744 93.737 93.709 93.684 93.572 93.577 93.577 93.569 93.607 93.497 93.389 93.372 93.339 93.267 93.184 93.139 93.077 93.074 93.032 92.942 92.904 92.869 92.909 92.687 93.002 92.987 92.812 92.274 92.147 92.112 92.024 91.989 91.924 91.812 91.692 91.594 91.462 91.334 91.172 90.962
82.131 82.277 82.388 82.509 82.607 82.715 82.857 82.995 83.139 83.246 83.328 83.436 83.543 83.625 83.721 83.832 83.925 84.007 84.122 84.242 84.325 84.439 84.516 84.611 84.699 84.753 84.843 84.97 85.113 85.277 85.38 85.449 85.642 86.578 86.516 87.025 87.759 86.732 86.478 86.579 86.783 87.713 89.46 88.562 87.85 88.002 88.127 88.357 88.552 88.742 88.96 89.187 89.36 89.522 89.682 89.855 89.977 90.127 90.257 90.412 90.58 90.737 90.84 91.012 91.147 91.292 91.432 91.58 91.757 91.92 92.102 92.262 92.435 92.55 92.682 92.782 92.94 93.077 93.24 93.377 93.477 93.532 93.56 93.615 93.63 94.51 95.117 94.585 94.545 94.63 94.655 94.735 94.765 94.737 94.787 94.807 94.905 94.942 94.97 95.03 95.042 95.09 95.067 95.13 95.12 95.16 95.192 95.19 95.165 95.105 95.12 95.087 95.072 95.122 95.127 95.117 95.12 95.16 95.165 95.157 95.18 95.202 95.242 95.257 95.277 95.297 95.327 95.32 95.327 95.322 95.327 95.315 95.297 95.325 95.407 95.52 95.81 95.747 95.695 95.572 95.57 95.585 95.62 95.705 95.742 95.897 96.222 95.997 95.887 95.9 95.912 95.995 95.89 95.962 96.16 96.587 96.075 95.797 95.86 95.91 95.84 95.702 95.64 95.587 95.565 95.505 95.485 95.467 95.447 95.395 95.457 95.372 95.47 95.387 95.367 95.287 95.247 95.225 95.177 95.08 95.117 95.012 94.967 94.802 94.732 94.597 94.53 94.39 94.287 94.137 93.962 93.665 93.472 93.747 94.167 94.442 94.475 94.562 94.617 94.662 94.735 94.7 94.73 94.66 94.705 94.637 94.62 94.535 94.485 94.47 94.452 94.345 94.262 94.37 94.257 94.125 93.997 93.92 93.907 93.76 93.685 93.555 93.35 93.282 93.195 92.98 92.877 92.742 92.545 92.437 92.265 92.11 92.03 91.905 91.867 91.817 91.702 91.562 91.357 91.082 90.767 90.507 90.247 90.08 89.85 89.732 89.625 89.602 89.517 89.447 89.377 89.302 88.967 89.4 89.797 91.067 90.812 88.715 94.602 94.667 93.18 91.755 90.817 93.305 95.572 96.01 91.155 88.137 88.042 88.102 87.732 89.272 91.615 91.83 87.277 87.137 87.045 86.99 87.022 87.24 87.195 87.105 87.037 86.98 86.92 86.852 86.775 86.702 86.64 86.59 86.535 86.5 86.47 86.442 86.417 86.382 86.345 86.255 86.22 86.2 86.152 86.117 86.065 85.972 85.932 85.91 85.867 85.84 85.807 85.782 85.757 85.765 85.89 85.892 85.937 85.922 85.957 85.92 85.91 85.88 85.9 85.887 85.927 85.967 86.165 86.277 87.515 88.217 88.43 87.985 87.96 87.87 87.887 87.867 87.847 87.857 87.992 88.102 88.442 89.072 88.33 88.395 88.577 88.615 88.652 88.8 88.942 89.135 89.285 89.382 89.517 89.617 89.747 89.942 90.155 90.385 90.565 90.9 91.3 91.62 91.847 92.117 92.377 93.627 98.977 97.085 93.06 92.825 92.927 93.005 93.097 93.19 93.332 93.457 93.564 93.619 93.639 93.652 93.674 93.819 93.782 93.817 93.837 93.844 93.827 93.819 93.837 93.832 93.812 93.839 93.834 93.784 93.752 93.739 93.719 93.714 93.692 93.697 93.702 93.687 93.664 93.629 93.539 93.542 93.559 93.554 93.522 93.407 93.319 93.309 93.284 93.224 93.137 93.077 93.069 93.034 92.989 92.897 92.834 92.774 92.717 92.617 92.592 92.542 92.334 92.264 92.154 92.072 91.957 91.894 91.852 91.772 91.632 91.509 91.372 91.294 91.092 90.904
82.049 82.169 82.293 82.398 82.55 82.663 82.8 82.909 83.041 83.117 83.231 83.317 83.434 83.536 83.605 83.683 83.767 83.903 84.005 84.109 84.206 84.294 84.386 84.492 84.554 84.648 84.787 84.914 85.039 85.16 85.225 85.384 85.588 86.761 86.302 87.144 86.635 86.181 86.317 86.73 88.506 89.245 88.385 87.504 87.612 87.748 87.96 88.187 88.36 88.597 88.84 89.01 89.18 89.38 89.567 89.695 89.827 89.96 90.15 90.302 90.452 90.597 90.745 90.867 91.03 91.167 91.282 91.445 91.612 91.807 91.967 92.152 92.32 92.465 92.617 92.74 92.867 92.997 93.17 93.285 93.395 93.467 93.512 93.585 93.587 93.917 95.67 94.71 94.477 94.567 94.572 94.682 94.742 94.762 94.77 94.792 94.852 94.927 94.97 94.985 95.025 95.04 95.055 95.107 95.132 95.115 95.215 95.2 95.162 95.092 95.107 95.07 95.067 95.117 95.155 95.14 95.132 95.152 95.122 95.13 95.165 95.195 95.19 95.195 95.225 95.252 95.275 95.257 95.242 95.255 95.25 95.215 95.195 95.215 95.315 95.44 95.752 95.697 95.647 95.537 95.53 95.552 95.635 95.692 95.79 95.865 95.97 95.945 95.827 95.832 95.912 95.935 95.85 96.015 96.227 96.525 95.817 95.815 95.895 95.915 95.855 95.762 95.697 95.607 95.602 95.56 95.552 95.517 95.502 95.42 95.435 95.42 95.48 95.435 95.417 95.327 95.29 95.277 95.167 95.132 95.13 95.01 94.96 94.77 94.75 94.632 94.58 94.437 94.372 94.215 93.977 93.662 93.505 93.847 94.217 94.447 94.482 94.597 94.632 94.677 94.72 94.702 94.747 94.655 94.712 94.675 94.647 94.59 94.522 94.525 94.457 94.467 94.297 94.405 94.347 94.235 94.08 94.055 94.012 93.902 93.81 93.712 93.53 93.447 93.34 93.16 93.067 92.927 92.742 92.642 92.457 92.302 92.232 92.067 91.997 91.92 91.8 91.737 91.622 91.425 91.177 90.9 90.56 90.282 90.055 89.9 89.742 89.637 89.562 89.472 89.385 89.287 89.232 89.185 89.092 89.995 89.912 89.065 89.705 91.757 89.035 89.475 92.332 90.232 91.487 89.95 89.585 87.842 87.787 87.72 87.675 87.585 88.145 87.687 87.332 87.302 87.302 87.28 87.272 87.425 87.4 87.275 87.172 87.065 86.945 86.862 86.775 86.72 86.682 86.665 86.607 86.537 86.51 86.54 86.485 86.49 86.445 86.39 86.357 86.292 86.21 86.145 86.055 85.985 85.94 85.912 85.877 85.855 85.862 85.87 85.847 85.827 85.817 85.785 85.875 85.885 85.93 85.867 85.837 85.845 85.89 85.945 85.977 86.052 87.965 88.372 88.942 87.927 88.032 87.927 87.87 87.9 87.845 87.82 87.832 87.967 88.017 88.145 88.66 88.37 88.332 88.425 88.555 88.632 88.695 88.81 88.967 89.167 89.295 89.422 89.522 89.647 89.767 89.967 90.155 90.397 90.592 90.875 91.272 91.537 91.82 92.175 92.372 94.412 97.465 96.927 92.842 92.832 92.912 92.99 93.115 93.205 93.355 93.542 93.564 93.582 93.629 93.647 93.704 93.777 93.744 93.777 93.842 93.827 93.817 93.812 93.827 93.804 93.779 93.777 93.774 93.754 93.722 93.719 93.697 93.674 93.664 93.637 93.627 93.637 93.624 93.497 93.492 93.519 93.627 93.547 93.444 93.367 93.297 93.249 93.227 93.194 93.139 93.094 93.042 92.967 92.889 92.834 92.797 92.737 92.702 92.669 92.549 92.437 92.347 92.249 92.137 92.034 91.937 91.817 91.759 91.664 91.562 91.459 91.382 91.209 91.034 90.962
81.937 82.06 82.204 82.342 82.491 82.583 82.7 82.779 82.912 83.029 83.126 83.223 83.351 83.433 83.477 83.534 83.673 83.77 83.868 83.968 84.103 84.185 84.292 84.362 84.454 84.548 84.691 84.827 84.959 85.037 85.14 85.356 86.085 85.591 87.311 87.467 85.898 86.03 86.195 88.15 89.41 87.123 87.159 87.258 87.382 87.65 87.826 87.989 88.215 88.467 88.642 88.807 89.042 89.237 89.382 89.512 89.692 89.847 90.012 90.172 90.29 90.447 90.587 90.732 90.867 91 91.142 91.297 91.462 91.672 91.875 92.07 92.202 92.355 92.53 92.642 92.742 92.905 93.075 93.18 93.32 93.4 93.465 93.527 93.592 93.652 95.245 94.715 94.542 94.515 94.552 94.632 94.685 94.715 94.725 94.755 94.78 94.852 94.897 94.925 94.96 95.02 95.05 95.06 95.135 95.125 95.127 95.162 95.142 95.107 95.092 95.062 95.077 95.102 95.132 95.145 95.127 95.142 95.107 95.105 95.135 95.135 95.172 95.175 95.195 95.222 95.215 95.192 95.175 95.172 95.16 95.097 95.092 95.142 95.202 95.475 95.862 95.68 95.62 95.505 95.572 95.542 95.57 95.597 95.785 95.84 95.965 95.895 95.782 95.88 95.875 95.89 95.83 95.975 96.27 96.56 95.82 95.807 95.925 95.927 95.86 95.782 95.732 95.68 95.645 95.585 95.567 95.547 95.515 95.467 95.465 95.407 95.507 95.465 95.442 95.342 95.307 95.295 95.18 95.175 95.137 95.05 94.932 94.782 94.752 94.682 94.63 94.482 94.445 94.27 94.032 93.677 93.58 93.932 94.27 94.465 94.517 94.612 94.65 94.685 94.76 94.747 94.765 94.697 94.765 94.715 94.667 94.652 94.56 94.58 94.492 94.532 94.37 94.472 94.5 94.36 94.197 94.122 94.11 93.992 93.917 93.84 93.66 93.562 93.492 93.29 93.215 93.097 92.917 92.822 92.66 92.492 92.425 92.265 92.16 92.07 91.94 91.827 91.755 91.592 91.402 91.222 90.91 90.56 90.287 90.122 89.967 89.81 89.67 89.525 89.4 89.285 89.13 89.02 88.947 90.157 92.765 90.062 88.57 88.495 88.407 88.642 88.902 88.197 88.152 88.112 88.06 88.057 88.012 88.03 88.105 88.135 88.125 88.135 88.12 88.045 88.085 88.035 87.985 87.965 87.795 87.63 87.495 87.327 87.17 87.072 86.982 86.925 86.892 86.872 86.88 86.857 86.847 86.835 86.765 86.737 86.647 86.57 86.477 86.362 86.295 86.21 86.092 86.012 85.945 85.917 85.892 85.87 85.865 85.837 85.84 85.842 85.855 85.802 85.82 85.757 85.81 85.87 85.892 85.872 85.882 85.972 86.087 86.367 90.522 90.722 89.495 87.92 87.957 87.87 87.897 87.822 87.852 87.84 87.885 87.99 88.205 88.672 88.142 88.252 88.355 88.432 88.532 88.585 88.67 88.8 88.97 89.155 89.3 89.397 89.512 89.652 89.78 89.947 90.147 90.387 90.617 90.925 91.265 91.592 91.887 92.947 92.965 92.365 93.465 93.257 92.72 92.85 92.935 93.027 93.152 93.247 93.447 93.52 93.479 93.562 93.649 93.637 93.664 93.762 93.762 93.747 93.794 93.837 93.824 93.814 93.804 93.784 93.764 93.732 93.717 93.722 93.682 93.657 93.652 93.637 93.604 93.604 93.599 93.564 93.529 93.482 93.492 93.524 93.537 93.449 93.382 93.327 93.247 93.189 93.134 93.102 93.014 92.987 92.932 92.887 92.842 92.802 92.757 92.714 92.759 92.764 92.494 92.327 92.247 92.274 92.124 92.047 91.977 91.874 91.757 91.617 91.467 91.404 91.289 91.104 91.039 90.949
81.872 81.977 82.142 82.25 82.374 82.494 82.59 82.68 82.824 82.921 83.057 83.111 83.171 83.275 83.337 83.469 83.56 83.678 83.768 83.882 83.989 84.089 84.173 84.247 84.368 84.479 84.612 84.764 84.815 84.909 85.129 85.933 85.86 86.22 86.439 85.615 85.746 86.026 87.186 87.698 86.796 86.823 86.935 87.057 87.314 87.469 87.618 87.859 88.115 88.266 88.478 88.698 88.895 89.107 89.227 89.375 89.522 89.72 89.9 90.015 90.19 90.3 90.455 90.622 90.705 90.845 91.022 91.185 91.395 91.595 91.792 91.94 92.102 92.252 92.38 92.525 92.655 92.852 92.99 93.105 93.22 93.352 93.41 93.485 93.552 93.59 93.925 94.572 94.597 94.495 94.512 94.572 94.665 94.665 94.675 94.75 94.805 94.805 94.837 94.875 94.955 94.995 95.052 95.047 95.102 95.12 95.105 95.127 95.147 95.132 95.095 95.042 95.042 95.09 95.1 95.09 95.077 95.095 95.09 95.085 95.087 95.107 95.135 95.117 95.142 95.165 95.15 95.112 95.097 95.09 95.057 95.01 95.007 95.06 95.15 95.447 96.595 95.727 95.582 95.497 95.587 95.525 95.585 95.585 95.752 95.79 95.825 95.772 95.745 95.807 95.815 95.815 95.85 95.94 96.252 96.152 95.817 95.82 95.91 95.942 95.875 95.792 95.762 95.707 95.67 95.607 95.602 95.577 95.532 95.497 95.48 95.442 95.482 95.465 95.422 95.362 95.29 95.292 95.185 95.205 95.145 95.075 94.917 94.825 94.77 94.727 94.655 94.565 94.472 94.34 94.067 93.677 93.672 94.007 94.317 94.497 94.547 94.622 94.665 94.71 94.775 94.745 94.807 94.717 94.775 94.747 94.705 94.682 94.572 94.6 94.557 94.622 94.49 95.275 95.342 94.447 94.3 94.145 94.152 94.077 93.99 93.937 93.757 93.657 93.63 93.45 93.352 93.275 93.072 92.987 92.852 92.662 92.622 92.482 92.34 92.26 92.097 91.955 91.887 91.69 91.5 91.342 91.135 90.875 90.652 90.472 90.325 90.14 89.97 89.76 89.59 89.425 89.237 89.037 88.897 88.825 88.722 88.69 88.62 88.585 88.575 88.577 88.525 88.522 88.597 88.71 88.795 88.852 88.81 88.77 88.815 88.86 88.862 88.827 88.847 88.785 88.7 88.617 88.567 88.51 88.285 88.08 87.942 87.712 87.542 87.442 87.36 87.287 87.262 87.28 87.322 87.37 87.387 87.395 87.4 87.33 87.195 87 86.81 86.62 86.447 86.317 86.202 86.062 85.935 85.88 85.872 85.882 85.872 85.837 85.845 85.865 85.83 85.802 85.837 85.86 85.795 85.745 85.782 85.835 85.902 86.03 86.295 87.607 91.262 91.275 87.99 87.882 87.905 87.862 87.81 87.807 87.865 87.95 87.977 88.102 88.287 88.297 88.175 88.335 88.41 88.49 88.512 88.517 88.642 88.787 88.942 89.142 89.295 89.412 89.54 89.647 89.78 89.92 90.107 90.375 90.65 90.97 91.315 91.65 92.677 95.047 92.565 92.295 92.397 92.555 92.72 92.85 92.935 93.067 93.205 93.3 93.345 93.412 93.464 93.554 93.632 93.652 93.687 93.712 93.757 93.784 93.767 93.754 93.782 93.782 93.772 93.762 93.727 93.667 93.687 93.677 93.652 93.632 93.614 93.589 93.569 93.557 93.544 93.487 93.419 93.469 93.512 93.537 93.464 93.384 93.334 93.274 93.169 93.104 93.054 92.997 92.984 92.944 92.879 92.857 92.839 92.774 92.679 93.367 93.414 92.644 92.364 92.329 92.317 92.154 92.102 92.002 91.982 91.912 91.784 91.632 91.434 91.312 91.217 91.094 91.047 90.892
81.842 81.962 82.077 82.187 82.272 82.367 82.5 82.629 82.734 82.846 82.924 83.008 83.06 83.153 83.272 83.366 83.44 83.556 83.646 83.772 83.858 83.939 84.052 84.151 84.289 84.421 84.559 84.657 84.739 85.03 85.664 86.039 85.999 86.274 85.428 85.508 85.731 86.883 87.384 86.697 86.525 86.626 86.783 86.966 87.135 87.287 87.52 87.754 87.941 88.146 88.389 88.58 88.767 88.935 89.095 89.223 89.405 89.587 89.742 89.902 89.997 90.172 90.335 90.482 90.582 90.76 90.925 91.112 91.315 91.5 91.675 91.835 92 92.155 92.317 92.472 92.612 92.722 92.877 93.022 93.122 93.272 93.397 93.442 93.492 93.555 93.73 94.315 94.685 94.472 94.497 94.502 94.602 94.64 94.642 94.665 94.735 94.732 94.81 94.845 94.9 94.97 94.967 95.04 95.06 95.055 95.067 95.145 95.115 95.1 95.085 95.03 95.03 95.072 95.08 95.062 95.032 95.04 95.055 95.03 95.042 95.052 95.082 95.087 95.09 95.107 95.057 95.04 95.015 94.992 94.985 94.955 94.955 94.995 95.065 96.612 99.177 96.077 95.52 95.475 95.515 95.492 95.587 95.59 95.727 95.795 95.815 95.752 95.732 95.745 95.8 95.765 95.795 95.935 96.36 96.032 95.817 95.83 95.885 95.897 95.862 95.8 95.777 95.732 95.712 95.612 95.587 95.565 95.54 95.512 95.487 95.47 95.475 95.405 95.387 95.355 95.252 95.265 95.15 95.2 95.097 95.045 94.897 94.9 94.817 94.765 94.662 94.625 94.502 94.345 94.03 93.675 93.752 94.092 94.33 94.52 94.57 94.647 94.675 94.73 94.807 94.772 94.837 94.725 94.825 94.787 94.727 94.737 94.625 94.61 94.6 94.67 94.847 94.622 95.007 94.455 94.347 94.212 94.19 94.125 94.05 94.032 93.857 93.74 93.72 93.565 93.48 93.41 93.242 93.142 93.035 92.85 92.802 92.712 92.535 92.48 92.285 92.117 92.035 91.85 91.65 91.49 91.27 91.075 90.937 90.785 90.672 90.522 90.352 90.115 89.892 89.765 89.655 89.517 89.45 89.397 89.29 89.192 89.152 89.13 89.172 89.25 89.2 89.195 89.3 89.357 89.41 89.445 89.405 89.35 89.277 89.315 89.322 89.247 89.25 89.235 89.107 89.005 88.982 88.905 88.692 88.517 88.387 88.152 87.93 87.835 87.765 87.74 87.747 87.807 87.892 87.965 87.99 88.005 87.94 87.852 87.71 87.542 87.285 87.065 86.842 86.612 86.357 86.125 85.96 85.937 85.92 85.862 85.845 85.852 85.822 85.832 85.82 85.822 85.807 85.805 85.787 85.777 85.752 85.745 86.007 86.077 86.615 90.077 88.567 88.527 87.922 87.86 87.867 87.812 87.807 87.83 87.955 88.007 88.07 88.872 88.415 88.202 88.3 88.415 88.477 88.502 88.49 88.552 88.65 88.77 88.952 89.115 89.277 89.387 89.502 89.64 89.732 89.855 90.04 90.395 90.662 91.007 91.38 91.73 91.93 91.987 92.07 92.232 92.402 92.575 92.78 92.877 92.975 93.102 93.215 93.25 93.282 93.337 93.534 95.377 94.057 93.702 93.702 93.674 93.757 93.762 93.749 93.757 93.752 93.762 93.764 93.724 93.664 93.667 93.654 93.614 93.597 93.597 93.564 93.517 93.517 93.517 93.447 93.412 93.392 93.452 93.519 93.492 93.379 93.284 93.237 93.202 93.154 93.099 93.034 92.972 92.942 92.869 92.834 92.797 92.779 92.682 92.697 93.534 92.872 92.394 92.329 92.289 92.234 92.204 92.047 91.957 91.957 91.872 91.767 91.627 91.477 91.249 91.157 91.072 90.964 90.859
81.79 81.887 82.025 82.1 82.21 82.287 82.4 82.517 82.652 82.7 82.803 82.893 82.979 83.059 83.165 83.281 83.397 83.475 83.575 83.661 83.707 83.859 83.903 84.103 84.225 84.365 84.451 84.514 85.053 86.952 87.409 87.099 85.573 85.211 85.31 85.735 86.403 86.542 86.104 86.213 86.332 86.474 86.687 86.799 86.985 87.174 87.389 87.594 87.802 88.025 88.219 88.407 88.576 88.759 88.947 89.13 89.271 89.427 89.624 89.732 89.88 90.03 90.185 90.317 90.425 90.68 90.882 91.037 91.197 91.342 91.557 91.747 91.897 92.062 92.232 92.38 92.522 92.657 92.787 92.935 93.027 93.192 93.322 93.39 93.425 93.522 93.615 94.03 94.622 94.542 94.467 94.547 94.585 94.615 94.617 94.605 94.695 94.707 94.762 94.822 94.837 94.887 94.935 94.985 95.007 95.027 95.057 95.057 95.062 95.022 95.04 95.017 94.985 95.03 95.04 95.027 94.982 94.987 94.985 94.987 94.995 94.987 94.997 95.015 95.01 95.02 94.977 94.97 94.957 94.94 94.915 94.887 94.895 94.937 95.057 95.71 96.567 95.69 95.48 95.47 95.482 95.487 95.51 95.602 95.71 95.752 95.777 95.687 95.685 95.707 95.785 95.737 95.787 95.912 96.407 95.967 95.765 95.852 95.887 95.912 95.852 95.83 95.8 95.74 95.705 95.602 95.565 95.515 95.487 95.5 95.465 95.44 95.425 95.365 95.3 95.265 95.242 95.227 95.155 95.18 95.12 95.072 94.952 94.957 94.822 94.807 94.697 94.65 94.522 94.36 93.97 93.652 93.805 94.142 94.397 94.53 94.6 94.667 94.71 94.742 94.82 94.802 94.84 94.79 94.905 94.877 94.797 94.8 94.67 94.65 94.655 94.697 94.587 94.452 94.612 94.557 94.385 94.235 94.232 94.19 94.087 94.082 93.937 93.792 93.767 93.692 93.6 93.557 93.395 93.287 93.202 93.025 92.985 92.917 92.72 92.665 92.475 92.285 92.212 92.04 91.832 91.702 91.45 91.3 91.18 90.992 90.867 90.79 90.61 90.46 90.342 90.24 90.112 90.04 89.962 89.932 89.865 89.72 89.68 89.65 89.657 89.715 89.725 89.68 89.755 89.802 89.78 89.787 89.815 89.77 89.65 89.68 89.697 89.605 89.56 89.6 89.527 89.365 89.375 89.287 89.107 88.965 88.845 88.66 88.427 88.31 88.23 88.212 88.275 88.395 88.49 88.557 88.565 88.542 88.465 88.337 88.16 87.935 87.69 87.385 87.112 86.862 86.565 86.27 86.06 85.995 85.975 85.905 85.842 85.832 85.86 85.852 85.85 85.817 85.807 85.795 85.787 85.822 85.842 86.36 88.385 86.162 87.117 88.31 88.025 87.942 87.865 87.892 87.875 87.805 87.847 87.935 88.062 88.147 88.87 88.645 88.252 88.322 88.402 88.452 88.487 88.51 88.515 88.582 88.672 88.815 88.982 89.117 89.247 89.317 89.45 89.565 89.647 89.845 90.05 90.387 90.742 91.112 91.442 91.652 91.805 91.89 92.052 92.212 92.455 92.69 92.827 92.922 93.037 93.09 93.08 93.13 93.197 93.265 93.984 95.604 95.439 93.794 93.669 93.652 93.702 93.789 93.744 93.684 93.717 93.732 93.712 93.692 93.647 93.619 93.582 93.552 93.564 93.534 93.497 93.469 93.477 93.427 93.339 93.369 93.422 93.482 93.482 93.337 93.234 93.149 93.132 93.077 93.027 92.999 92.949 92.937 92.862 92.787 92.739 92.727 92.694 92.774 92.854 92.647 92.427 92.342 92.344 92.254 92.159 92.129 92.032 92.017 91.919 91.832 91.689 91.549 91.382 91.227 91.157 91.034 90.917 90.804
81.697 81.805 81.897 82 82.097 82.182 82.327 82.437 82.55 82.62 82.65 82.782 82.865 82.965 83.085 83.177 83.297 83.389 83.482 83.51 83.588 83.713 83.846 84.016 84.156 84.271 84.33 84.655 86.326 87.862 87.072 85.796 84.965 85.086 85.308 86.613 86.191 85.852 85.918 86.051 86.239 86.404 86.508 86.663 86.867 87.071 87.266 87.47 87.684 87.891 88.06 88.241 88.422 88.599 88.794 88.974 89.138 89.286 89.415 89.593 89.761 89.897 89.992 90.107 90.392 90.6 90.755 90.937 91.09 91.245 91.457 91.66 91.805 91.997 92.152 92.282 92.445 92.57 92.672 92.832 92.992 93.107 93.252 93.332 93.402 93.46 93.515 93.74 94.47 94.577 94.44 94.48 94.542 94.585 94.642 94.605 94.647 94.68 94.727 94.785 94.785 94.812 94.882 94.947 94.967 94.975 95.02 95.065 95.06 95.007 94.985 94.94 94.927 95.002 94.985 95 94.952 94.937 94.927 94.932 94.892 94.917 94.922 94.937 94.945 94.915 94.877 94.897 94.887 94.872 94.825 94.84 94.845 94.89 95.072 95.785 95.735 95.59 95.447 95.447 95.432 95.485 95.515 95.565 95.667 95.74 95.81 95.665 95.722 95.657 95.765 95.69 95.782 95.947 96.295 95.915 95.715 95.732 95.725 95.747 95.785 95.8 95.765 95.717 95.687 95.56 95.492 95.452 95.465 95.457 95.387 95.387 95.39 95.332 95.26 95.247 95.247 95.21 95.167 95.185 95.137 95.092 94.99 94.972 94.855 94.822 94.692 94.645 94.52 94.302 93.922 93.617 93.885 94.225 94.395 94.54 94.595 94.685 94.735 94.737 94.822 94.802 94.85 94.857 94.915 94.91 94.862 94.817 94.68 94.702 94.692 94.715 94.56 94.407 94.59 94.505 94.422 94.277 94.257 94.217 94.132 94.097 93.992 93.862 93.852 93.8 93.685 93.67 93.525 93.402 93.337 93.175 93.12 93.07 92.912 92.837 92.692 92.455 92.4 92.245 92.037 91.872 91.655 91.462 91.367 91.187 91.057 90.97 90.822 90.675 90.615 90.517 90.435 90.39 90.295 90.225 90.18 90.032 90.015 90.01 89.972 90.017 90.087 90.06 90.05 90.165 90.135 90.05 90.115 90.117 90.055 90.035 90.09 90.002 89.857 89.92 89.895 89.73 89.697 89.642 89.535 89.39 89.302 89.135 88.885 88.785 88.732 88.74 88.852 88.975 89.067 89.095 89.032 88.945 88.827 88.672 88.475 88.235 87.97 87.63 87.337 87.042 86.762 86.452 86.21 86.042 86.027 85.972 85.972 85.917 85.857 85.872 85.86 85.837 85.832 85.81 85.797 85.82 85.932 86.922 89.3 89.54 88.2 88.005 87.97 87.882 87.847 87.817 87.852 87.802 87.905 87.972 88.005 88.707 88.537 88.247 88.315 88.39 88.415 88.437 88.475 88.5 88.52 88.567 88.692 88.847 88.982 89.095 89.16 89.227 89.335 89.44 89.545 89.767 89.997 90.357 90.76 91.13 91.392 91.587 91.687 91.835 91.995 92.225 92.477 92.71 92.865 92.947 93.02 93.042 93.052 93.087 93.162 93.202 93.397 93.494 93.719 95.297 94.142 93.614 93.617 93.637 93.652 93.709 93.694 93.644 93.664 93.682 93.634 93.594 93.529 93.509 93.487 93.479 93.454 93.427 93.402 93.304 93.324 93.377 93.434 93.457 93.342 93.209 93.152 93.097 93.077 93.037 92.949 92.919 92.887 92.844 92.787 92.742 92.697 92.664 92.687 93.169 92.687 92.442 92.297 92.297 92.282 92.227 92.157 92.094 92.027 91.964 91.934 91.822 91.629 91.437 91.277 91.269 91.272 91.019 90.879 90.752
81.612 81.712 81.827 81.922 82 82.12 82.25 82.327 82.425 82.515 82.6 82.717 82.827 82.922 83.007 83.09 83.203 83.277 83.307 83.379 83.489 83.674 83.832 83.975 84.089 84.102 84.349 85.827 87.214 87.269 84.8 84.741 84.856 85.028 86.294 85.939 85.563 85.615 85.766 85.917 86.1 86.22 86.401 86.573 86.737 86.92 87.142 87.342 87.539 87.701 87.889 88.085 88.258 88.438 88.638 88.815 88.979 89.114 89.258 89.437 89.609 89.719 89.857 90.086 90.329 90.485 90.647 90.822 90.99 91.19 91.377 91.552 91.727 91.905 92.06 92.24 92.35 92.485 92.585 92.745 92.91 93.067 93.177 93.272 93.36 93.425 93.495 93.59 94.177 94.627 94.437 94.445 94.487 94.54 94.595 94.595 94.637 94.63 94.665 94.745 94.757 94.822 94.8 94.885 94.907 94.925 94.942 94.992 94.99 94.98 94.952 94.827 94.895 94.945 94.965 94.93 94.905 94.865 94.845 94.847 94.827 94.837 94.83 94.857 94.865 94.832 94.84 94.827 94.847 94.835 94.825 94.81 94.84 94.907 95.287 95.702 95.622 95.54 95.412 95.457 95.402 95.43 95.477 95.582 95.662 95.667 95.682 95.6 95.615 95.665 95.702 95.652 95.765 95.905 96.085 95.795 95.632 95.557 95.545 95.56 95.662 95.735 95.732 95.662 95.645 95.517 95.415 95.405 95.372 95.397 95.365 95.357 95.357 95.332 95.245 95.235 95.205 95.16 95.155 95.147 95.095 95.067 95.015 94.965 94.86 94.787 94.705 94.587 94.482 94.19 93.755 93.662 93.972 94.287 94.367 94.515 94.585 94.675 94.712 94.74 94.795 94.775 94.875 94.877 94.905 94.915 94.82 94.812 94.677 94.707 94.69 94.775 94.64 94.407 94.532 94.525 94.427 94.302 94.235 94.225 94.15 94.107 94.037 93.902 93.92 93.855 93.757 93.76 93.637 93.53 93.465 93.3 93.242 93.207 93.052 92.972 92.852 92.622 92.557 92.442 92.23 92.097 91.875 91.65 91.58 91.402 91.235 91.177 91.02 90.877 90.855 90.752 90.66 90.677 90.572 90.442 90.445 90.347 90.277 90.322 90.302 90.28 90.405 90.447 90.372 90.51 90.522 90.377 90.417 90.477 90.41 90.315 90.417 90.367 90.187 90.19 90.215 90.032 89.987 89.995 89.922 89.807 89.72 89.53 89.302 89.187 89.197 89.262 89.38 89.48 89.475 89.382 89.267 89.12 88.972 88.777 88.597 88.432 88.2 87.932 87.6 87.28 87.005 86.685 86.44 86.197 86.067 85.987 86.002 85.977 85.92 85.89 85.89 85.885 85.86 85.845 85.842 86.547 87.265 89.575 92.325 91.252 88.177 88.032 87.885 87.877 87.797 87.825 87.865 87.887 87.962 87.932 88.092 88.262 88.19 88.31 88.337 88.41 88.442 88.457 88.442 88.515 88.52 88.585 88.667 88.79 88.877 88.957 89.027 89.09 89.182 89.312 89.485 89.73 90.022 90.43 90.877 91.155 91.307 91.49 91.672 91.835 92.032 92.25 92.487 93.6 94.185 93.76 92.887 92.922 92.977 93.02 93.097 93.26 93.384 94.274 94.379 94.954 94.837 93.727 93.609 93.589 93.584 93.647 93.629 93.587 93.589 93.637 93.632 93.542 93.494 93.489 93.457 93.454 93.449 93.392 93.292 93.317 93.327 93.397 93.412 93.337 93.217 93.127 93.072 93.064 93.054 92.989 92.909 92.857 92.812 92.779 92.727 92.719 92.649 92.962 93.207 92.974 92.434 92.299 92.277 92.272 92.187 92.164 92.127 92.069 92.014 91.964 91.874 91.724 91.577 91.422 91.359 91.254 91.172 91.004 90.899 90.747
81.552 81.627 81.757 81.847 81.922 82.045 82.102 82.207 82.3 82.417 82.527 82.612 82.74 82.835 82.912 82.967 83.052 83.152 83.227 83.335 83.492 83.637 83.756 83.912 83.927 84.086 84.946 86.182 87.03 84.945 84.582 84.673 84.998 86.002 85.512 85.233 85.315 85.489 85.668 85.816 85.972 86.136 86.292 86.426 86.613 86.809 87.013 87.201 87.387 87.57 87.732 87.904 88.089 88.301 88.477 88.655 88.783 88.952 89.115 89.295 89.415 89.548 89.787 90.02 90.18 90.345 90.528 90.716 90.885 91.012 91.21 91.442 91.625 91.787 91.957 92.105 92.26 92.377 92.487 92.64 92.855 93.005 93.135 93.235 93.3 93.387 93.45 93.47 93.887 94.547 94.47 94.412 94.465 94.477 94.517 94.555 94.585 94.57 94.62 94.62 94.695 94.742 94.812 94.837 94.87 94.845 94.845 94.872 94.917 94.985 94.942 94.822 94.845 94.877 94.897 94.862 94.86 94.8 94.765 94.747 94.76 94.75 94.735 94.765 94.767 94.78 94.765 94.79 94.792 94.815 94.81 94.797 94.812 94.897 95.4 95.65 95.55 95.462 95.405 95.412 95.465 95.48 95.537 95.605 95.607 95.627 95.607 95.567 95.592 95.615 95.66 95.632 95.737 95.97 96.075 95.707 95.537 95.44 95.425 95.49 95.605 95.645 95.63 95.562 95.535 95.425 95.35 95.365 95.372 95.402 95.322 95.347 95.297 95.28 95.207 95.19 95.182 95.132 95.105 95.095 95.117 95.005 94.99 94.935 94.87 94.73 94.65 94.525 94.39 93.98 93.617 93.757 94.1 94.282 94.325 94.475 94.565 94.63 94.682 94.71 94.785 94.762 94.837 94.85 94.89 94.882 94.79 94.822 94.73 94.72 94.737 94.772 94.642 94.422 94.512 94.502 94.417 94.29 94.242 94.247 94.17 94.152 94.072 93.942 93.94 93.912 93.817 93.827 93.712 93.605 93.577 93.425 93.362 93.345 93.182 93.11 92.99 92.77 92.707 92.622 92.45 92.3 92.107 91.865 91.797 91.632 91.447 91.407 91.26 91.082 91.077 91.017 90.892 90.92 90.84 90.667 90.692 90.63 90.527 90.62 90.617 90.56 90.65 90.76 90.705 90.805 90.862 90.737 90.687 90.802 90.76 90.607 90.692 90.665 90.495 90.412 90.46 90.322 90.247 90.31 90.267 90.162 90.067 89.897 89.695 89.577 89.625 89.712 89.752 89.767 89.685 89.53 89.382 89.232 89.065 88.885 88.717 88.552 88.355 88.127 87.85 87.535 87.262 87.017 86.83 86.645 86.457 86.27 86.117 86.037 85.982 85.962 85.977 85.965 85.957 85.945 86.405 86.992 88.61 89.03 90.417 88.197 88.065 87.935 87.845 87.927 87.895 87.86 87.9 87.972 88.155 88.705 88.017 88.15 88.225 88.315 88.362 88.427 88.437 88.432 88.475 88.482 88.507 88.577 88.645 88.715 88.767 88.81 88.885 88.965 89.075 89.347 90.107 90.02 90.18 90.56 90.957 91.16 91.305 91.492 91.657 91.79 92.027 92.227 92.455 92.692 92.822 93.137 92.78 92.852 92.905 92.952 93.25 93.175 94.132 97.134 97.332 94.709 94.429 93.662 93.612 93.559 93.552 93.519 93.587 93.562 93.537 93.582 93.554 93.499 93.492 93.462 93.427 93.404 93.409 93.289 93.274 93.294 93.354 93.364 93.369 93.204 93.154 93.052 93.017 93.024 93.017 92.942 92.884 92.804 92.762 92.692 92.669 92.642 93.037 93.877 93.054 92.469 92.282 92.279 92.257 92.217 92.149 92.107 92.094 92.042 91.972 91.892 91.792 91.652 91.512 91.439 91.342 91.232 91.129 91.019 90.914 90.784
81.475 81.55 81.652 81.752 81.842 81.91 82.005 82.135 82.217 82.332 82.425 82.505 82.61 82.707 82.77 82.852 82.935 83.035 83.12 83.327 83.48 83.592 83.7 83.745 83.91 84.644 86.388 85.859 84.773 84.39 84.446 84.852 85.977 85.15 84.928 85.087 85.266 85.401 85.579 85.683 85.831 85.995 86.15 86.327 86.511 86.689 86.861 87.055 87.239 87.384 87.56 87.773 87.965 88.153 88.311 88.462 88.626 88.84 88.98 89.104 89.244 89.462 89.712 89.901 90.047 90.205 90.399 90.56 90.703 90.918 91.142 91.35 91.502 91.68 91.84 91.992 92.162 92.305 92.46 92.6 92.777 92.937 93.052 93.172 93.255 93.325 93.402 93.42 93.615 94.312 94.525 94.36 94.422 94.437 94.485 94.55 94.527 94.5 94.542 94.575 94.637 94.7 94.755 94.79 94.787 94.762 94.81 94.827 94.895 94.912 94.88 94.775 94.765 94.805 94.817 94.805 94.792 94.747 94.692 94.657 94.67 94.667 94.657 94.687 94.722 94.725 94.75 94.755 94.777 94.795 94.797 94.802 94.825 94.92 95.467 95.595 95.515 95.422 95.427 95.422 95.485 95.45 95.512 95.6 95.647 95.657 95.557 95.54 95.567 95.632 95.592 95.677 95.732 96.072 96.077 95.51 95.365 95.302 95.29 95.395 95.505 95.537 95.542 95.455 95.465 95.38 95.325 95.37 95.327 95.332 95.245 95.297 95.257 95.222 95.177 95.112 95.1 95.02 95.052 95.032 95.04 94.945 94.992 94.877 94.802 94.66 94.557 94.44 94.2 93.752 93.57 93.865 94.152 94.3 94.305 94.457 94.54 94.61 94.67 94.685 94.78 94.74 94.807 94.762 94.785 94.842 94.757 94.807 94.762 94.74 94.757 94.745 94.67 94.432 94.462 94.497 94.415 94.282 94.225 94.227 94.15 94.132 94.092 93.975 93.975 93.975 93.865 93.857 93.795 93.662 93.667 93.53 93.437 93.445 93.292 93.207 93.11 92.907 92.835 92.785 92.602 92.482 92.29 92.065 91.99 91.862 91.662 91.607 91.517 91.335 91.327 91.252 91.115 91.137 91.115 90.917 90.92 90.922 90.777 90.837 90.895 90.81 90.9 91.035 91.007 91.045 91.152 91.07 90.952 91.05 91.06 90.912 90.94 90.97 90.797 90.682 90.717 90.592 90.502 90.58 90.557 90.437 90.397 90.272 90.045 89.942 90.002 90.012 89.987 89.895 89.77 89.65 89.475 89.297 89.112 88.952 88.747 88.58 88.385 88.185 88.007 87.82 87.62 87.442 87.295 87.177 87.025 86.832 86.622 86.395 86.182 86.05 86.052 86.087 86.092 86.145 87.36 88.62 92.35 89.942 88.227 88.082 88 87.97 87.88 87.9 87.865 87.86 87.95 87.955 88.735 88.167 88.057 88.18 88.245 88.295 88.327 88.405 88.402 88.41 88.412 88.437 88.495 88.53 88.6 88.672 88.69 88.725 88.792 88.935 89.47 92.035 91.615 91.02 90.665 90.66 90.94 91.122 91.312 91.492 91.625 91.762 91.927 92.155 92.507 92.492 93.465 94.042 92.75 92.817 92.812 92.885 93.272 93.627 94.039 94.672 95.564 94.797 93.657 93.567 93.639 93.619 93.537 93.494 93.519 93.522 93.552 93.482 93.509 93.492 93.484 93.442 93.402 93.359 93.272 93.242 93.269 93.342 93.352 93.254 93.172 93.092 93.024 92.987 92.977 92.969 92.929 92.884 92.834 92.772 92.709 92.649 92.639 92.769 94.522 94.409 92.554 92.257 92.272 92.257 92.192 92.144 92.132 92.122 92.064 92.044 91.947 91.844 91.757 91.577 91.562 91.452 91.344 91.214 91.087 91.002 90.864 90.764
81.377 81.467 81.54 81.617 81.69 81.817 81.91 82.01 82.1 82.215 82.34 82.407 82.517 82.607 82.695 82.745 82.83 82.975 83.182 83.295 83.39 83.527 83.53 83.71 84.175 85.807 86.292 84.374 84.265 84.326 85.023 86.806 85.214 84.696 84.907 85.073 85.197 85.312 85.455 85.598 85.721 85.871 86.045 86.218 86.398 86.552 86.692 86.882 87.054 87.24 87.428 87.6 87.795 87.971 88.104 88.276 88.496 88.663 88.768 88.932 89.128 89.371 89.589 89.734 89.854 90.057 90.258 90.429 90.627 90.866 91.029 91.215 91.415 91.587 91.725 91.91 92.06 92.227 92.39 92.512 92.667 92.85 92.997 93.092 93.202 93.235 93.342 93.395 93.497 94.085 94.565 94.337 94.332 94.467 94.442 94.477 94.497 94.537 94.525 94.567 94.565 94.622 94.68 94.742 94.715 94.73 94.725 94.807 94.785 94.835 94.82 94.757 94.677 94.707 94.74 94.725 94.695 94.665 94.642 94.607 94.617 94.625 94.635 94.64 94.647 94.715 94.742 94.752 94.795 94.812 94.782 94.802 94.84 94.962 95.465 95.517 95.485 95.39 95.43 95.42 95.405 95.447 95.497 95.592 95.727 95.675 95.502 95.585 95.55 95.577 95.567 95.662 95.752 96.085 95.882 95.287 95.217 95.16 95.202 95.267 95.407 95.417 95.435 95.362 95.367 95.362 95.315 95.335 95.282 95.247 95.172 95.237 95.18 95.15 95.122 95.05 95.062 94.955 94.982 94.932 94.942 94.867 94.89 94.797 94.702 94.55 94.457 94.305 93.992 93.577 93.627 93.932 94.19 94.265 94.28 94.447 94.52 94.602 94.667 94.645 94.752 94.735 94.8 94.757 94.77 94.827 94.77 94.815 94.777 94.74 94.747 94.76 94.712 94.455 94.462 94.512 94.405 94.297 94.21 94.23 94.145 94.132 94.12 94.002 93.982 94.017 93.917 93.885 93.847 93.727 93.735 93.625 93.502 93.517 93.39 93.29 93.205 93.025 92.957 92.935 92.77 92.647 92.51 92.24 92.187 92.075 91.857 91.807 91.735 91.555 91.517 91.482 91.337 91.342 91.332 91.155 91.13 91.15 91.045 91.062 91.142 91.092 91.12 91.267 91.272 91.262 91.385 91.345 91.21 91.267 91.317 91.177 91.145 91.2 91.062 90.89 90.955 90.885 90.747 90.805 90.785 90.687 90.635 90.55 90.367 90.287 90.28 90.205 90.085 89.965 89.887 89.73 89.522 89.335 89.152 88.977 88.79 88.665 88.552 88.462 88.355 88.282 88.152 88.055 87.877 87.727 87.517 87.305 87.082 86.82 86.547 86.242 86.132 86.222 86.295 86.585 89.267 88.442 91.025 88.895 88.125 88.027 87.997 87.925 87.937 87.86 87.887 87.902 87.97 88.147 88.29 88.072 88.16 88.192 88.242 88.245 88.277 88.362 88.417 88.422 88.417 88.412 88.447 88.465 88.502 88.565 88.605 88.652 88.78 91.05 92.87 92.392 91.427 90.962 90.692 90.795 90.932 91.092 91.305 91.507 91.625 91.757 91.935 92.127 92.31 92.445 92.55 92.602 92.685 92.67 92.797 92.915 93.815 94.97 95.394 95.074 95.252 94.012 93.422 93.482 93.537 93.564 93.554 93.492 93.449 93.397 93.454 93.462 93.427 93.437 93.447 93.417 93.377 93.234 93.222 93.237 93.304 93.329 93.237 93.149 93.079 92.999 92.939 92.972 92.944 92.914 92.869 92.794 92.764 92.734 92.652 92.637 92.599 94.047 93.662 93.014 92.327 92.262 92.282 92.204 92.129 92.102 92.109 92.092 92.054 92.004 91.967 91.767 91.654 91.599 91.539 91.419 91.317 91.227 91.094 90.979 90.847 90.697
