ncols 430
nrows 32
xllcorner    426052
yllcorner    541696
cellsize     2
NODATA_value -9999
78.935 78.995 79.237 79.03 78.98 79.435 84.335 86.41 87.057 86.582 84.857 81.04 81.12 81.07 80.567 80.205 79.897 80.34 82.542 82.175 80.45 80.507 81.91 83.542 82.935 81.012 82.132 82.207 82.545 82.865 83.042 83.172 83.722 83.387 83.58 83.425 83.412 83.457 83.422 83.395 83.52 83.45 84.137 84.335 85.032 85.83 86.165 86.38 86.742 87.332 87.662 88.192 88.67 89.152 89.552 90.122 90.442 91.12 91.552 92.302 92.592 92.905 93.475 93.697 93.972 94.092 94.37 94.845 95.14 94.665 94.565 94.585 94.602 94.575 94.53 94.66 95.107 95.69 96.322 96.927 97.79 98.492 100.355 102.64 104.59 105.072 105.077 100.915 99.157 99.385 99.54 100.497 100.237 100.182 100.227 101.61 102.67 106.755 108.662 108.88 107.167 103.96 100.365 100.82 99.695 99.607 100.477 100.095 100.747 99.91 99.88 104.442 106.792 106.535 105.327 103.385 100.542 100.102 99.37 99.602 98.875 98.787 98.67 98.907 99.125 98.612 98.58 98.562 99.237 99.225 98.51 98.492 98.487 98.475 98.485 98.612 99.797 99.945 98.622 98.547 98.87 99.137 99.195 99.152 99.125 99.2 99.172 99.117 99.027 100.077 105.132 108.27 108.775 107.67 102.097 99.455 99.612 98.682 98.635 98.635 98.615 98.587 98.737 98.895 98.662 98.682 100.15 107.085 108.772 107.627 99.645 98.552 98.212 98.397 99.985 107.775 107.752 107.645 107.497 107.355 107.122 106.777 106.64 106.485 106.34 100.552 97.235 97.2 97.325 97.267 97.297 97.615 97.457 97.057 97.092 97.067 98.305 97.905 97.18 97 96.96 96.942 96.957 97.03 99.265 98.367 96.952 96.962 96.92 97.362 97.175 96.997 97.03 97.09 97.097 97.582 97.635 97.255 97.282 97.842 97.262 97.267 97.202 97.115 98.422 105.445 106.905 106.66 105.385 99.152 96.94 96.87 96.752 96.695 96.595 96.52 96.91 97.375 97.242 96.93 96.88 96.862 96.867 96.732 96.627 96.645 96.64 96.64 96.595 96.272 97.47 97.7 96.507 96.577 96.64 96.67 96.032 95.377 95.352 95.207 95.482 97.142 97.075 96.442 94.995 93.442 93.152 93.035 93.022 93.005 93.107 93.127 93.122 93.185 93.248 94.36 96.87 99.995 99.81 99.508 99.298 99.555 99.198 95.138 94.268 93.453 93.12 93.338 93.58 93.425 92.24 92.273 92.735 91.3 90.595 90.365 90.268 90.408 91.45 91.728 92.435 93.3 93.835 93.96 94.183 94.163 93.945 93.923 93.895 93.885 93.875 93.863 93.825 93.8 93.798 93.775 93.768 93.758 93.725 93.713 93.69 93.648 93.658 93.648 93.618 93.598 93.57 93.558 93.525 93.525 93.5 93.485 93.458 93.44 93.428 93.408 93.378 93.368 93.35 93.32 93.3 93.278 93.26 93.255 93.23 93.198 93.17 93.163 93.14 93.125 93.105 93.095 93.07 93.018 93.128 93.305 93.47 93.728 94.033 93.95 93.865 93.773 93.815 93.935 93.975 93.96 94.653 93.808 93.293 93.013 92.59 92.405 92.385 91.308 90.745 90.345 89.905 89.495 89.073 88.613 88.09 87.583 87.168 86.735 86.32 85.985 85.658 85.335 85.068 84.763 84.465 84.073 83.77 83.938 83.63 83.358 82.893 82.36 82.108 81.995 81.873 81.815 81.765 81.743 81.713 81.418 80.745 84.008 89.138 84.818 79.575 79.015 78.798 82.005 81.905 81.698 81.785 81.803 81.79 81.768 81.753 80.653 79.575 80.11 80.708 83.368 91.485 88.883 79.24 80.838
78.832 79.15 79.015 78.917 78.897 78.902 84.65 87.032 85.955 85.937 83.425 81.202 79.9 80.452 80.487 79.437 79.56 79.612 79.685 80.452 80.285 82.35 84.567 84.175 81.625 81.337 81.915 82.295 82.672 82.887 83.057 83.2 83.287 84.615 85.822 84.145 83.385 85.257 88.277 90.452 90.635 89.042 83.715 84.192 84.755 85.407 86.017 86.295 87.247 87.757 87.602 88.195 88.62 89.085 89.557 90.265 90.57 91.335 92.252 92.127 92.99 92.95 93.667 93.675 93.817 94.13 94.645 94.92 95.017 94.707 94.595 94.622 94.642 94.602 94.567 94.66 95.007 95.845 97.075 98.727 98.322 98.57 101.22 104.717 105.89 106.432 105.62 102.662 99.287 99.455 99.637 100.495 100.262 99.977 100.257 101.17 103.407 106.442 107.897 108.512 107.46 103.882 100.26 100.405 99.54 99.557 99.987 99.875 100.095 99.622 99.727 101.855 102.225 102.312 102.32 100.777 99.057 98.892 98.817 99.46 98.715 98.652 98.577 98.567 98.72 98.585 98.592 98.597 98.632 100.062 98.555 98.495 98.507 98.53 98.46 98.857 100.925 99.482 99.882 98.592 98.61 98.872 99.085 99.092 99.19 99.57 99.105 99.087 99.065 100.097 106.65 108.13 108.777 107.755 102.557 99.222 98.79 98.657 98.58 98.58 98.552 98.525 98.497 98.492 98.547 98.675 98.645 105.472 108.712 107.935 103.967 98.487 99.192 100.487 100.997 106.132 106.64 106.485 106.367 105.795 105.995 104.03 102.407 103.24 101.347 98.26 97.307 97.297 97.827 97.32 97.327 97.487 97.502 97.16 97.147 97.095 97.43 97.155 97.022 96.94 96.915 96.9 96.845 96.812 96.807 96.812 96.772 96.817 96.805 96.857 96.835 96.877 96.91 96.987 96.985 97.055 97.285 97.317 97.302 97.687 97.282 97.282 97.202 97.097 97.915 104.945 106.437 106.605 105.515 99.182 96.967 96.952 96.805 96.685 96.665 96.55 96.82 97.072 97.167 96.927 96.927 96.937 96.935 96.76 96.64 96.952 97.5 98.322 98.955 96.497 96.317 96.255 97.1 97.49 97.57 97.67 96.19 95.93 95.952 97.332 99.535 100.877 100.1 100.762 95.792 93.382 93.375 93.292 93.277 93.235 93.347 93.362 93.312 93.335 93.348 94.94 98.238 99.615 99.87 99.945 99.795 99.628 98.463 93.898 93.448 93.375 93.273 93.13 93.083 93.575 94.77 93.31 91.598 90.925 90.66 90.548 91.31 91.453 91.873 92.485 93.28 93.965 94.248 94.418 94.378 94.098 93.988 93.935 93.908 93.905 93.868 93.845 93.83 93.818 93.793 93.768 93.763 93.758 93.72 93.71 93.668 93.68 93.67 93.63 93.623 93.608 93.573 93.565 93.533 93.528 93.513 93.488 93.465 93.445 93.433 93.405 93.385 93.353 93.365 93.33 93.325 93.3 93.273 93.26 93.235 93.203 93.178 93.175 93.15 93.135 93.113 93.063 93.028 93.133 93.31 93.468 93.655 93.885 94.068 94.02 93.9 93.82 93.808 93.82 93.873 93.803 93.655 93.215 93.08 93.258 92.193 91.555 91.143 90.7 90.268 89.903 89.508 89.103 88.7 88.235 87.778 87.353 86.928 86.515 86.153 85.83 85.543 85.205 84.925 84.603 84.3 83.923 83.673 83.725 83.52 83.123 82.793 82.383 82.13 82.01 81.83 81.73 81.68 81.673 81.7 81.855 82.233 82.225 89.305 84.723 80.5 79.585 80.768 82.268 81.293 81.805 80.975 81.79 81.845 81.338 79.473 78.738 78.673 80.715 89.718 87.773 91.403 84.355 77.685 80.185
78.765 79.317 78.842 78.81 78.777 81.402 86.047 86.665 84.735 82.512 79.595 79.51 78.955 79.002 79.107 79.127 79.212 79.387 79.662 79.872 80.64 84.462 84.092 81.855 80.622 81.837 82.25 82.41 82.732 82.92 83.067 83.19 83.292 84.707 86.13 85.45 84.207 87.01 89.282 90.557 91.297 90.232 85.27 84.15 84.63 85.23 85.747 86.255 86.755 87.115 88.087 88.122 88.57 89.107 89.695 90.032 90.607 90.985 91.71 91.967 92.425 92.89 93.392 93.642 93.977 94.13 94.615 94.925 95.087 94.755 94.655 94.63 94.647 94.575 94.61 94.705 94.89 95.682 96.857 98.257 98.312 98.38 99.475 103.747 105.982 107.235 105.9 102.542 99.27 99.785 99.857 100.405 99.947 99.867 99.89 100.535 103.362 105.71 107.29 107.095 106.755 104.49 100.812 100.825 99.672 99.475 99.525 99.432 99.645 100.097 99.887 100.052 99.487 99.417 99.412 99.857 98.91 98.81 98.835 99.795 98.66 98.615 98.585 99.13 99.667 98.617 98.605 98.587 98.617 99.35 98.592 98.495 98.507 99.582 98.525 98.857 98.602 99.347 100.08 99.727 98.777 98.642 98.907 99.005 99.122 99.537 99.452 99.272 99.217 99.595 105.367 107.815 108.607 107.72 103.227 98.742 98.672 98.572 98.53 98.525 98.497 98.472 98.435 98.427 98.462 98.465 98.727 105.25 108.175 108.672 107.777 101.237 100.02 102.24 102.23 102.617 100.707 99.737 98.332 98.172 98.337 97.63 97.537 97.54 97.557 97.477 97.432 97.442 97.412 97.385 97.377 97.267 97.175 97.1 97.067 96.99 96.955 96.927 96.9 96.88 96.885 96.877 96.817 96.812 96.81 96.805 96.81 96.812 96.855 96.83 96.835 96.89 96.957 96.98 96.987 97.017 97.29 97.787 97.742 97.995 97.332 97.295 97.252 97.112 96.967 104.96 106.315 106.74 105.667 100.097 96.93 96.942 96.87 96.777 96.707 96.585 96.572 96.557 97.467 98.702 100.897 100.72 101.957 103.492 102.832 103.862 104.845 104.97 104.805 97.707 96.175 96.265 96.305 95.977 95.992 96.165 96.07 96.555 98.575 101.1 101.4 101.677 102.002 102.227 97.647 94.132 93.63 93.527 93.535 93.472 93.785 93.78 93.815 94.657 94.248 93.99 96.395 97.14 99.233 99.52 99.825 99.98 96.64 93.875 93.605 93.518 93.36 93.255 93.21 93.118 92.875 91.698 91.243 91.105 91.073 91.323 92.543 92.535 92.885 93.508 94.51 94.55 94.508 94.298 94.128 94.085 93.968 93.933 93.905 93.89 93.873 93.845 93.86 93.81 93.78 93.765 93.753 93.74 93.733 93.693 93.683 93.665 93.67 93.635 93.62 93.583 93.58 93.555 93.535 93.51 93.495 93.48 93.473 93.465 93.45 93.383 93.38 93.388 93.315 93.323 93.328 93.303 93.275 93.263 93.248 93.21 93.205 93.165 93.165 93.175 93.103 93.008 93.178 93.41 93.58 93.7 93.843 94.008 94.2 94.063 93.938 93.85 93.805 93.805 93.615 93.443 93.638 93.065 92.755 91.928 91.43 90.933 90.475 90.11 89.743 89.393 89.043 88.665 88.295 87.895 87.488 87.048 86.683 86.303 85.973 85.68 85.385 85.075 84.735 84.433 84.095 83.758 83.688 83.49 83.365 82.968 82.63 82.29 82.105 81.985 81.848 81.685 81.59 81.673 81.735 81.73 82.86 80.66 82.285 85.908 81.195 82.71 82.838 82.928 81.755 81.838 81.82 82.108 82.663 80.668 78.753 78.695 78.62 80.198 81.2 83.115 81.458 77.738 77.358 77.078
78.63 78.655 78.957 78.705 78.827 84.572 86.815 85.737 82.977 81.517 80.587 78.977 79.05 78.93 78.957 79.015 79.072 79.137 79.357 79.445 80.777 84.235 81.795 80.427 80.802 81.832 82.45 82.58 83.142 83.525 83.092 83.215 83.407 85.47 89.602 89.782 89.852 89.93 89.96 90.567 91.287 89.9 85.095 84.21 85.152 85.187 85.647 86.562 86.622 87.032 87.527 88.082 88.595 89.485 89.667 90.035 90.412 91.075 91.422 92.127 92.567 92.93 93.682 93.732 93.955 94.097 94.477 94.842 95.167 94.762 94.607 94.612 94.702 94.657 94.587 94.73 94.91 95.475 96.82 98.325 98.927 99.022 99.172 102.71 105.715 107.4 106.172 103.327 99.24 99.777 99.427 100.175 100.505 99.862 100.175 100.127 103.197 102.722 103.365 102.11 102.56 102.575 100.457 99.825 99.53 99.432 99.457 99.39 99.995 99.96 99.532 99.357 99.8 99.67 99.297 100.125 100.375 99.447 98.782 99.3 98.805 98.632 98.592 100.512 100.615 98.672 98.617 98.58 98.562 101.132 99.49 98.635 98.81 98.67 98.765 98.855 98.602 98.515 98.645 99.2 99.835 98.7 98.702 98.927 99.012 99.325 99.27 99.062 98.99 98.997 104.342 107.607 108.595 107.85 104.235 98.762 98.582 98.502 98.467 98.652 98.987 98.617 98.435 98.392 98.385 98.352 98.377 100.147 105.205 108.037 108.015 98.76 99.385 101.67 101.512 99.425 97.942 97.89 97.847 97.805 98.395 97.607 97.592 97.53 97.485 97.407 97.365 97.375 97.327 97.27 97.222 97.16 97.122 97.052 97.032 96.98 96.947 96.96 96.96 96.935 96.917 96.872 96.835 96.802 96.83 96.79 96.765 96.812 96.82 96.83 96.837 96.907 96.947 96.975 96.992 97.035 97.1 97.162 97.185 97.21 97.35 97.357 97.295 97.157 97.017 104.392 106.157 106.842 105.805 101.712 97.152 96.962 96.93 96.82 96.747 96.635 96.597 96.595 101.145 105.322 105.44 105.54 105.647 105.777 105.57 105.67 105.812 105.937 106.047 100.815 96.372 96.547 96.515 96.392 95.832 96.042 97.737 99.427 101.39 101.757 102.022 102.27 102.185 101.975 100.055 95.515 94.427 93.76 93.73 93.7 93.82 93.967 94.165 94.527 94.438 94.28 94.3 94.8 96.04 97.13 98.425 99.06 94.693 94.083 94.203 94.063 94.188 93.82 93.595 94.513 91.93 91.53 91.39 92.01 92.098 92.608 92.795 93.628 94.463 94.48 95.255 94.65 94.468 94.145 94.033 93.998 93.98 93.928 93.903 93.893 93.875 93.85 93.843 93.823 93.818 93.78 93.76 93.78 93.733 93.698 93.69 93.68 93.663 93.65 93.61 93.598 93.583 93.573 93.53 93.528 93.513 93.5 93.47 93.46 93.45 93.405 93.41 93.378 93.358 93.343 93.293 93.305 93.283 93.28 93.238 93.218 93.205 93.203 93.185 93.148 93.078 93.233 93.465 93.708 93.875 93.98 94.055 94.145 94.508 94.198 93.965 93.875 93.865 93.625 93.388 92.98 93.308 92.06 91.553 91.275 90.745 90.293 89.888 89.548 89.208 88.858 88.535 88.223 87.88 87.518 87.158 86.773 86.423 86.083 85.783 85.51 85.18 84.868 84.565 84.268 83.943 83.635 83.595 83.493 83.013 82.813 82.44 82.245 82.1 81.918 81.738 81.64 81.52 81.515 81.398 80.705 80.23 79.788 79.71 81.91 82.353 82.928 82.995 83.078 82.925 81.91 81.818 83.478 86.173 86.753 79.573 78.635 78.538 78.715 78.35 81.23 84.653 85.973 80.083 77.92
78.492 78.725 79.58 78.75 81.265 86.315 86.545 84.44 81.895 81.797 79.49 78.787 79.092 79.065 78.935 78.97 79.062 79.112 79.06 80.252 83.735 82.85 80.362 80.67 81.417 81.927 82.277 82.532 83.962 84.757 87.002 87.95 85.137 86.77 90.095 91.08 91.035 91.085 91.237 91.295 91.342 89.607 84.087 84.097 84.89 85.167 85.65 86.072 86.547 87.05 87.597 88.12 88.485 88.995 89.522 89.97 90.517 91.197 91.627 91.795 93.497 93.222 93.365 93.545 94.2 94.865 94.455 94.792 95.1 94.822 94.685 94.662 94.657 94.612 94.58 94.687 94.882 96.515 96.557 97.97 98.66 98.395 98.565 102.057 105.395 106.552 106.152 104.575 98.917 99.177 99.38 99.65 101.1 99.94 100.042 101.105 102.54 101.802 101.552 101.172 101.662 102.265 100.73 100.49 99.977 99.365 99.385 99.345 99.81 100.48 99.372 99.617 102.01 102.4 100.225 99.942 100.985 99.205 98.757 99.5 99.07 98.662 98.637 99.625 100.835 98.775 98.562 98.575 98.822 99.725 100.175 102.327 104.362 104.535 102.897 99.03 98.45 98.497 98.527 98.805 101.44 99.215 98.942 98.757 98.92 99.225 99.302 99.115 99.577 99.322 102.155 104.992 103.997 100.87 101.62 98.597 98.477 98.442 98.455 98.86 99.335 98.627 98.45 98.357 98.345 98.327 98.29 98.355 99.692 103.67 101.537 98.962 98.242 98.822 98.947 98.012 97.952 97.872 97.792 97.795 98.187 97.587 97.537 97.49 97.4 97.352 97.317 97.32 97.292 97.275 97.212 97.157 97.15 97.077 97.035 96.995 96.99 96.995 97.015 97 96.995 96.982 97.12 96.962 97.425 97.005 97.705 97.14 97.927 97.212 97.57 97.672 97.195 97.257 97.157 97.157 97.167 97.19 97.215 97.222 97.25 97.367 97.375 97.272 97.167 100.725 105.472 107.137 106.772 105.057 102.632 97.132 97.085 96.95 96.792 96.695 96.61 96.592 100.27 106.23 106.365 106.46 106.572 106.757 106.752 106.487 106.517 106.507 106.592 100.715 96.487 96.797 96.735 95.967 95.922 95.967 97.782 99.37 101.972 102.267 102.172 101.915 101.607 99.927 97.367 95.145 94.9 93.99 93.952 93.91 94.087 94.285 94.502 94.642 94.955 95.2 94.635 94.55 94.623 94.385 95.145 96.078 94.275 94.325 94.21 94.008 94.37 94.873 93.8 92.4 91.875 92.338 91.89 92.2 92.763 93.423 93.798 94.283 94.633 94.575 94.87 94.678 94.295 94.043 94.008 93.973 93.983 93.948 93.93 93.908 93.873 93.868 93.853 93.835 93.808 93.798 93.768 93.763 93.738 93.713 93.698 93.695 93.658 93.655 93.633 93.605 93.603 93.578 93.54 93.523 93.518 93.49 93.47 93.485 93.43 93.423 93.388 93.375 93.363 93.36 93.298 93.293 93.288 93.273 93.25 93.22 93.21 93.198 93.098 93.068 93.305 93.58 93.81 94.06 94.235 94.288 94.303 94.3 94.575 94.305 93.938 93.978 93.755 93.36 92.953 92.473 91.983 91.615 91.04 90.76 90.238 89.733 89.333 88.978 88.645 88.338 88.053 87.73 87.453 87.155 86.835 86.488 86.128 85.858 85.588 85.293 84.988 84.66 84.35 84.078 83.828 83.563 83.373 83.185 82.873 82.65 82.428 82.245 82.053 81.87 81.68 81.48 81.408 81.218 80.743 80.285 79.985 79.723 79.358 78.893 80.903 83.078 83.123 83.205 83.305 82.313 82.575 85.61 88.68 88.333 84.38 79.423 78.48 79.903 83.478 85.99 82.023 82.278 84.62 80.915
78.432 78.367 78.335 78.337 78.37 81.655 83.882 82.91 81.825 80.715 78.78 78.625 78.64 78.707 78.895 79.037 79.19 79.12 79.88 82.085 83.752 80.92 80.45 81.27 81.75 81.995 82.227 82.475 83.002 87.035 88.832 88.7 85.947 84.795 90.002 90.575 90.85 90.437 90.412 90.315 90.3 89.75 84.082 83.962 84.522 85.157 85.645 86.005 86.54 87.005 87.617 88.275 88.552 89.012 89.527 89.9 90.42 90.86 91.242 91.737 93.245 93.077 93.14 93.547 93.802 94.4 94.42 94.812 95.135 94.89 94.705 94.702 94.74 94.717 94.67 94.702 96.06 95.515 96.147 97.49 98.772 98.335 98.507 100.517 104.882 105.167 104.062 103.682 98.767 99.425 99.657 100.6 101.202 101.427 101.065 101.49 101.607 101.31 100.802 102.112 101.187 101.777 100.915 99.81 100.015 99.342 99.315 99.257 99.245 99.34 99.82 99.485 102.08 102.442 100.502 99.19 101.045 100.077 98.827 98.737 99.33 99.76 100.35 99.917 99.03 99.67 100.597 100.692 102.437 103.762 104.647 104.982 104.962 104.785 104.287 100.12 99.527 98.577 98.595 98.62 99.472 99.37 100.432 99.02 98.78 98.92 99.075 99.225 99.617 99.175 98.72 98.725 98.955 98.735 98.702 99.105 98.492 98.392 100.077 101.227 98.767 98.672 98.535 98.42 98.325 98.275 98.25 98.23 98.205 98.195 98.597 99.017 98.097 98.802 98.245 97.99 97.935 97.85 97.942 97.815 97.602 97.56 97.525 97.51 97.457 97.41 97.347 97.335 97.31 97.257 97.23 97.17 97.15 97.127 97.095 97.077 97.165 97.16 97.495 97.622 97.397 97.835 98.285 97.295 97.517 97.437 98.302 97.55 97.69 97.632 97.687 98.327 97.835 97.767 97.3 97.33 97.355 97.317 98.182 97.262 97.28 97.297 97.43 97.45 97.377 97.277 101.567 106.065 107.1 106.545 104.58 97.61 97.192 97.062 96.825 96.697 96.615 96.587 102.27 106.87 106.767 106.742 106.625 106.512 106.205 105.982 105.847 105.757 105.607 100.325 96.527 96.842 96.665 95.975 95.995 95.997 96.557 98.75 101.947 101.822 101.297 99.865 96.482 95.31 94.77 94.825 94.955 94.165 94.185 94.142 94.29 94.592 94.842 95.007 95.465 95.808 95.73 95.363 96.238 96.263 95.288 95.183 94.588 94.763 94.538 94.17 94.558 96.413 93.44 92.285 92.33 94.575 93.145 93.105 94.175 94.86 95.025 94.988 95.013 94.983 94.818 94.385 94.083 94 94.008 93.983 93.975 93.948 93.95 93.9 93.888 93.898 93.863 93.835 93.813 93.798 93.783 93.765 93.73 93.723 93.7 93.69 93.658 93.645 93.635 93.61 93.6 93.578 93.573 93.54 93.525 93.493 93.47 93.463 93.42 93.413 93.408 93.4 93.378 93.343 93.313 93.313 93.288 93.265 93.238 93.238 93.233 93.17 93.153 93.363 93.675 93.978 94.253 94.49 94.615 94.613 94.54 94.578 94.503 94.225 94.008 94.035 93.56 93.163 92.593 92.108 91.618 91.11 91.213 90.583 89.848 89.358 88.883 88.465 88.135 87.883 87.648 87.348 87.08 86.79 86.485 86.195 85.9 85.615 85.353 85.07 84.818 84.483 84.203 83.963 83.718 83.478 83.25 83.04 82.825 82.608 82.428 82.28 82.053 81.858 81.56 81.338 81.178 80.975 80.73 80.605 79.895 79.648 79.415 79.245 79.555 82.393 83.288 83.365 83.823 85.775 87.07 88.248 89.048 88.965 87.638 84.003 78.438 82.48 82.21 86.08 78.628 78.173 79.303 77.753
78.425 78.307 78.212 78.232 78.247 78.267 78.302 79.502 80.535 78.972 79.062 79.105 78.705 78.635 78.675 78.797 79.257 79.515 81.405 83.025 81.405 80.37 80.795 81.615 81.852 82.065 82.322 82.462 82.907 85.197 86.002 84.66 83.61 84.602 88.737 88.72 90.707 89.01 88.187 85.69 85.835 85.827 83.915 84.037 84.657 85.222 85.527 86.01 86.54 87 87.535 88.112 88.635 89.43 89.51 89.82 90.335 90.72 91.312 91.712 92.275 92.71 93.675 93.522 93.977 94.017 94.302 94.83 95.005 94.93 94.71 94.647 94.712 94.7 94.672 94.687 94.802 94.855 95.825 97.092 98.802 98.207 98.292 100.895 102.662 102.44 100.215 98.502 98.6 100.385 100.29 100.07 101.277 101.165 100.77 99.407 99.425 99.48 100.287 103.3 103.415 100.632 99.967 99.922 99.93 99.267 99.212 99.19 99.132 99.465 99.612 99.037 100.857 103.04 102.432 102.102 101.302 100.902 101.512 101.967 103.035 104.192 104.662 103.827 99.04 102.255 104.255 104.495 104.982 105.937 106.46 105.447 104.267 102.785 102.112 100.312 101.115 98.98 98.71 100.102 101.247 100.752 99.042 100.332 98.972 98.815 98.895 99.02 99.185 98.997 98.737 98.74 98.742 99.175 99.335 99.3 99.125 100.282 102.345 107.227 104.1 98.857 98.57 98.497 98.387 98.277 98.18 98.185 98.122 98.09 98.08 98.08 98.045 98.602 98.227 97.955 97.905 98.37 98.917 97.865 97.645 97.61 97.545 97.535 97.482 97.48 97.455 97.455 97.432 97.377 97.347 97.26 97.195 97.182 97.127 97.265 98.022 102.15 105.13 103.502 97.43 97.557 97.455 97.392 97.712 98.222 98.355 99.367 102.545 102.925 104.027 104.867 100.73 98.035 97.652 97.737 98.39 97.452 97.73 97.642 97.36 97.325 97.357 97.447 97.78 98.077 99.4 105.91 107.05 106.717 105.552 98.05 97.232 97.095 97.457 96.752 96.66 96.61 98.432 106.057 105.955 105.817 105.71 105.615 105.285 105.072 104.752 104.607 104.052 101.087 96.562 96.582 96.72 96.695 96.057 96.07 96.055 96.607 97.607 99.025 96.667 95.692 95.232 95.085 94.947 95.282 94.805 94.407 94.402 94.345 94.52 94.797 95.092 95.342 95.85 98.07 98.215 99.028 97.535 97.183 96.423 96.39 95.17 95.228 96.433 95.245 95.65 94.153 92.688 92.548 92.665 94.758 94.193 94.298 95.048 95.483 95.655 95.558 95.55 95.423 94.723 94.06 94.003 94.04 94.013 93.988 93.965 93.97 93.933 93.91 93.903 93.878 93.883 93.85 93.795 93.808 93.778 93.753 93.758 93.74 93.703 93.71 93.675 93.663 93.63 93.615 93.598 93.583 93.578 93.528 93.515 93.5 93.483 93.47 93.443 93.418 93.408 93.375 93.38 93.33 93.34 93.318 93.303 93.283 93.258 93.248 93.205 93.288 93.56 93.84 94.125 94.455 94.745 94.94 94.988 94.855 94.723 94.918 94.895 94.125 94.028 93.838 93.258 92.8 92.345 92.01 91.93 91.178 90.77 90.06 89.628 89.143 88.658 88.215 87.865 87.593 87.348 87.088 86.798 86.53 86.248 85.98 85.725 85.433 85.14 84.895 84.638 84.358 84.13 83.903 83.628 83.403 83.183 83.028 82.853 82.69 82.545 82.368 82.185 81.975 81.743 81.338 81.03 80.848 80.83 81.008 79.79 79.658 79.51 79.785 78.87 81.025 83.538 85.005 86.8 88.07 88.995 88.85 87.853 88.418 88.425 84.02 78.73 79.06 83.168 81.258 77.833 77.688 78.223 77.183
78.407 78.315 79.267 82.84 82.725 78.675 78.23 79.54 80.135 79.795 78.987 80.387 78.817 78.565 78.642 78.747 78.827 79.877 83.125 81.4 80.18 80.512 81.357 81.707 82.507 83.115 83.792 84.032 84.267 82.84 82.912 83.572 83.277 83.235 84.615 85.575 87.342 85.077 84.355 83.575 83.39 83.407 83.492 84.652 84.617 85.217 85.555 86.077 86.605 87.045 87.572 88.022 89.022 88.977 89.56 89.865 90.85 90.7 91.172 91.655 92.135 92.6 93.67 93.452 94.137 94.002 94.3 95.657 95.032 95.512 94.765 94.702 94.742 94.74 94.68 94.685 94.812 94.83 95.58 96.875 98.447 97.955 97.935 99.315 99.402 99.227 98.437 98.5 99.642 100.265 100.135 101.51 101.047 99.51 100.175 100.757 99.992 99.652 100.482 105.305 106.445 106.042 100.045 100.925 99.815 99.252 99.122 99.092 99.082 99.152 99.165 99.175 102.045 105.412 105.95 106.12 102.455 101.477 103.73 105.062 105.975 106.307 105.275 104.052 100.582 101.755 105.39 105.665 105.825 106.202 107.197 105.732 104.377 102.79 101.2 100.105 100.937 99.125 98.71 99.682 102.98 103.255 99.482 99.082 99.725 98.897 98.852 98.99 99.247 99.207 98.82 98.762 98.905 100.812 99.522 98.985 99.452 103.242 108.807 108.132 107.425 104.29 100.045 102.902 101.172 98.71 98.247 98.17 98.107 98.067 98.035 97.995 97.952 97.947 97.91 97.872 97.845 97.775 97.73 97.712 97.665 97.66 97.627 98.09 97.81 98.107 97.982 98.795 102.28 101.262 99.757 97.36 97.287 97.25 97.21 97.36 101.84 106.445 107.87 106.052 97.865 97.457 97.535 97.567 97.732 97.742 100.56 103.835 106.197 106.302 106.43 106.53 102.597 99.82 104.977 105.68 105.632 103.245 98.5 97.417 97.372 97.385 97.327 97.365 97.65 97.665 99.49 105.737 106.912 106.832 105.687 99.057 97.165 97.087 97.29 96.78 96.667 96.625 96.772 104.37 104.02 102.927 101.47 101.935 100.467 98.685 97.112 96.792 97.01 98.137 98.037 98.45 96.507 96.447 96.122 96.135 96.107 96.06 96.02 96.025 95.667 95.44 95.33 95.267 95.562 95.105 94.697 94.645 94.625 94.575 94.717 94.972 95.285 96.44 99.525 101.35 101.103 100.91 100.668 99.703 97.405 95.73 96.608 97.215 99.863 98.088 95.555 93.203 92.948 92.793 93.23 94.87 95.745 95.7 95.768 95.593 95.54 95.628 95.91 95.783 94.915 94.25 93.983 93.993 94.033 94.008 93.983 93.945 93.935 93.925 93.913 93.89 93.87 93.843 93.81 93.798 93.793 93.765 93.753 93.748 93.7 93.7 93.678 93.655 93.643 93.615 93.605 93.598 93.57 93.55 93.533 93.513 93.49 93.463 93.443 93.425 93.4 93.38 93.388 93.358 93.34 93.318 93.288 93.288 93.278 93.248 93.378 93.705 94.008 94.328 94.633 94.955 95.173 95.26 95.168 94.998 94.815 94.713 94.913 94.123 94.023 93.613 93.133 92.623 92.105 91.92 92.283 90.858 90.395 89.938 89.518 89.04 88.53 88.07 87.713 87.428 87.178 86.943 86.683 86.398 86.14 85.858 85.6 85.318 85.058 84.81 84.565 84.358 84.133 83.893 83.66 83.413 83.165 82.96 82.768 82.635 82.53 82.158 82.003 82.093 81.818 81.44 80.943 80.72 80.59 81.085 79.923 79.593 79.505 79.463 79.005 79.41 85.238 87.753 89.535 89.45 88.8 87.375 87.75 87.285 89.073 87.655 82.003 78.228 80.088 80.308 78.145 77.728 78.59 82.945
78.32 78.19 82.417 85.502 85.42 82.28 79.062 80.37 80.357 80.085 79.347 79.275 78.495 78.487 78.93 78.79 79.085 82.417 81.652 79.882 80.4 80.95 81.647 81.785 82.36 84.825 86.58 86.687 84.83 82.82 82.91 83.012 83.145 83.265 83.332 83.362 83.535 83.502 83.5 83.54 83.532 83.537 83.9 84.132 84.757 85.17 85.665 86.337 86.592 87.195 87.875 88.342 88.87 89.03 89.457 89.845 90.27 90.652 91.107 91.552 92.017 92.742 94.49 94.445 94.132 94.022 94.315 94.59 95.327 94.992 94.802 94.672 94.712 94.74 94.687 94.692 94.787 94.872 95.322 96.737 97.48 97.25 97.275 97.542 97.31 97.45 97.942 98.507 99.987 99.32 98.887 99.15 100.327 99.622 99.365 99.495 101.032 100.135 102.932 106.577 107.802 108.037 104.517 100.665 99.372 99.162 99.025 99.032 99.035 99.462 99.552 99.03 100.38 105.607 106.855 106.375 101.92 100.07 103.827 104.95 106.637 107.11 105.565 104.277 101.802 100.805 105.29 105.53 105.33 105.717 105.745 105.29 104.37 101.767 100.732 99.525 99.045 98.742 100.967 103.7 104.215 104.855 102.697 99.702 98.8 99.28 98.877 98.932 99.007 99.275 99.102 98.8 100.725 102.905 101.94 99.867 100.655 106.657 108.23 108.732 108.332 107.622 107.447 107.41 106.9 103.077 98.405 98.217 98.127 98.08 98.037 97.985 97.96 97.957 97.91 97.862 97.875 97.825 98.047 97.73 98.122 98.105 97.92 97.857 97.682 97.745 99.15 103.285 107.417 107.587 101.947 97.5 97.362 97.335 97.325 97.417 98.085 105.865 107.865 106.772 103.122 97.675 97.675 97.655 97.655 97.977 100.892 103.6 107.2 107.03 107.085 107.07 105.247 101.652 106.897 107.955 107.912 107.172 105.23 98.942 97.445 97.377 97.355 97.35 97.627 97.815 97.555 105.635 106.897 106.982 105.82 99.617 97.315 97.387 97.212 96.775 96.705 96.67 96.75 97.642 96.997 97.442 96.867 97.072 96.875 96.637 96.722 97.255 96.932 99.697 100.457 100 97.605 96.425 96.17 96.215 96.195 96.077 95.957 95.885 95.917 95.905 95.82 95.84 95.292 94.99 94.895 94.877 94.865 94.837 94.962 95.172 95.47 98.437 101.553 102.24 101.828 101.545 101.25 100.265 97.575 95.37 97.703 97.845 98.253 96.09 94.238 93.355 93.278 93.365 95.173 97.665 99.333 97.35 96.13 96.088 96.083 96.173 96.36 96.075 95.35 94.78 94.283 94.015 94.04 94.008 93.988 93.973 93.955 93.92 93.915 93.9 93.865 93.848 93.83 93.793 93.79 93.76 93.765 93.753 93.718 93.718 93.693 93.668 93.658 93.643 93.62 93.6 93.575 93.55 93.548 93.52 93.503 93.478 93.438 93.44 93.415 93.383 93.368 93.343 93.323 93.31 93.288 93.288 93.24 93.453 93.828 94.183 94.49 94.805 95.153 95.365 95.453 95.405 95.265 95.09 94.965 95.38 94.675 94.06 93.978 93.688 93.34 92.75 92.03 92.253 91.543 90.73 90.32 89.885 89.478 88.995 88.493 88.098 87.743 87.445 87.178 86.94 86.65 86.388 86.108 85.838 85.585 85.288 85.038 84.803 84.593 84.393 84.168 83.93 83.68 83.378 83.125 82.948 82.75 83.083 82.103 81.893 81.725 82.03 81.835 81.48 81.133 80.718 80.478 80.548 80.583 79.498 80.15 80.838 78.993 78.783 83.355 88.988 88.185 87.568 89.383 87.655 87.648 87.3 88.148 88.32 84.02 78.173 78.48 80.758 82.193 78.793 80.67 80.683
78.397 79.942 84.497 85.782 84.537 82.002 80.482 81.382 80.075 78.425 79.77 78.922 78.645 78.47 78.797 78.742 81.615 82.342 79.84 80.14 80.885 82.46 81.795 82.08 82.622 84.595 87.01 87.04 84.915 82.845 82.93 83.007 83.165 83.275 83.365 83.447 83.492 83.532 83.62 83.695 83.72 83.687 83.942 84.397 84.932 85.247 85.915 86.527 86.715 87.535 87.665 88.592 88.632 89.015 89.385 89.8 90.19 90.607 91.75 91.515 91.99 92.53 93.58 93.41 94.117 94.052 95.032 95.19 94.72 95.217 94.862 94.722 94.727 94.747 94.72 94.667 94.707 94.822 95.137 95.697 96.09 96.685 97.005 98.107 101.93 102.795 103.372 100.4 98.185 98.35 98.627 102.255 102.825 103.22 101.752 99.205 100.412 101.702 104.957 107.282 108.467 107.492 105.59 101.592 99.565 99.227 99 98.992 98.96 99.035 99.822 99.12 99.967 103.96 106.52 106.265 104.122 99.535 103.305 104.667 105.832 105.77 105.32 104.445 101.747 99.652 103.917 104.34 102.355 104.375 100.7 101.432 99.557 98.72 98.64 98.78 98.635 98.6 102.97 104.542 105.217 105.942 104.712 100.675 98.56 98.827 99.027 98.942 98.99 99.205 100.002 99.017 101.725 102.937 103.015 100.892 99.4 104.24 107.287 107.967 108.532 108.877 108.16 108.322 107.82 107.087 104.635 99.507 98.21 98.122 98.057 98.702 98.727 97.975 97.907 97.88 97.93 98.715 98.38 98.06 98.495 98.107 97.74 97.782 97.77 98.617 99.592 103.777 107.232 107.722 104.162 97.627 97.462 97.415 97.415 97.482 97.907 105.19 107.342 107.88 106.845 99.65 97.86 97.795 97.712 97.942 99.58 100.642 106.592 106.47 106.367 106.255 104.602 101.305 106.222 106.922 107.092 107.982 105.547 98.967 97.5 97.42 97.347 97.342 97.42 97.392 97.457 101.447 101.71 102.227 97.872 97.662 97.282 96.972 96.842 96.74 96.72 96.662 96.72 97.012 96.935 96.887 96.725 97.72 96.712 96.662 96.922 97.297 96.792 99.085 100.905 100.185 97.617 96.945 96.252 96.435 97.035 96.75 96.285 96.127 96.962 95.882 95.527 95.312 95.242 95.165 95.137 95.115 95.097 95.055 95.142 95.362 96.817 99.97 101.64 101.92 102.098 102.09 101.915 101.638 97.063 95.433 95.645 97.1 96.713 94.928 94.208 93.77 93.963 94.673 97.48 97.72 98.293 97.048 96.615 96.623 96.715 96.803 96.935 96.58 96.088 95.403 94.88 94.288 93.995 93.988 94 93.97 93.965 93.958 93.92 93.903 93.885 93.86 93.835 93.803 93.815 93.785 93.775 93.745 93.725 93.725 93.705 93.68 93.675 93.638 93.6 93.578 93.565 93.563 93.55 93.495 93.503 93.47 93.448 93.465 93.425 93.4 93.363 93.378 93.348 93.303 93.325 93.273 93.568 93.938 94.313 94.66 95.005 95.355 95.59 95.683 95.683 95.543 95.345 95.178 95.02 95.26 94.35 94.008 93.908 93.558 93.288 92.51 91.955 91.873 91.145 90.76 90.295 89.86 89.463 89 88.555 88.165 87.833 87.523 87.223 86.97 86.69 86.418 86.145 85.903 85.623 85.345 85.118 84.868 84.633 84.438 84.213 83.953 83.698 83.425 83.735 83.818 84.088 83.268 81.838 81.693 81.555 81.393 81.16 81.208 81.273 80.91 80.468 80.308 80.65 80.44 84.305 82.738 78.975 78.853 79.105 85.655 83.38 84.598 88.215 88.633 87.135 87.385 85.848 83.718 78.56 78.083 78.935 82.073 82.945 80.845 79.465 78.053
80.802 82.642 85.372 85.357 82.965 79.12 79.785 82.09 80.477 78.145 78.375 79.35 79.582 79.015 79.095 81.545 81.35 80.625 79.622 80.502 82.842 83.672 82.065 82.03 82.722 85.52 88.562 88.81 88.247 86.625 82.935 83.082 83.227 83.335 83.505 83.612 83.677 83.732 83.805 83.83 83.847 83.815 84.055 84.77 84.925 85.327 85.765 86.322 86.782 87.187 87.557 88.095 88.527 89.102 89.357 89.672 90.082 90.775 92.622 91.952 91.967 92.447 93.03 93.692 95.525 94.792 94.615 94.285 94.487 95.607 95.16 94.735 94.775 94.785 94.775 94.705 94.725 94.815 95.165 95.827 96.682 97.227 97.242 101.092 104.155 104.74 104.487 100.732 98.1 99.292 102.337 108.222 106.59 103.702 101.342 99.197 101.195 104.662 106.36 107.962 108.15 106.755 104.772 100.015 99.17 99.107 98.945 98.912 98.887 98.887 100.03 99.097 99.65 103.075 104.44 102.967 102.197 99.985 102.062 104.032 103.775 101.962 102.182 99.075 98.595 98.617 100.367 99.922 98.957 98.547 98.53 98.512 98.775 98.582 98.592 98.72 98.63 98.61 100.622 105.057 106.217 107.165 105.892 104.157 100.25 98.612 98.842 99.022 99.007 99.04 99.137 99.892 99.985 101.472 101.732 98.887 98.71 99.602 103.042 106.305 107.795 107.912 107.155 107.845 108.402 108 107.282 102.047 98.187 98.145 98.145 98.157 98.31 98.035 97.99 97.95 97.922 97.91 97.885 98.157 98.315 97.825 98.007 97.782 97.82 98.14 101.195 106.002 107.822 107.562 103.055 97.66 98.35 97.495 97.495 97.54 97.64 98.845 103.827 107.032 107.622 104.205 98.962 97.995 98.102 98.132 97.89 97.93 104.56 103.75 103.385 102.98 101.772 100.46 101.32 101.007 101.755 106.7 99.91 98.73 97.507 97.395 97.327 97.292 97.28 97.26 97.227 97.185 97.125 97.077 97.025 96.962 96.912 96.892 96.82 96.792 96.727 96.702 96.695 96.967 97.135 96.76 96.742 96.93 96.735 96.702 96.865 97.39 96.727 98.35 100.78 100.427 98.722 98.017 98.66 97.187 97.432 96.757 96.657 96.025 96.435 95.7 95.552 95.472 95.445 95.397 95.397 95.347 95.335 95.3 95.372 95.55 95.697 97.762 100.203 101.283 101.565 101.853 102.105 100.908 96.105 95.965 95.768 95.858 95.06 94.495 94.09 94.428 94.81 97.545 98.215 97.468 97.063 96.998 97.045 97.358 97.525 97.378 97.475 97.2 96.658 96.183 95.475 94.85 94.288 93.97 94 93.973 93.97 93.968 93.923 93.918 93.89 93.863 93.845 93.82 93.805 93.788 93.765 93.755 93.743 93.725 93.723 93.708 93.665 93.638 93.593 93.6 93.578 93.558 93.538 93.498 93.505 93.465 93.465 93.463 93.448 93.405 93.378 93.368 93.343 93.34 93.403 93.635 94.093 94.48 94.885 95.223 95.533 95.79 95.95 95.948 95.823 95.615 95.378 95.385 95.453 95.028 94.228 93.918 93.725 93.333 93.04 92.528 91.918 91.673 91.12 90.765 90.345 89.858 89.485 89.1 88.663 88.305 87.983 87.675 87.398 87.113 86.82 86.545 86.255 85.963 85.698 85.42 85.155 84.84 84.583 84.345 84.14 83.835 83.668 85.008 85.323 84.605 82.12 81.898 81.673 81.56 81.41 81.09 80.86 80.953 81.115 80.928 80.51 80.188 81 86.89 89.51 85.968 79.15 78.88 78.713 78.718 78.61 79.75 86.158 87.423 87.92 81 78.63 78.25 78.15 78.038 78.023 79.538 80.533 82.205 80.97 78.91
85.102 84.805 86.16 84.27 79.742 77.975 78.015 79.407 79.232 78.142 78.202 78.22 78.645 79.312 81.565 82.427 80.772 79.305 79.957 81.262 83.305 83.177 81.792 81.897 82.737 85.897 89.807 90.38 89.552 87.87 83.322 83.317 83.392 83.497 83.64 83.782 83.882 83.972 84.002 83.982 83.982 83.977 84.35 84.67 85.12 85.462 86.07 86.277 86.785 87.235 87.602 88.112 88.907 88.862 89.297 89.757 90.182 90.795 91.887 91.887 91.987 92.445 92.96 93.365 93.547 93.802 93.93 94.072 95.757 95.937 95.092 94.715 94.732 94.767 94.755 94.742 94.78 94.835 95.08 95.825 96.685 97.175 97.365 100.942 103.98 105.422 104.785 101.335 98.117 99.945 102.997 108.212 106.63 101.757 100.95 100.22 103.425 105.585 106.555 107.227 106.605 105.16 100.292 99.912 99.26 99.045 98.855 98.825 98.81 98.775 99.152 99.955 98.98 99.167 99.11 99.11 99.05 98.735 98.652 98.767 98.702 98.715 98.575 98.577 98.535 98.51 98.78 99.357 98.547 98.525 98.52 98.66 98.767 98.872 98.575 98.632 98.812 99.745 99.132 102.082 105.497 106.105 105.285 104.575 102.502 98.87 98.665 99.03 99.217 99.07 99.085 100.382 99.407 99.615 99.277 98.927 98.78 99.187 98.665 99.445 102.35 99.757 104.115 106.982 107.675 108.227 106.622 99.365 98.192 98.347 98.087 98.09 98.117 98.1 98.012 97.947 98.447 97.917 97.85 98.282 98.615 98.395 98.115 97.842 97.83 99.337 105.427 107.5 107.855 105.392 98.432 97.722 98.472 97.732 97.565 97.602 97.662 97.635 98.317 105.44 107.49 106.75 105.392 100.035 97.92 97.802 97.705 97.637 98.932 100.18 98.43 100.39 100.957 100.505 98.635 97.452 97.49 98.31 97.537 97.957 97.46 97.355 97.33 97.3 97.24 97.2 97.137 97.107 97.087 97.047 97.015 96.945 96.912 96.89 96.832 96.772 96.742 96.73 96.705 96.685 96.802 96.79 96.767 96.782 96.765 96.74 96.75 96.712 96.685 98.267 100.685 100.607 98.772 98.325 98.162 96.402 96.38 96.347 96.267 96.1 95.817 95.727 95.685 95.652 95.657 95.61 95.597 95.592 95.61 95.582 95.56 95.675 95.935 96.087 96.298 96.36 97.705 100.08 101.185 97.288 96.13 96.145 96.243 95.908 96.073 94.535 94.34 94.698 95.578 97.61 98.14 98.043 97.41 97.433 97.678 97.838 97.813 98.085 97.975 97.75 97.22 96.773 96.293 95.473 94.905 94.33 94.005 93.958 93.945 93.953 93.923 93.913 93.893 93.86 93.835 93.825 93.818 93.81 93.78 93.753 93.745 93.73 93.725 93.698 93.67 93.635 93.62 93.62 93.603 93.563 93.558 93.525 93.52 93.498 93.495 93.45 93.448 93.405 93.4 93.398 93.375 93.435 93.758 94.225 94.668 95.058 95.463 95.775 96.02 96.178 96.195 96.085 95.87 95.598 95.41 95.095 95.253 94.743 94.043 93.823 93.603 93.435 93.048 93.283 92.05 92.805 91.203 90.76 90.373 89.925 89.573 89.203 88.795 88.488 88.173 87.9 87.568 87.23 86.923 86.633 86.36 86.055 85.705 85.355 85.018 84.718 84.463 84.21 84.203 84.28 83.215 83.823 84.853 82.403 81.908 81.728 81.58 81.455 81.33 81.118 80.965 80.878 80.875 80.643 80.203 80.118 80.033 85.11 89.255 86.678 80.765 78.883 78.76 78.65 78.498 79.053 82.678 83.773 79.233 78.34 78.26 78.183 78.105 78.003 82.293 79.393 78.24 78.308 80.67 80.413
85.547 85.717 85.527 84.267 81.35 77.91 77.947 77.992 78.04 78.065 78.122 78.215 78.347 79.82 82.512 81.355 79.445 79.462 80.295 81.377 83.962 82.58 81.802 81.9 82.827 85.252 89.872 91.532 90.622 89.15 85.25 83.132 83.487 83.682 83.825 83.962 84.1 84.195 84.217 84.167 84.135 84.362 84.605 84.882 85.227 85.642 86.005 86.36 86.725 87.202 87.612 88.005 88.39 88.827 89.247 89.627 90.042 91.502 91.33 91.462 91.792 92.462 92.632 92.997 93.265 93.357 93.5 94.242 94.69 96.287 95.055 94.772 94.73 94.792 94.785 94.732 94.775 94.87 95.047 95.677 96.542 97.74 97.225 99.617 103.717 105.492 105.342 103.462 98.075 98.905 99.865 103.622 103.6 101.007 101.017 100.327 101.555 102.92 105.4 106.195 105.812 102.952 99.08 99.985 100.08 98.895 98.747 98.752 98.747 98.737 98.69 99.275 99.502 98.93 99.057 98.977 98.832 98.687 98.545 98.56 98.552 98.585 98.6 98.547 98.512 98.492 98.74 99.717 98.902 98.725 98.532 99.112 98.967 98.942 98.57 98.61 98.672 99.73 98.85 99.845 104.272 104.937 104.262 103.692 102.655 100.005 98.627 98.722 99.092 99.25 99.075 99.177 99.247 99.495 99.342 99.107 99.33 98.922 98.695 98.68 98.702 98.45 98.395 103.232 106.757 107.06 100.355 98.225 98.165 98.08 98.662 98.587 98.132 98.717 98.377 97.927 98.437 98.015 97.865 98.327 98.127 98.33 97.792 97.91 98.747 104.222 106.72 107.705 107.98 100.442 98.325 97.895 97.797 97.665 97.66 97.677 97.8 97.74 100.562 108.135 108.2 107.595 106.927 106.227 100.967 97.862 97.787 97.85 98.842 100.372 99.01 98.877 98.047 98.515 97.565 97.267 97.332 97.91 97.597 97.335 97.412 97.332 97.312 97.285 97.232 97.215 97.15 97.145 97.84 97.765 97.085 96.952 96.922 96.87 96.82 96.792 96.737 96.725 96.697 96.68 96.807 96.847 96.805 97.047 97.067 97.137 96.79 97.132 96.852 97.92 100.342 100.302 99.07 98.097 97.935 96.49 96.465 96.422 96.335 96.185 95.995 95.947 95.877 95.825 95.825 95.85 95.83 95.79 95.797 95.8 95.812 95.875 97.912 96.775 96.39 96.428 96.343 96.058 97.298 96.235 96.213 96.203 96.235 95.768 95.285 94.66 94.853 95.323 95.855 98.058 100.653 99.413 97.748 97.895 98.108 98.218 98.47 98.708 98.555 98.388 98.043 98.165 96.945 96.423 95.503 94.82 94.195 93.903 93.938 93.963 93.925 93.915 93.898 93.88 93.848 93.81 93.818 93.81 93.78 93.765 93.75 93.708 93.718 93.67 93.66 93.635 93.64 93.6 93.58 93.568 93.545 93.528 93.515 93.495 93.485 93.45 93.428 93.443 93.408 93.42 93.443 93.885 94.383 94.835 95.273 95.708 96.043 96.278 96.445 96.445 96.353 96.105 95.855 95.535 95.255 95.008 94.94 94.31 93.953 93.733 93.465 93.405 93.21 92.808 91.973 91.75 92.188 90.795 90.413 90.065 89.653 89.303 88.97 88.66 88.375 88.043 87.69 87.37 87.02 86.705 86.318 85.938 85.553 85.183 84.81 84.493 84.393 84.633 86.13 85.805 83.38 82.748 82.37 82.073 81.823 81.648 81.518 81.375 81.208 81.048 80.905 80.805 80.7 80.615 80.158 80.025 79.928 81.893 83.588 81.288 78.995 78.818 78.758 78.673 78.955 78.645 78.553 78.563 78.323 78.27 78.223 78.125 78.058 78.573 86.828 84.143 77.678 77.473 78.243 79.843
83.395 84.83 85.647 85.692 81.625 79.962 78.162 78.025 78.072 78.007 78.08 78.202 78.73 81.682 81.315 79.185 79.165 79.68 80.48 81.645 82.677 81.692 81.752 82.032 82.775 84.995 89.792 91.275 90.71 89.18 85.762 82.9 83.64 83.807 84.042 84.167 84.302 84.385 84.34 84.277 84.322 84.722 84.745 84.955 85.407 85.735 86.105 86.467 87.195 87.57 87.652 88.45 88.34 88.927 89.045 89.48 90.922 92.992 91.61 91.295 92.075 92.002 92.28 92.68 92.942 93.082 93.197 93.732 95.865 96.28 95.852 94.822 94.705 94.747 94.825 94.827 94.807 97.367 97.897 97.88 96.285 97.495 97.58 98.19 101.227 104.992 105.207 103.675 98.397 97.502 98.087 99.125 101.077 100.012 100.85 100.917 99.915 99.185 99.472 101.347 102.08 99.307 98.897 98.905 99.252 98.615 98.592 98.64 98.647 98.647 98.627 98.655 98.895 99.027 99.467 99.027 98.827 98.772 98.467 98.77 98.775 98.795 98.747 98.722 98.692 98.462 98.46 98.605 98.485 98.51 98.485 98.497 98.542 98.552 98.567 98.63 98.67 98.755 98.897 99.047 99.295 103.052 102.08 100.302 100.395 98.715 98.722 98.707 98.737 99.647 100.867 99.237 99.227 99.447 99.53 99.497 99.152 98.8 98.76 98.815 98.667 98.54 98.437 98.45 100.575 101.51 98.817 98.257 98.162 99.077 104.567 105.685 104.372 104.83 104.642 103.292 101.597 100.907 101.975 100.45 99.54 98.487 97.84 98.392 103.847 106.507 107.412 107.915 107.16 104.412 98.36 98.59 97.855 97.722 97.745 97.735 97.885 99.18 105.792 107.262 107.977 108.325 107.822 107.107 104.567 97.895 97.86 97.825 98.175 97.727 98 97.607 97.495 97.387 97.78 99.942 100.537 98.46 97.227 97.277 97.355 97.325 97.275 97.277 97.245 97.222 97.217 97.227 97.305 97.31 97.107 97.015 96.977 96.925 96.892 97.16 96.84 96.747 96.74 96.727 96.812 97.475 97.535 97.855 97.582 97.815 97.122 97.152 97.74 97.542 98.215 98.125 98.255 98.202 98.132 96.67 96.662 96.55 96.395 97.39 96.612 96.337 96.225 96.222 96.42 97.605 97.225 96.492 95.975 95.947 95.99 96.085 96.787 98.347 97.178 96.498 96.528 96.54 96.548 96.598 96.43 96.718 96.043 95.64 95.03 94.948 95.31 95.77 97.505 99.535 98.608 98.185 98.19 98.318 98.575 98.67 98.928 98.945 98.985 99.048 98.68 98.148 97.675 97.3 96.513 95.463 94.813 94.158 93.953 93.94 93.933 93.93 93.91 93.885 93.86 93.835 93.838 93.82 93.77 93.775 93.76 93.74 93.72 93.7 93.673 93.663 93.643 93.62 93.583 93.565 93.563 93.528 93.523 93.508 93.46 93.46 93.455 93.453 93.468 93.605 94.045 94.528 95.078 95.53 95.913 96.265 96.525 96.678 96.723 96.578 96.35 96.04 95.735 95.428 95.195 94.94 94.418 94.093 93.905 93.645 93.353 93.053 92.943 92.523 92.088 91.673 91.488 90.98 90.513 90.183 89.785 89.43 89.133 88.785 88.465 88.155 87.798 87.403 86.93 86.515 86.063 85.7 85.283 84.97 84.758 84.82 85.798 84.933 84.493 83.008 82.715 82.51 82.283 81.998 81.81 81.618 81.48 81.298 81.135 80.965 80.85 80.738 80.608 80.495 80.21 79.935 79.81 79.698 79.688 80.173 79.103 78.82 78.718 78.615 78.575 78.518 79.043 78.328 78.273 78.223 78.103 78.063 78.033 77.94 79.465 81.083 77.535 79.433 79.49 79.355
77.827 80.39 82.215 82.697 80.832 79.45 78.195 78.852 78.345 78.057 78.162 78.192 80.367 82.447 80.435 78.865 79.305 80.062 80.557 81.065 81.54 81.662 81.722 81.912 83.747 86.36 89.747 91.135 90.807 88.502 84.037 82.817 83.562 83.942 84.267 84.385 84.502 84.53 84.472 84.44 84.562 84.865 84.852 85.345 85.525 85.787 86.325 86.497 86.862 87.215 87.58 87.915 88.26 88.567 88.937 89.252 90.272 92.625 91.317 91.625 91.53 91.832 92.07 92.272 92.727 93.317 93 94.715 95.077 95.097 95.35 94.9 94.75 94.777 94.832 94.797 94.805 96.96 94.97 95.365 96.09 97.01 97.327 97.727 102.25 104.69 105.255 104.012 98.227 97.677 97.995 99.145 99.12 99.37 100.14 99.665 99.172 99.172 99.047 99.115 99.16 98.932 99.187 98.75 98.565 98.482 98.517 98.572 98.582 98.587 98.567 98.562 98.552 98.6 99.075 99.052 98.66 98.805 98.367 98.532 98.462 98.472 98.435 98.432 98.442 98.442 98.445 98.432 98.46 98.467 98.492 98.49 98.507 98.547 98.56 98.612 98.622 98.63 98.792 98.87 98.642 99.085 100.175 99.695 99.635 98.765 98.77 98.75 99.092 99.415 99.485 99.44 99.932 99.307 99.247 99.157 99.187 98.887 98.962 98.847 98.712 98.727 98.52 98.465 98.64 99.162 98.722 98.59 98.2 101.582 107.147 107.105 107.017 106.957 106.875 106.605 106.447 106.36 106.302 106.247 102.855 97.777 97.865 100.97 106.34 107.212 107.912 107.342 106.415 100.38 97.955 97.947 97.932 97.78 97.85 97.822 97.957 98.282 103.002 106.347 107.095 107.765 108.26 107.957 99.765 97.96 97.867 97.97 98.285 97.81 97.905 97.86 97.612 97.39 98.335 100.26 100.537 99.352 97.667 97.277 97.312 97.285 97.227 97.245 97.65 97.707 97.33 97.722 97.81 97.495 97.225 97.097 97.025 96.997 97.007 97.302 97.167 96.727 96.73 96.747 96.862 97.15 99.315 99.487 100.782 102.052 101.585 97.1 97.667 97.05 97.047 97.18 97.945 98.847 98.922 96.895 96.915 96.71 96.552 100.202 100.612 99.26 97.03 96.617 97.282 98.085 101.07 97.265 96.247 96.425 96.247 96.375 96.332 97.177 98.213 97.03 96.6 96.618 96.605 96.64 96.97 96.415 95.74 95.345 95.245 95.218 95.645 96.35 97.515 98.843 98.56 98.515 98.6 98.898 99.268 99.303 99.225 99.225 99.333 99.425 99.39 98.873 98.535 98.158 98.003 96.465 95.373 94.723 94.283 93.955 93.963 93.918 93.905 93.865 93.85 93.84 93.805 93.815 93.788 93.765 93.76 93.718 93.7 93.7 93.678 93.645 93.63 93.595 93.583 93.59 93.578 93.55 93.533 93.495 93.49 93.45 93.443 93.495 93.743 94.243 94.748 95.213 95.673 96.133 96.47 96.71 97.045 96.92 96.795 96.558 96.248 95.843 95.57 95.33 94.77 94.395 94.195 94.063 93.865 93.59 93.29 92.968 92.685 92.358 92.023 91.648 91.293 90.948 90.608 90.275 89.93 89.593 89.27 88.923 88.52 88.088 87.638 87.178 86.658 86.245 85.733 86.618 87.325 85.565 84.318 86.205 84.55 83.78 83.1 82.868 82.67 82.438 82.22 82.01 81.795 81.588 81.403 81.233 81.078 80.898 80.768 80.645 80.508 80.398 80.328 79.888 79.695 79.595 79.47 79.515 79.605 78.708 78.605 78.55 78.53 78.853 78.543 78.265 78.193 78.128 79.073 78.715 79.075 77.85 78.683 83.853 82.32 81.138 81.375 80.425
77.557 77.622 77.905 80.852 80.425 78.14 77.93 78.142 77.905 78.395 78.76 79.112 81.39 82.067 79.252 79.025 79.537 80.317 80.745 82.902 81.505 81.582 81.695 81.835 84.807 89.487 89.787 90.352 90.242 89.277 83.71 83.12 83.567 84.02 84.42 84.545 84.585 84.615 84.572 84.567 84.765 84.75 85.01 85.63 85.752 85.867 86.2 86.485 86.832 87.24 87.615 87.865 88.157 88.455 88.88 88.975 89.585 90.142 90.602 91.142 91.325 91.675 91.927 92.137 92.602 92.695 92.767 92.937 93.597 94.452 94.992 94.89 94.76 94.762 94.837 94.81 94.74 95.207 94.957 95.225 95.835 96.815 97.495 97.632 102.127 104.03 104.002 103.582 100.032 97.765 97.875 98.035 98.147 98.745 99.11 98.93 98.98 99.782 99.24 99.165 99.335 98.857 98.635 98.367 98.337 98.412 98.48 98.492 98.512 98.502 98.507 98.487 98.482 98.462 98.44 98.437 98.417 98.39 98.41 98.427 98.432 98.432 98.42 98.412 98.427 98.425 98.427 98.44 98.452 98.455 98.46 98.435 98.555 98.722 98.602 98.585 98.617 98.715 98.645 98.66 98.672 98.655 99.597 100.527 99.83 99.047 99.93 99.112 99.617 98.925 98.802 99.212 99.932 99.745 99.427 99.292 99.192 99.035 98.865 98.815 98.705 98.625 98.757 99.52 100.647 98.91 99.067 98.645 98.662 102.452 108.092 107.927 107.94 107.845 107.802 107.5 107.352 107.302 107.232 107.17 102.53 97.782 97.877 98.722 102.605 107.947 107.56 106.617 100.905 98.062 98.547 98.147 98.482 98.01 97.907 97.92 98.312 98.985 98.097 100.097 104.772 106.827 107.55 102.952 97.905 97.927 97.917 98.155 99.205 98.472 97.902 97.86 97.605 97.535 101.615 103.997 106.065 105.192 102.232 97.347 97.467 97.335 97.152 97.162 97.857 97.802 97.432 98.112 97.75 97.79 97.405 97.862 98.522 99.315 100.572 98.475 96.892 96.762 96.727 96.74 96.785 100 105.465 106.335 106.85 105.98 104.87 97.6 97.042 97.095 97.14 97.2 97.84 98.265 99.09 97.09 97.057 96.86 98.285 102.752 103.425 102.19 99.462 97.362 97.517 99.195 101.297 99.545 99.162 97.072 96.75 96.982 96.792 97.057 97.823 98.245 97.083 96.655 96.623 96.793 96.545 96.083 95.708 95.523 95.545 95.53 96.068 98.525 98.483 99.31 98.748 98.833 99.075 99.38 99.65 99.698 99.64 99.588 99.698 99.815 99.798 99.778 99.055 98.5 98.085 96.87 96.135 95.375 94.705 94.175 93.985 93.948 93.98 93.898 93.855 93.835 93.828 93.8 93.788 93.775 93.748 93.743 93.715 93.705 93.683 93.673 93.643 93.623 93.613 93.6 93.583 93.553 93.518 93.523 93.508 93.483 93.485 93.848 94.433 94.955 95.395 95.918 96.345 96.693 96.948 97.09 97.068 96.938 96.663 96.383 96.01 95.553 95.193 94.875 94.635 94.395 94.235 94.058 93.823 93.575 93.275 92.995 92.64 92.33 92.018 91.68 91.348 91.03 90.69 90.348 90 89.563 89.16 88.74 88.25 87.773 87.268 86.775 86.3 85.898 86.215 87.918 88.08 86.76 84.533 83.688 83.478 83.27 83.075 82.82 82.618 82.41 82.223 82.013 81.8 81.59 81.368 81.208 81.013 80.86 80.688 80.55 80.4 80.243 80.15 80.1 79.608 79.46 79.395 79.308 79.77 78.723 78.545 78.5 78.44 78.823 78.21 79.358 79.188 82.168 80.78 80.043 79.518 78.345 77.973 80.913 87.08 86.37 81.035 80.623
81.415 77.84 78.812 80.532 80.83 80.5 78.897 78.015 77.805 78.19 78.805 79.212 81.885 80.757 78.892 79.227 79.827 80.432 82.157 86.255 83.187 81.517 81.585 82.055 83.69 88.212 86.847 87.902 87.057 86.26 83.157 83.345 83.89 84.137 84.517 84.64 84.642 84.645 84.582 84.982 84.78 84.912 85.11 85.26 85.545 85.835 86.16 86.91 87.315 87.217 87.547 87.767 88.002 88.177 88.547 88.775 89.555 90.072 90.602 91.085 91.472 91.67 91.785 92.132 92.35 92.515 92.635 92.892 93.52 94.897 95.687 94.935 94.785 94.772 94.827 94.88 94.815 94.867 94.945 95.145 95.697 96.745 96.877 97.25 99.787 102.092 101.72 100.932 99.237 97.662 97.975 98.015 97.91 98.165 98.477 98.375 98.547 99.222 98.617 98.637 98.16 98.212 98.205 98.232 98.302 98.34 98.395 98.42 98.417 98.407 98.475 98.615 98.437 98.407 98.402 98.41 98.395 98.405 98.407 98.412 98.42 98.425 98.53 98.367 98.412 98.512 98.64 98.75 98.487 98.605 98.537 98.737 99.135 99.04 98.872 98.95 98.942 99.055 98.64 98.675 98.972 98.862 98.982 98.89 98.882 99.42 99.757 98.805 98.725 98.752 98.775 98.842 98.94 99.692 100.485 99.797 99.387 99.257 99.085 98.957 98.825 98.92 98.665 101.075 102.215 100.79 99.052 98.957 98.812 102.085 107.41 107.462 107.542 107.597 107.672 107.5 107.5 107.472 107.572 107.695 103.205 97.817 97.867 97.887 97.962 102.177 106.377 102.345 98.49 98.35 98.895 98.627 98.702 98.622 98.025 98.017 98.127 98.145 98.102 98.052 99.38 103.845 102.892 97.985 97.99 97.997 98.337 98.015 98.477 98.297 97.887 97.717 97.545 97.367 101.845 106.437 107.335 106.502 102.135 97.927 98.282 97.28 97.115 97.15 97.277 97.362 101.027 102.085 103.45 103.69 103.905 104.87 105.22 105.547 105.73 103.407 97.327 97.105 96.872 96.805 96.85 97.245 104.665 106.272 106.89 106.102 104.73 97.645 97.14 97.112 97.242 97.262 97.33 97.982 99.48 97.215 97.232 97.017 99.762 103.002 103.607 103.335 101.932 97.967 97.48 97.387 99.702 102.355 102.022 99.777 97.457 96.917 97.947 98.892 99.153 98.033 98.463 96.975 96.698 96.77 96.338 96.078 95.928 95.88 95.895 96.233 97.018 98.763 99.4 99.255 99.183 99.265 99.538 99.713 99.935 99.998 100.308 100.018 100.128 100.695 100.158 100.11 99.695 98.955 98.26 97.515 96.87 96.135 95.36 94.723 94.205 93.928 94.018 94.128 93.855 93.86 93.85 93.815 93.793 93.77 93.733 93.735 93.718 93.693 93.663 93.65 93.628 93.615 93.59 93.605 93.573 93.56 93.528 93.528 93.508 93.525 93.895 94.56 95.158 95.653 96.14 96.595 96.935 97.175 97.28 97.203 97.018 96.808 96.51 95.99 95.683 95.348 95.085 94.898 94.7 94.485 94.265 94.023 93.823 93.548 93.268 92.985 92.675 92.345 92.053 91.69 91.32 90.965 90.588 90.198 89.785 89.325 88.865 88.323 87.82 87.313 86.873 86.473 86.64 85.683 87.958 87.2 85.648 84.725 83.97 83.738 83.533 83.295 83.093 82.843 82.63 82.433 82.235 82.003 81.833 81.618 81.42 81.21 80.988 80.798 80.658 80.49 80.305 80.145 80.083 80.06 79.613 79.368 79.303 79.22 79.095 79.765 78.703 78.455 78.513 78.52 78.173 79.933 82.725 82.238 81.56 79.923 79.045 78.608 77.875 77.503 81.588 85.955 78.328 76.628
84.195 82.947 79.922 79.877 80.145 80.57 80.122 77.807 77.797 77.955 78.78 80.562 81.27 78.87 78.897 79.325 79.875 80.142 80.862 82.302 83.07 82.225 81.312 82.627 83.212 82.377 82.602 83.782 83.17 83.292 83.232 84.875 84.802 84.47 84.84 84.73 84.557 84.562 84.56 84.772 84.867 85.082 85.137 85.345 85.597 86.04 86.245 86.88 87.15 87.172 87.482 87.64 87.775 87.92 88.36 88.825 89.525 89.875 90.355 90.855 91.1 91.437 91.62 91.89 92.177 92.355 92.5 93.847 93.987 95.905 95.68 95.01 94.837 94.802 94.817 94.862 94.805 94.802 94.965 95.12 95.552 96.692 96.767 96.912 98.405 99.76 99.455 98.65 98.04 98.122 98.47 98.055 98.227 97.507 97.637 97.692 97.785 97.857 97.927 97.99 98.005 98.102 98.137 98.237 98.28 98.32 98.357 98.705 98.602 98.715 99.457 99.13 98.432 98.375 98.397 98.485 98.65 98.59 98.647 98.682 98.552 98.492 98.492 98.53 98.477 98.48 98.442 98.942 98.745 98.85 99.06 99.295 98.597 98.472 98.407 98.502 99.002 99.19 99.02 98.675 98.695 98.712 98.745 100.782 101.082 101.14 100.487 98.72 98.712 98.76 98.765 98.785 98.812 99.235 99.185 100.35 100.432 99.782 99.38 99.192 98.907 98.687 99.47 102.03 102.812 102.577 101.407 99.435 99.097 100.482 106.472 106.255 106.592 106.682 106.747 106.55 106.6 106.652 106.73 106.797 101.61 97.82 97.885 97.945 99.42 99.08 100.04 98.08 98.145 98.97 98.282 98.22 98.257 98.25 98.122 98.112 98.187 98.225 98.2 98.185 98.465 98.25 99.455 100.395 101.177 99.287 98.222 98.09 98.022 98.257 97.892 97.747 97.59 97.405 101.365 106.307 107.35 106.642 104.642 97.555 97.927 97.475 97.06 97.06 97.662 97.215 106.062 106.2 106.34 106.47 106.602 106.432 106.567 106.69 106.865 103.95 97.182 97.167 97.617 97.392 97.172 97.122 104.57 106.137 106.877 106.195 105.29 99.725 97.052 97.132 97.195 97.245 97.46 98.092 100.135 97.792 97.432 97.597 101.99 103.232 103.545 102.925 101.92 99.615 97.11 97.375 102.155 103.247 103.752 102.497 100.405 98.95 99.062 98.365 97.863 98.07 99.035 98.27 97.233 96.645 96.375 96.328 96.503 96.47 97.005 97.33 98.43 99.405 99.99 99.48 99.56 99.698 99.838 100.023 100.138 100.16 100.21 100.29 100.363 100.46 100.515 100.565 100.323 99.68 98.968 98.21 97.505 96.748 96.065 95.35 94.663 94.098 93.938 93.963 93.893 93.863 93.833 93.81 93.795 93.77 93.765 93.73 93.723 93.705 93.688 93.645 93.628 93.615 93.613 93.595 93.61 93.548 93.533 93.533 93.58 93.998 94.695 95.325 95.898 96.388 96.838 97.193 97.43 97.465 97.408 97.2 96.988 96.55 96.175 95.823 95.598 95.378 95.158 94.963 94.698 94.438 94.165 93.903 93.638 93.37 93.1 92.81 92.498 92.188 91.883 91.53 91.16 90.758 90.325 89.893 89.445 88.91 88.358 87.798 87.39 87.005 87.333 88.73 87.158 85.23 85.898 85.073 84.475 84.278 84.06 83.835 83.588 83.368 83.148 82.915 82.685 82.473 82.268 82.055 81.843 81.683 81.47 81.243 81 80.78 80.63 80.455 80.228 80.093 79.99 79.913 79.75 79.563 79.243 79.14 79.028 79.08 79.303 78.413 78.325 78.2 81.275 80.93 84.178 83.82 82.39 80.34 81.325 83.568 81.12 78.833 77.388 78.633 77.26 76.428
84.585 81.837 79.86 79.91 79.94 79.96 78.857 77.955 78.02 78.252 80.012 80.572 78.777 78.707 79.162 79.52 79.895 80.142 80.312 80.767 82.732 84.14 84.332 85.917 86.65 87.572 86.672 86.747 84.265 83.385 83.57 84.355 84.475 84.46 84.935 84.745 84.575 84.587 84.57 84.787 84.92 85.067 85.17 85.395 85.65 86.242 86.82 86.702 86.972 87.112 87.272 87.452 87.585 87.795 88.202 88.747 89.29 89.807 90.302 90.835 90.995 91.32 91.635 91.807 92.037 92.292 92.27 92.47 93.055 93.772 95.075 95.762 94.862 94.832 94.805 94.872 94.835 94.822 94.867 95.035 95.35 96.282 96.852 96.7 97.195 96.845 97.455 97.045 97.245 96.892 97.18 97.822 97.427 97.377 97.55 97.657 97.74 97.825 97.902 97.957 98.03 98.075 98.125 98.21 98.235 98.265 98.34 98.91 98.63 98.627 98.55 98.655 98.57 98.62 98.63 98.627 99.135 98.655 98.807 99.527 98.435 99.185 99 98.605 98.382 98.492 98.312 98.63 98.892 98.362 99.512 100.615 99.557 98.715 102.187 101.957 102.18 99.135 99.117 98.672 98.662 99.725 99.265 100.887 101.805 103.17 103.1 100.59 98.79 98.755 98.785 98.8 98.825 98.84 98.887 99.412 102.852 102.01 100.47 99.442 99.282 99 98.81 100.1 102.04 102.832 102.202 100.145 98.887 98.75 99.977 99.405 98.692 100.777 102.232 102.8 102.137 102.782 103.852 102.67 100.125 97.94 97.937 98.015 99.755 101.437 100.965 97.947 98.065 98.165 98.25 98.282 98.282 98.155 98.197 98.207 98.317 98.37 98.315 98.295 99.46 98.617 99.712 101.7 101.175 99.9 98.52 98.36 98.43 98.14 97.892 97.782 97.592 97.692 101.222 106.187 107.3 106.8 105.635 97.64 97.535 97.245 97.142 97.13 98.165 97.235 107.47 107.21 107.332 107.317 107.242 106.957 106.885 106.77 106.642 105.86 97.405 96.865 97.437 97.527 97.192 97.142 104.06 106.025 106.85 106.337 105.41 99.365 97.012 97.045 97.122 97.177 97.307 97.852 99.445 98.305 97.61 99.602 102.852 103.462 103.33 102.675 102.115 98.737 97.222 97.692 102.835 103.517 103.487 102.787 100.272 98.085 97.822 97.59 97.8 98.643 99.358 97.575 96.928 96.663 96.63 96.68 97.068 99.603 99.45 99.418 99.55 99.788 99.798 99.785 99.94 99.995 100.123 100.193 100.245 100.308 100.338 100.463 100.58 100.715 100.808 100.873 100.865 100.343 99.568 98.803 98.083 97.395 96.78 96.04 95.338 94.578 94.013 93.915 93.878 93.86 93.845 93.823 93.815 93.78 93.76 93.753 93.73 93.7 93.693 93.68 93.643 93.635 93.618 93.593 93.628 93.61 93.558 93.633 94.1 94.84 95.495 96.088 96.64 97.098 97.5 97.67 97.69 97.598 97.39 97.035 96.675 96.36 96.103 95.895 95.645 95.368 95.103 94.79 94.498 94.173 93.81 93.568 93.31 93.048 92.79 92.508 92.213 91.893 91.605 91.225 90.828 90.348 89.913 89.435 88.913 88.35 87.85 87.423 87.445 88.188 89.183 88.535 86.43 85.213 85 84.823 84.608 84.388 84.178 83.93 83.698 83.425 83.215 82.983 82.778 82.563 82.35 82.133 81.928 81.723 81.483 81.258 81.033 80.798 80.608 80.415 80.223 80.075 79.945 79.82 79.675 79.54 79.25 79.143 78.97 78.88 78.803 78.55 78.333 78.253 79.635 80.79 83.428 83.633 81.528 80.073 84.223 83.363 82.43 78.185 77.263 77.838 78.755 76.608
81.57 78.065 78.567 79.842 77.415 78.02 77.547 77.725 78.527 79.295 81.197 80.77 78.432 78.91 79.335 79.64 80.487 80.68 80.325 82.3 85.332 87.312 88.312 89.837 90.695 90.442 89.205 88.212 84.267 83.877 84.645 84.115 84.092 84.372 84.605 84.715 84.66 84.63 84.607 84.767 84.912 85.037 85.322 85.49 86.027 86.11 86.46 86.685 86.91 87.02 87.155 87.312 87.912 87.847 88.262 88.857 89.282 89.837 90.202 90.552 90.872 91.26 91.437 91.68 91.875 92.075 92.157 92.425 92.852 93.547 96.337 96.515 94.882 94.82 94.827 94.835 94.815 94.817 94.877 94.982 95.22 95.467 95.695 96.092 96.007 96.175 96.367 96.42 96.592 96.727 97.275 97.542 97.377 97.372 97.555 97.632 97.752 97.81 97.887 97.93 98.017 98.08 98.192 98.265 98.205 98.272 98.745 99.2 99.045 99.252 98.702 98.33 98.31 99.08 99.062 99.207 98.46 98.53 98.68 101.142 100.56 102.592 102.887 103.322 99.54 99.125 100.865 101.665 103.03 104.372 104.57 104.917 104.185 103.127 105.22 105.477 105.45 101.302 98.962 98.685 98.617 98.682 99.04 103.43 105.322 105.357 105.397 99.78 98.73 98.762 98.762 98.78 98.832 98.882 98.95 99.42 102.547 104.717 103.412 102.132 99.49 99.395 99.2 99.132 99.6 101.685 100.46 98.85 98.405 98.257 98.115 98.127 98.49 98.092 98.035 97.945 97.897 97.847 97.775 97.777 98 98.007 98.035 98.097 98.297 99.665 100.975 99.632 98.462 98.307 98.317 98.377 98.392 98.26 98.267 98.315 98.39 98.502 98.482 98.68 100.937 103.765 104.365 105.387 102.05 98.817 98.502 98.362 98.21 98.055 97.91 97.81 97.637 97.55 100.057 106.04 107.187 106.95 105.795 97.622 97.41 97.282 97.65 97.987 97.735 97.35 105.935 106.78 106.62 106.47 106.345 105.965 105.75 105.6 105.485 104.015 97.85 97.127 97.895 96.925 96.925 97.077 104.037 105.927 106.815 106.44 105.525 100.772 97.022 97.037 97.007 97.115 97.437 98.237 98.91 98.565 97.725 100.622 103.115 103.592 103.092 101.99 100.167 97.57 97.35 100.61 103.1 103.61 103.18 102.562 101.65 98.122 97.55 97.447 98.218 99.688 97.92 97.153 97.125 97.298 97.163 97.573 98.283 99.69 100.215 100.003 99.863 100.01 100.108 100.128 100.178 100.258 100.295 100.39 100.478 100.48 100.488 100.58 100.713 100.888 101.005 101.115 101.125 100.78 100.145 99.403 98.718 98.033 97.393 96.708 96.063 95.318 94.56 93.968 93.855 93.868 93.843 93.843 93.785 93.775 93.783 93.76 93.743 93.71 93.703 93.685 93.67 93.625 93.615 93.605 93.67 93.575 93.658 94.25 94.97 95.675 96.29 96.893 97.335 97.703 97.97 97.963 97.828 97.603 97.313 96.9 96.683 96.423 96.15 95.823 95.495 95.2 94.85 94.513 94.168 93.785 93.395 93.105 92.85 92.573 92.28 92.038 91.91 91.46 91.138 90.738 90.355 89.878 89.413 88.97 88.473 88.653 89.748 87.795 87.023 87.153 86.9 85.76 85.555 85.35 85.163 84.98 84.733 84.513 84.258 84.038 83.793 83.548 83.338 83.108 82.913 82.693 82.44 82.198 81.96 81.713 81.51 81.295 81.05 80.835 80.613 80.383 80.195 80.043 79.873 79.715 79.495 79.485 79.298 79.133 78.955 78.835 78.753 78.623 78.32 78.22 78.65 80.513 82.883 80.875 81.778 81.975 85.08 85.323 80.398 77.29 77.543 79.738 79.26 77.178
77.397 77.495 77.49 77.357 77.18 77.617 77.68 77.795 78.417 78.935 80.175 78.952 78.637 79.09 79.45 79.697 80.202 80.447 80.24 82.147 85.052 86.875 88.3 90.067 91.15 90.63 89.137 87.71 84.26 83.405 83.72 83.81 84.095 84.387 84.65 84.77 84.707 84.657 84.662 84.747 84.942 85.057 85.39 85.635 86.015 86.145 86.415 86.6 86.765 87.27 87.06 87.36 87.677 88.205 88.407 88.865 89.32 89.757 90.28 90.532 90.845 91.202 91.34 91.565 91.717 91.87 91.957 92.11 92.6 94.537 95.81 96.145 94.897 94.79 94.827 94.88 94.837 94.802 94.887 94.972 95.182 95.332 95.532 95.722 95.91 96.045 96.217 96.345 96.542 96.69 96.842 97.002 97.157 97.33 97.485 97.605 97.682 97.8 97.99 98.055 98.382 98.327 98.357 98.187 98.257 98.287 98.395 98.53 98.417 98.88 98.617 98.5 98.355 98.42 98.937 100.01 99.8 101.582 104.17 103.507 104.897 104.905 105.215 104.375 100.5 102.467 104.23 105.22 105.832 105.622 104.947 104.1 103.097 103.075 106.78 106.845 106.237 103.14 98.86 98.842 98.732 98.657 98.64 102.427 106.295 106.92 105.797 103.29 98.707 98.725 98.807 98.752 98.97 99.175 99.102 99.015 99.19 99.587 102.737 101.725 100.477 99.62 99.522 99.34 99.102 99.065 98.967 98.62 98.505 98.332 98.187 98.125 98.215 98.107 98.047 98.08 98.572 97.905 97.91 97.932 97.972 98.387 98.142 98.212 98.262 100.322 106.76 107.88 106.79 104.327 99.035 98.427 98.492 98.415 98.385 98.435 98.487 98.622 98.697 98.79 104.592 107.805 108.765 107.797 105.44 98.715 98.59 98.46 98.285 98.105 97.942 97.855 98.04 97.782 99.817 106.152 107.772 107.522 106.2 99.72 97.515 97.347 97.572 97.997 98.07 97.335 103.85 104.972 103.975 102.047 100.647 99.017 99.725 98.435 98.517 97.357 97.587 97.567 97.95 97.085 96.932 97.147 102.05 105.81 106.697 106.555 105.627 101.55 97 96.985 96.985 97.09 97.612 98.19 98.567 99.695 97.932 97.937 100.02 100.912 102.515 99.072 99.232 97.647 98.375 102.67 103.335 103.58 102.94 101.5 100.545 98.08 97.785 98.24 99.475 97.895 97.42 97.435 97.533 97.675 98.615 100.24 100.125 100.223 100.068 100.105 100.165 100.17 100.253 100.333 100.408 100.538 100.6 100.695 100.79 100.858 100.895 100.913 100.985 101.075 101.178 101.293 101.33 101.188 100.67 99.973 99.363 98.733 98.04 97.373 96.738 96.063 95.173 94.368 93.9 93.873 93.833 93.84 93.815 93.805 93.77 93.755 93.74 93.733 93.703 93.688 93.66 93.64 93.633 93.618 93.573 93.715 94.31 95.163 95.813 96.463 97.028 97.578 97.96 98.173 98.268 98.143 97.88 97.495 97.215 96.97 96.743 96.375 95.96 95.605 95.238 94.888 94.535 94.17 93.808 93.358 92.943 92.633 92.295 92.03 91.735 91.528 91.263 90.923 90.645 90.318 89.923 89.458 88.953 88.818 88.85 89.578 90.088 87.89 86.76 86.313 86.1 85.87 85.708 85.498 85.293 85.078 84.893 84.645 84.395 84.183 83.95 83.733 83.488 83.26 83.035 82.775 82.523 82.27 82.05 81.785 81.563 81.333 81.1 80.845 80.625 80.395 80.19 79.988 79.808 79.623 79.43 79.34 79.313 79.078 79 78.803 78.688 78.553 78.3 78.208 78.15 78.693 79.645 79.768 78.148 80.465 83.103 83 81.325 77.11 78.263 78.808 79.843 78.078
79.56 77.202 77.422 77.647 77.647 77.99 77.725 78.18 78.342 80.94 80.295 78.53 78.837 79.162 79.49 79.705 79.82 79.877 80.215 80.807 80.912 85.49 88.217 89.687 91.225 90.747 88.972 83.725 83.212 83.42 83.64 83.897 84.157 84.38 84.637 85.685 84.827 84.717 84.702 84.725 84.945 85.267 86.01 85.717 85.965 86.212 86.427 86.615 86.81 87.16 87.21 87.312 87.622 88.042 88.447 89.027 89.325 89.715 90.192 90.442 90.867 91.027 91.205 91.497 91.612 91.762 91.877 92.902 92.695 95.36 96.405 95.807 94.98 94.825 94.837 94.852 94.85 94.817 94.877 94.995 95.112 95.295 95.505 95.7 95.845 95.995 96.16 96.355 96.5 96.692 96.86 97.04 97.217 97.667 97.547 97.945 97.712 98.242 98.192 97.947 98.035 98.062 98.1 98.162 98.222 98.265 98.352 98.377 99.34 100.585 100.192 103.055 102.762 102.895 98.667 103.067 104.705 105.007 105.66 106.342 106.255 106.502 106.215 104.7 100.91 101.592 104.082 105.38 106.927 105.962 104.567 103.532 101.045 102.192 106.805 106.78 105.75 104.802 101.572 98.815 98.842 98.657 98.835 104.34 106.102 107.215 106.142 104.05 99.105 98.897 99.607 100.132 99.805 99.672 99.17 98.887 98.935 99.037 100.73 100.142 99.56 99.602 100.087 99.627 99.487 99.325 99.095 98.877 98.62 98.46 98.322 98.2 98.142 98.14 98.055 98.005 98.065 98.062 98.052 98.052 98.112 98.265 98.175 98.34 98.427 102.76 107.037 108.125 107.742 106.64 99.102 98.502 98.582 98.495 98.477 98.495 98.565 98.715 99.105 99.34 104.962 107.682 108.72 107.962 105.452 99.007 98.717 98.545 98.532 98.32 98.01 97.847 97.712 97.637 99.102 106.04 107.205 107.482 106.33 99.315 97.5 97.395 97.412 97.995 98.785 98.507 97.802 98.115 97.402 97.33 97.382 97.177 97.095 97.162 97.115 97.147 97.35 97.352 97.302 97.67 97.397 97.48 101.195 105.69 106.617 106.66 105.737 102.25 97.005 97.015 96.987 97.115 97.697 98.212 98.505 100.04 98.045 97.882 97.78 97.73 99.147 97.677 97.64 99.3 99.965 101.135 102.877 103.35 102.397 99.515 99.097 99.252 99 99.43 98.003 97.615 97.823 97.893 98.205 98.825 100.105 100.343 100.52 100.243 100.168 100.18 100.225 100.38 100.598 100.848 101.02 101.07 101.135 101.213 101.245 101.29 101.285 101.3 101.378 101.448 101.458 101.47 101.548 101.528 101.118 100.578 99.998 99.345 98.71 98.08 97.395 96.618 95.84 95.065 94.33 93.918 93.878 93.833 93.813 93.795 93.76 93.778 93.76 93.733 93.708 93.675 93.673 93.653 93.635 93.6 93.755 94.445 95.213 95.93 96.593 97.188 97.708 98.143 98.438 98.555 98.448 98.215 97.838 97.553 97.285 96.945 96.523 96.098 95.673 95.33 94.965 94.615 94.203 93.833 93.505 93.028 92.59 92.163 91.82 91.465 91.203 90.918 90.65 90.388 90.158 89.82 89.465 89.135 89.3 91.188 90.68 87.783 87.655 86.845 86.628 86.43 86.245 86.04 85.845 85.655 85.443 85.268 85.02 84.808 84.585 84.358 84.135 83.9 83.638 83.375 83.1 82.843 82.61 82.39 82.13 81.9 81.648 81.418 81.153 80.88 80.668 80.443 80.233 79.995 79.773 79.633 79.49 79.345 79.368 79.12 78.93 78.843 78.673 78.493 78.348 78.215 78.073 77.875 77.64 77.498 77.86 79.488 79.918 80.528 79.01 76.72 76.365 78.225 77.2 76.038
81.717 78.25 77.28 77.352 77.527 78.342 78.15 78.785 80.252 80.94 78.58 78.687 78.987 81.242 83.182 79.82 79.822 79.887 79.917 80.385 80.935 85.212 88.055 89.602 91 90.782 88.725 84.15 83.37 83.46 83.702 83.982 84.242 86.905 87.437 85.5 84.87 84.765 84.747 84.775 85.082 85.312 85.595 85.765 85.97 86.222 86.722 86.657 86.88 87.062 87.262 87.42 87.645 88.032 88.452 88.792 89.15 89.842 90.37 90.367 90.795 90.925 91.1 91.337 91.51 91.647 91.735 91.897 92.727 93.467 95.262 95.382 95.012 94.84 94.85 94.877 94.862 94.84 94.847 94.967 95.062 95.24 95.445 95.67 95.865 96.002 96.377 96.58 97.247 97.535 97.295 97.875 97.445 97.812 97.97 98.24 97.707 98.68 97.812 98.292 98.662 98.46 98.632 98.992 98.422 98.205 98.36 102.99 103.502 104.7 104.987 105.255 105.477 104.735 98.625 102.96 105.547 105.89 106.025 106.692 106.505 106.125 105.787 104.957 101.977 101.442 103.882 105.102 105.875 105.552 104.63 103.715 101.025 100.297 103.337 105.182 103.492 103.692 102.337 99.587 98.667 98.927 98.705 104.02 105.792 107.67 106.477 105.007 99.692 98.772 98.795 99.232 99.117 98.785 98.797 98.772 98.815 98.84 99.032 99.24 99.327 99.457 99.647 99.792 99.71 99.6 99.467 99.242 98.965 98.695 98.527 98.427 98.37 98.322 98.177 98.177 98.23 98.492 98.192 98.17 98.452 98.277 98.335 98.47 98.807 104.805 107.492 108.322 107.495 104.46 98.59 98.572 98.63 98.587 98.542 98.58 98.615 98.875 99.33 99.17 103.22 107.757 108.805 108.282 105.797 99.025 98.802 98.6 98.35 98.057 97.93 97.827 97.682 97.602 98.43 105.667 107.075 107.597 106.492 101.075 97.527 97.432 98.322 100.972 101.18 100.065 97.407 97.505 97.292 97.295 97.22 97.147 97.372 97.182 97.162 97.185 97.917 99.242 100.085 100.38 100.32 97.67 99.022 103.335 104.395 101.887 100.695 99.482 97.012 96.987 97.015 97.08 97.567 98.162 98.435 100.545 98.457 98.22 98.157 98.097 98.047 98.022 98.667 99.982 98.507 98.277 99.062 100.035 99.91 98.197 98.587 99.632 99.467 98.142 97.965 99.28 98.273 98.628 99.585 100.86 100.775 100.34 100.203 100.163 100.225 100.37 100.625 100.96 101.24 101.415 101.603 101.68 101.825 101.85 101.88 101.9 101.905 101.85 101.853 101.813 101.78 101.748 101.758 101.79 101.635 101.153 100.555 100.083 99.318 98.653 98.013 97.243 96.503 95.725 94.92 94.22 93.825 93.898 93.8 93.79 93.778 93.783 93.745 93.725 93.705 93.705 93.685 93.683 93.693 93.868 94.593 95.298 96.008 96.728 97.37 97.958 98.36 98.65 98.81 98.723 98.56 98.228 97.893 97.678 97.27 96.793 96.335 95.878 95.453 95.083 94.7 94.348 93.96 93.56 93.195 92.805 92.498 91.98 91.573 91.233 90.908 91.118 90.8 90.045 89.803 89.575 90.425 91 91.17 88.755 88.023 87.415 87.175 86.965 86.758 86.555 86.375 86.17 85.983 85.79 85.6 85.403 85.185 84.985 84.74 84.523 84.275 84.033 83.745 83.455 83.198 82.985 82.743 82.488 82.238 81.995 81.748 81.508 81.24 80.975 80.738 80.498 80.28 80.05 79.833 79.675 79.51 79.373 79.278 79.265 78.988 78.815 78.718 78.458 78.285 78.223 78.01 77.783 77.598 77.435 77.315 77.205 77.148 76.968 76.893 77.203 76.42 76.19 78.128 79.225
80.207 77.192 77.115 77.322 77.382 77.74 78.205 79.655 81.485 79.447 78.642 78.897 79.162 80.79 84.005 81.01 79.857 79.92 80.005 80.357 80.84 83.975 88.067 89.522 90.255 89.992 88.072 83.345 83.312 83.545 83.817 84.08 84.305 87.002 89.202 85.677 84.857 84.765 84.792 84.827 84.987 85.585 85.545 85.83 86.127 86.607 86.785 86.857 86.887 87.077 87.152 87.28 87.537 87.885 88.337 88.685 89.022 89.525 89.79 90.237 90.692 90.812 91.087 91.215 91.32 91.49 91.587 91.655 92.187 92.91 95.717 95.717 95.187 94.897 94.862 94.89 94.887 94.85 94.815 94.912 95.025 95.22 95.46 96.07 97.025 97.632 98.1 97.25 96.757 96.685 96.972 96.785 96.802 97.345 97.742 98.147 98.007 98.302 98.815 100.282 101.437 102.795 103.487 103.965 102.212 98.192 98.45 103.357 105.692 106.237 106.792 106.707 106.457 105.035 99.052 101.825 105.255 105.215 105.267 105.445 105.135 104.637 103.667 103.267 101.51 99.555 103.452 104.21 103.177 102.15 101.222 100.445 99.16 99.342 99.01 98.955 101.405 102.582 102.617 100.332 98.737 98.672 98.73 101.712 105.44 106.885 106.747 105.312 99.96 98.72 98.71 98.747 98.765 98.79 98.777 98.797 98.815 98.85 99.502 99.31 99.5 99.48 99.547 99.66 100.28 99.787 99.677 99.647 99.41 99.065 98.81 98.597 98.565 98.477 98.495 98.42 98.385 98.37 98.315 98.31 98.41 98.475 98.53 98.61 99.3 106.287 107.922 108.505 107.482 101.817 98.62 98.677 98.722 98.66 98.602 98.662 99.155 99.105 99.455 99.352 102.765 107.615 108.73 108.437 107.227 99.06 98.912 98.717 98.527 98.577 98.5 97.827 97.735 97.642 98.405 105.557 106.94 107.655 106.63 101.742 97.612 97.492 97.532 101.497 101.342 100.587 97.335 97.5 97.382 97.362 97.295 97.462 97.66 97.637 97.702 97.725 98.292 100.635 101.265 101.332 100.745 97.955 96.985 97.065 97.022 97.525 97.21 97.28 97.51 97.917 98.04 98.152 98.472 98.6 98.852 100.372 98.477 98.475 98.51 98.48 98.487 98.422 99.377 99.907 98.62 98.192 98.165 98.277 98.532 98.935 100.467 99.465 98.457 98.325 98.378 99.485 99.225 100.74 102.418 102.28 100.575 100.288 100.208 100.35 100.603 100.938 101.288 101.57 101.82 101.96 102.118 102.253 102.358 102.403 102.39 102.385 102.33 102.348 102.283 102.203 102.14 102.078 102.01 101.98 101.975 101.715 101.138 100.523 99.873 99.27 98.615 97.858 97.14 96.383 95.56 94.793 94.085 93.858 93.84 93.798 93.785 93.755 93.753 93.743 93.703 93.71 93.685 93.745 93.983 94.655 95.468 96.098 96.843 97.493 98.093 98.558 98.905 99.07 99.05 98.858 98.633 98.268 98.055 97.803 97.27 96.758 96.313 95.923 95.483 95.048 94.645 94.27 93.883 93.493 93.14 92.825 92.47 92.053 91.793 91.323 91.01 90.808 90.49 90.155 89.933 89.173 88.983 90.4 88.695 88.038 87.76 87.52 87.313 87.083 86.89 86.703 86.52 86.333 86.14 85.945 85.725 85.553 85.365 85.15 84.893 84.638 84.378 84.11 83.805 83.56 83.33 83.085 82.83 82.573 82.34 82.115 81.888 81.63 81.353 81.07 80.818 80.54 80.308 80.22 79.993 79.733 79.548 79.39 79.258 79.313 79.058 78.803 78.705 78.515 78.268 78.178 77.99 77.76 77.548 77.378 77.243 77.13 76.888 76.653 76.455 76.383 76.148 76.278 77.275 76.043
78.682 77.33 77.175 77.257 77.347 77.707 79.027 81.632 79.305 78.577 78.817 79.05 79.267 80.452 84.342 80.625 79.962 80.092 80.227 83.04 83.91 83.777 83.352 83.095 84.71 82.435 84.267 84.13 83.35 83.67 84.235 84.37 84.425 84.72 84.947 84.867 84.792 84.805 84.857 84.852 84.992 85.8 85.552 85.945 86.202 86.417 86.515 86.647 86.827 87 87.09 87.295 87.475 87.977 88.31 88.627 88.975 89.72 89.745 90.342 90.34 90.622 90.835 91.007 91.157 91.347 91.415 91.5 91.85 93.802 96.9 95.577 95.285 94.912 94.787 94.882 94.907 94.902 94.872 94.882 94.962 95.205 95.94 97.117 97.827 97.995 98.265 99.59 99.282 99.677 98.752 97.285 97.29 97.097 97.837 98.52 99.965 100.78 103.982 104.425 104.69 105.292 105.64 105.607 104.277 98.275 98.755 102.76 105.645 106.54 106.43 106.07 105.752 105.1 100.555 100.075 104.217 103.577 103.427 102.432 102.035 101.86 101.432 101.127 100.862 99.197 99.37 99.48 98.487 98.867 98.287 98.325 98.352 98.492 98.88 98.697 100.342 100.167 101.422 100.332 98.78 98.65 98.6 100.072 105.107 106.57 107.012 105.625 101.79 98.697 98.912 98.75 98.762 98.802 98.835 98.792 98.8 98.85 98.885 99.31 99.475 99.545 99.557 99.657 99.805 99.952 100.167 99.717 99.662 99.507 99.267 98.952 98.685 98.61 98.547 98.542 98.575 98.515 98.5 98.46 98.542 98.592 98.68 98.837 101.865 107.307 108.347 108.355 107.037 99.827 98.692 98.742 98.827 98.742 98.672 98.722 99.892 98.905 99.022 99.08 102.217 107.717 108.887 108.855 107.757 99.687 99.125 98.802 98.54 98.437 98.187 97.882 97.785 97.647 97.897 104.07 106.005 107.55 104.19 101.402 97.59 97.557 97.777 99.32 99.745 98.942 97.452 97.642 97.55 97.805 97.92 98.08 98.31 98.135 98.092 98.125 98.402 100.267 100.347 100.195 99.77 98.777 97.595 98.477 98.257 98.33 98.707 98.592 98.5 98.592 98.752 98.705 98.627 98.837 98.965 100.157 99.202 99.345 99.465 99.557 99.13 98.755 99.992 100.93 99.827 98.68 98.77 99 99.91 99.872 98.947 98.597 98.725 98.77 99.258 99.535 101.575 102.408 101.513 100.65 100.288 100.355 100.603 100.903 101.208 101.55 101.893 102.118 102.295 102.408 102.46 102.51 102.563 102.588 102.603 102.613 102.623 102.6 102.563 102.51 102.435 102.34 102.283 102.183 102.125 102.095 101.698 101.06 100.445 99.85 99.183 98.46 97.713 96.998 96.125 95.4 94.64 93.948 93.805 93.83 93.785 93.78 93.74 93.733 93.72 93.715 93.738 94.093 94.815 95.565 96.25 96.945 97.635 98.23 98.71 99.095 99.333 99.35 99.18 98.925 98.638 98.44 98.273 97.975 97.278 96.828 96.43 96.02 95.738 95.125 94.833 94.425 94.05 93.71 93.36 93.05 92.553 92.418 92.858 91.553 91.178 91.683 90.768 90.425 89.993 89.125 88.85 88.625 88.355 88.095 87.865 87.628 87.413 87.213 87.025 86.855 86.683 86.498 86.293 86.12 85.928 85.743 85.508 85.233 84.978 84.725 84.46 84.2 83.948 83.705 83.468 83.2 82.975 82.74 82.513 82.263 81.99 81.72 81.44 81.165 80.905 80.63 80.368 80.168 79.99 79.82 79.633 79.425 79.308 79.238 79.075 78.84 78.693 78.575 78.273 78.098 77.98 77.783 77.578 77.41 77.258 77.063 76.813 76.595 76.348 76.203 76.19 77.195 75.64 75.375
79.002 77.182 77.207 77.257 77.545 78.025 78.85 79.447 78.51 79.087 78.955 79.172 79.38 79.637 79.975 79.97 80.207 80.407 80.582 84.317 84.735 81.907 83.722 82.622 82.272 82.517 83.977 84.41 83.472 83.772 86.175 85.977 84.567 85.23 85.525 84.705 84.78 84.815 84.887 84.895 84.955 85.505 85.635 86.097 86.392 86.427 86.55 86.667 86.887 87.017 87.207 87.275 87.337 87.537 87.887 88.357 88.74 89.137 89.5 89.942 90.332 90.39 90.67 90.89 91.052 91.265 91.337 91.407 92.265 93.685 93.532 95.567 95.15 94.945 94.822 94.842 94.882 94.85 94.86 94.862 94.972 95.097 95.195 96.385 96.185 95.902 100.242 102.012 102.245 102.667 101.587 99.132 97.84 97.015 97.977 99.922 100.237 101.82 104.38 105.707 106.092 106.832 106.497 105.98 104.58 99.987 100.275 101.56 105.11 105.057 104.06 103.532 103.112 103.14 101.117 99.305 101.422 101.355 100.782 100.517 99.922 99.605 99.835 98.642 99.352 98.595 98.197 98.197 98.157 99.275 98.23 98.262 98.26 99.547 99.442 98.28 98.265 98.3 98.322 98.722 99.367 99.145 98.647 98.777 104.822 106.14 106.287 105.742 102.06 98.76 99.185 98.995 98.82 98.76 98.825 98.787 98.84 98.985 99.075 99.275 99.627 99.56 99.515 99.475 99.342 99.39 99.757 100.112 100.422 99.89 99.602 99.465 99.117 98.77 98.622 98.925 98.975 98.6 98.572 98.555 98.652 98.725 99.042 98.872 103.975 107.662 108.75 108.297 106.357 98.915 98.825 98.847 98.895 98.8 98.78 98.767 99.215 98.972 99.11 99.127 101.34 107.402 108.855 109.03 107.935 99.872 99.047 98.787 98.535 98.272 98.047 97.887 97.765 97.692 97.655 97.81 98.855 97.887 98.132 98.11 98.242 98.395 98.532 98.545 98.455 98.43 98.277 98.432 98.465 98.38 98.377 98.432 98.702 98.822 98.785 98.625 98.69 99.055 98.635 98.68 98.432 98.412 98.46 98.762 98.685 98.615 98.595 98.647 98.677 98.715 98.735 98.76 98.747 98.717 98.88 99.727 99.865 99.87 99.885 99.427 100.037 98.952 99.98 101.46 100.66 99.23 99.817 100.29 99.672 98.807 98.872 98.985 99.29 101.955 100.62 102.62 102.053 101.075 100.485 100.315 100.29 100.628 101.078 101.46 101.808 102.083 102.325 102.438 102.51 102.563 102.598 102.595 102.635 102.655 102.665 102.69 102.665 102.678 102.67 102.663 102.625 102.56 102.468 102.37 102.233 102.175 102.103 101.648 101.055 100.443 99.733 99 98.32 97.523 96.76 96.03 95.265 94.51 93.95 93.84 93.81 93.77 93.775 93.77 93.725 93.75 94.168 94.91 95.685 96.398 97.145 97.723 98.355 98.835 99.243 99.52 99.753 99.518 99.27 99.018 98.778 98.635 98.458 97.878 97.363 97.105 96.615 96.348 95.715 95.335 94.98 94.588 94.213 93.863 93.558 93.168 92.72 92.315 92.36 91.965 91.415 93.27 90.188 89.805 89.493 89.18 88.953 88.705 88.473 88.228 87.975 87.78 87.56 87.348 87.188 86.99 86.815 86.643 86.47 86.278 86.075 85.85 85.565 85.318 85.058 84.83 84.565 84.308 84.04 83.805 83.568 83.35 83.138 82.918 82.653 82.383 82.113 81.813 81.52 81.238 80.968 80.708 80.455 80.23 80.07 79.9 79.695 79.483 79.413 79.135 79.415 78.99 78.71 78.698 78.385 78.068 77.988 77.783 77.608 77.435 77.273 77.058 76.785 76.573 76.32 76.11 75.898 75.705 75.478 75.298
77.517 77.385 77.345 78.127 77.92 78.43 78.362 78.39 78.62 78.835 79.01 79.182 79.48 79.967 79.907 80.11 80.35 80.605 80.91 81.112 81.417 81.732 82.612 82.747 82.715 82.9 83.137 83.417 83.59 83.867 84.545 84.82 84.57 84.73 84.785 84.675 84.75 84.837 84.937 84.975 84.997 85.162 86.33 86.07 86.275 86.507 86.502 86.5 86.655 86.78 86.972 87.112 87.272 87.497 87.827 88.38 88.722 89.087 89.275 89.66 89.99 90.317 90.622 90.957 91.035 91.132 91.207 91.362 91.832 93.532 93.77 96.675 96.312 94.982 94.89 94.882 94.94 94.927 94.877 94.892 95.005 95.037 95.635 95.657 95.492 95.692 99.587 103.19 103.935 103.892 101.357 99.847 98.132 97.295 97.827 99.502 99.32 101.427 104.16 105.377 105.012 105.12 105.01 103.8 103.52 98.942 98.912 99.772 101.067 100.41 98.647 98.725 99.032 100.342 100.147 98.867 99.207 98.627 98.347 98.4 99.34 98.53 98.112 98.185 98.28 98.477 98.257 97.945 97.885 98.612 98.165 98.142 98.16 98.34 98.677 98.222 98.222 98.255 98.282 98.497 99.837 99.972 99.107 98.84 101.717 104.58 103.905 103.72 101.582 100.382 100.697 100.975 100.722 98.83 98.89 99.165 99.665 100.415 99.417 99.412 99.27 99.235 99.025 99.04 99.082 99.255 99.282 99.425 99.775 100.087 99.942 99.702 99.592 99.245 98.912 98.895 98.887 98.607 98.632 98.67 98.762 98.805 98.972 98.85 105.555 107.967 108.85 108.057 104.935 98.877 99.092 99.092 98.952 98.872 98.847 98.81 98.827 98.995 99.672 99.897 99.195 106.497 108.895 107.177 105.47 100.525 99.302 98.63 98.382 98.197 98.412 98.095 98.225 98.232 98.33 98.545 98.75 99.02 98.972 98.977 98.972 98.812 98.837 99.102 98.997 98.92 98.902 98.787 98.96 98.802 98.795 98.807 98.83 98.835 98.795 99.405 99.195 98.81 98.715 98.755 98.632 98.572 98.547 98.685 98.565 98.692 98.587 98.655 99.04 99.397 98.742 98.747 98.785 98.802 98.805 98.94 98.965 99.037 99.207 99.12 99.297 100.27 100.267 100.365 99.462 100.647 100.562 99.212 98.972 99.235 100.132 99.237 100.41 102.077 102.405 101.7 100.365 100.36 100.265 100.25 100.365 100.89 101.418 101.918 102.23 102.473 102.525 102.545 102.578 102.6 102.628 102.6 102.635 102.66 102.69 102.683 102.693 102.695 102.69 102.69 102.65 102.613 102.558 102.468 102.388 102.268 102.18 102.04 101.553 100.993 100.343 99.638 98.895 98.213 97.39 96.633 95.958 95.23 94.495 93.928 93.84 93.8 93.768 93.77 93.78 94.278 95.033 95.838 96.523 97.223 97.888 98.47 99.013 99.45 99.74 99.818 99.998 99.688 99.34 99.093 98.945 98.785 98.52 97.973 97.53 97.703 96.695 96.628 95.805 95.53 97.273 97.498 94.418 94.098 93.785 93.328 93.433 92.605 92.325 91.705 92.1 91.238 90.183 89.993 89.595 89.325 89.108 88.85 88.575 88.318 88.12 87.933 87.71 87.533 87.323 87.143 86.978 86.795 86.6 86.385 86.16 85.913 85.635 85.438 85.163 84.938 84.67 84.42 84.178 83.948 83.743 83.535 83.298 83.033 82.78 82.51 82.23 81.935 81.62 81.325 81.073 80.813 80.553 80.31 80.125 79.915 79.718 79.51 79.385 79.288 79.003 78.968 79.475 79.01 78.365 78.095 77.9 77.785 77.598 77.433 77.235 77.023 76.793 76.523 76.325 76.04 75.805 75.673 75.415 75.198
77.182 77.242 78.14 79.5 78.605 78.835 78.382 78.487 78.827 78.922 79.12 79.302 79.632 80.032 80.08 80.905 82.817 82.76 84.915 85.665 85.577 85.907 86.39 84.185 82.945 83.427 84.517 83.627 83.607 83.905 84.207 84.502 84.63 84.54 84.595 84.715 84.822 84.9 84.972 85.025 85.02 85.062 85.55 85.655 86.217 86.31 86.475 86.5 86.61 86.825 87.002 87.057 87.24 87.427 87.787 88.062 88.392 88.765 89.075 89.52 89.927 90.25 90.565 90.86 90.895 90.95 91.09 91.765 92.672 92.922 94.077 94.337 95.195 95.042 94.89 94.885 94.915 94.925 94.902 94.927 95.037 95.032 95.855 95.325 95.482 95.7 98.867 103.017 104.552 104.427 102.815 98.07 97.602 97.637 97.27 97.952 97.512 100.54 104.082 103.965 103.167 101.57 100.562 98.67 98.237 98.382 99.037 98.41 98.827 98.55 98.42 99.005 98.277 98.155 98.37 100.277 98.797 98.307 98.337 98.52 100.082 98.447 97.937 98.097 98.107 98.08 98.482 97.907 97.88 98.452 98.395 98.12 98.145 98.127 98.37 98.205 98.215 98.247 98.292 98.342 100.695 100.62 99.18 99.097 98.677 100.062 99.087 101.02 100.995 101.017 100.992 100.475 100.182 99.342 99.205 99.427 99.725 99.495 99.125 99.007 99.092 99.045 99.067 99.017 99.095 99.165 99.177 99.147 99.23 99.527 99.685 99.797 99.712 99.527 99.352 99.127 98.87 98.997 98.792 98.742 98.907 98.847 98.942 98.91 99.45 100.477 103.997 103.427 101.607 98.935 99.102 99.487 99.155 98.912 98.87 98.847 98.87 99.102 99.115 99.392 99.372 99.492 99.302 99.425 99.057 98.987 98.86 98.54 98.63 98.73 98.917 98.855 98.917 99.127 99.12 99.155 99.127 99.115 99.025 99.005 98.957 98.93 98.915 98.897 98.882 98.887 98.91 99.29 99.695 99.517 99.242 99.602 99.12 98.905 100.172 100.655 99.057 98.757 98.785 99.057 99.032 99.282 98.982 100.12 100.282 99.917 99.387 99.047 99.45 99.775 99.042 99.077 99.635 100.55 98.972 99.145 99.205 99.385 99.64 100.567 99.107 99.147 100.255 100.1 99.88 99.825 99.237 99.11 99.652 100.025 100.002 100.785 101.735 102.067 101.323 100.4 100.223 100.19 100.21 100.225 100.375 100.965 101.63 102.178 102.428 102.518 102.553 102.558 102.59 102.615 102.638 102.638 102.633 102.66 102.68 102.68 102.678 102.703 102.685 102.693 102.693 102.645 102.598 102.528 102.48 102.388 102.283 102.228 102.025 101.58 100.925 100.263 99.515 98.823 98.01 97.173 96.51 95.895 95.088 94.358 93.838 93.82 93.82 93.88 94.313 95.243 95.903 96.718 97.408 98.068 98.635 99.133 99.535 99.883 100.17 99.993 99.96 99.95 99.41 99.22 99.125 98.99 98.598 98.135 97.89 97.278 96.885 96.513 96.07 95.8 95.328 99.113 95.07 94.378 93.975 93.613 94.403 93.12 93.205 91.478 91.053 90.62 90.27 89.983 89.72 89.44 89.198 88.96 88.693 88.455 88.26 88.075 87.883 87.698 87.505 87.31 87.125 86.903 86.67 86.455 86.225 85.988 85.753 85.525 85.32 85.08 84.823 84.593 84.335 84.118 83.885 83.68 83.418 83.16 82.885 82.613 82.325 82.02 81.725 81.44 81.15 80.925 80.648 80.388 80.153 79.935 79.748 79.553 79.338 79.343 79.02 78.94 78.72 78.518 78.325 78.123 77.818 77.718 77.55 77.328 77.138 76.96 76.778 76.53 76.283 76.013 75.788 75.583 75.343 75.093
77.087 77.852 79.05 78.152 78.267 80.312 79.117 78.55 78.737 78.975 79.497 79.442 79.672 79.912 80.525 82.837 86.587 87.652 89.007 90.222 90.352 89.415 88.892 85.222 82.937 83.155 83.237 83.442 83.605 83.865 84.155 84.56 85.007 84.575 84.615 84.797 84.945 85.037 85.095 85.037 85.07 85.057 85.58 86.22 85.937 86.61 86.372 86.535 86.687 86.757 86.89 87.03 87.192 87.752 87.6 88 88.2 88.81 89.38 89.88 89.78 89.99 90.382 90.62 90.705 90.792 90.942 91.007 91.155 92.55 93.495 94.582 95.497 95.057 94.94 94.885 94.92 94.935 94.94 94.942 95.05 95.03 95.575 95.755 95.572 95.847 98.47 102.635 104.51 104.835 103.09 99.472 96.367 96.497 96.602 97.04 98.217 97.867 101.067 101.047 100.497 100.38 97.802 97.885 97.887 97.837 98.317 98.47 98.052 98.195 98.145 98.53 98.19 98.11 98.405 99.487 99.075 98.3 98.24 98.055 98.327 98.257 97.965 97.932 98.057 98.132 98.83 97.97 97.887 98.115 98.66 98.082 98.125 98.115 98.39 98.307 98.22 98.277 98.38 100.062 100.57 99.995 99.592 101.61 99.33 99.572 100.227 100.022 100.015 99.315 99.17 98.955 98.955 99.095 99.245 99.257 99.375 99.177 99.09 98.955 98.967 99.01 99.025 98.995 99.045 99.085 99.122 99.45 99.775 99.937 99.952 99.297 99.497 99.63 99.58 99.405 99.272 99.137 99.002 98.882 98.857 98.89 98.947 98.94 98.987 99.382 99.057 99.052 99.307 99.087 99.367 99.18 99.24 99 98.917 98.902 98.945 99.277 99.517 99.402 99.242 99.332 99.392 98.927 99.025 99.102 99.09 99.882 99.26 99.225 99.265 99.242 99.172 99.137 99.115 99.125 99.097 101.407 99.627 99.367 100.012 99.685 99.425 98.977 99.252 99.905 99.437 99.525 99.557 100.115 99.772 99.907 99.81 99.327 99.102 98.955 99.04 98.892 99.345 99.187 99 99.057 99.035 100.522 101.41 100.03 99.645 99.407 99.057 99.537 101.67 99.117 99.475 99.217 99.085 99.34 99.157 99.27 99.532 100.267 99.13 98.99 99.07 100.44 99.245 99.17 99.472 99.52 99.857 99.972 101.672 101.552 100.472 100.64 100.285 100.21 100.19 100.175 100.178 100.185 100.25 100.735 101.498 102.193 102.513 102.543 102.583 102.618 102.648 102.655 102.663 102.698 102.683 102.665 102.685 102.69 102.688 102.675 102.688 102.673 102.69 102.68 102.613 102.583 102.535 102.45 102.398 102.29 102.313 102.025 101.518 100.898 100.183 99.47 98.68 97.748 97.07 96.6 95.823 94.955 94.31 93.82 93.925 94.423 95.29 96.08 96.79 97.588 98.255 98.835 99.323 99.758 100.083 100.29 100.283 100.515 100.155 99.735 99.558 99.393 99.288 99.003 98.648 98.47 97.838 97.495 97.115 96.795 96.245 95.913 95.468 95.14 94.875 94.445 95.075 93.828 93.66 93.303 92.135 91.408 91.238 90.728 90.383 90.1 89.815 89.548 89.32 89.103 88.833 88.62 88.43 88.235 88.055 87.865 87.653 87.43 87.2 86.993 86.763 86.548 86.318 86.085 85.9 85.695 85.428 85.268 85.023 84.745 84.505 84.268 84.023 83.785 83.54 83.27 82.968 82.698 82.418 82.13 81.843 81.548 81.255 80.973 80.685 80.465 80.238 80.008 79.78 79.583 79.34 79.2 79.073 78.785 78.923 78.63 78.265 78.135 77.883 77.633 77.488 77.278 77.06 76.843 76.68 76.473 76.198 75.99 75.75 75.528 75.258 75.013
76.92 77.087 77.805 78.625 77.942 78.11 78.37 78.595 78.792 79.027 79.782 79.575 79.707 79.962 80.407 83.275 86.12 87.442 89.24 90.455 90.855 89.385 88.222 85.895 83.085 83.07 83.2 83.367 83.62 84.135 84.637 84.63 84.552 84.6 84.677 84.792 84.932 85.06 85.227 85.192 85.16 85.175 85.212 85.682 85.802 86.107 86.797 86.49 86.555 86.675 86.875 86.965 87.13 87.43 87.415 87.655 88.075 88.77 89.212 89.7 89.662 89.97 90.445 90.385 90.552 90.62 90.722 90.887 91.42 92.435 93.547 93.912 95.242 95.122 94.98 94.89 94.937 94.96 94.932 94.945 95.037 94.997 95.295 95.957 95.812 95.795 97.315 102.477 104.02 104.547 103.34 100.195 96.855 96.675 96.535 97.252 98.167 98.09 98.805 99.235 98.342 97.765 98.127 97.805 97.695 97.71 97.892 98.412 97.947 98.065 98.035 98.21 98.347 98.055 98.617 98.37 98.47 98.667 98.822 98.04 98.71 98.517 97.972 98.127 98.37 98.527 98.255 97.965 97.905 97.952 98.525 98.082 99.445 98.99 100.4 99.405 98.512 98.67 98.592 99.14 99.28 98.83 101.012 102.302 99.16 99.57 99.07 98.807 98.785 98.88 98.937 98.937 98.9 99.035 99.347 99.28 99.087 99.007 98.992 98.965 99.002 99.05 99.067 99.1 99.165 99.202 99.22 99.822 100.11 100.297 100.235 99.317 99.137 99.337 100.01 99.862 99.935 99.445 99.245 99.225 99.23 99.187 99.1 99.102 99.075 99.107 99.11 99.092 99.105 99.18 99.572 99.425 99.197 99.032 98.985 98.95 98.985 99.187 99.207 99.292 99.235 99.342 99.482 99.237 99.32 99.41 99.402 99.365 99.327 99.235 99.167 99.112 99.067 99.195 99.172 99.202 99.247 99.592 99.132 100.045 100.31 100.102 99.485 99.045 99.415 100.537 99.645 99.057 99.797 99.892 99.93 100.135 100.12 99.977 99.322 99.325 99.362 99.2 99.072 99 99.055 99.097 99.445 101.762 103.052 99.895 99.845 100.33 99.272 100.237 104.16 104.167 103.512 99.327 99.13 99.302 99.247 99.412 99.632 99.892 99.122 99.07 99.14 99.26 99.192 99.347 99.575 100.43 100.275 103.375 102.917 101.31 100.25 100.2 100.21 100.213 100.19 100.185 100.165 100.188 100.203 100.393 101.078 101.863 102.45 102.58 102.613 102.633 102.66 102.683 102.703 102.708 102.713 102.7 102.688 102.698 102.695 102.673 102.683 102.683 102.688 102.69 102.645 102.593 102.553 102.513 102.465 102.408 102.323 102.275 102.075 101.538 100.795 100.11 99.315 98.473 97.558 97.168 96.575 95.735 95.05 94.54 94.713 95.433 96.143 96.853 97.67 98.35 99.03 99.525 99.925 100.285 100.53 100.51 100.48 100.28 100.235 99.898 99.695 100.278 99.96 99.18 98.845 98.485 98.025 97.673 97.228 96.79 96.385 96.01 95.745 95.328 95.095 94.798 94.208 93.763 94.435 92.98 91.983 91.733 91.235 90.875 90.513 90.235 89.935 89.653 89.438 89.235 88.995 88.808 88.613 88.388 88.213 87.983 87.743 87.52 87.308 87.09 86.865 86.61 86.383 86.165 85.965 86.08 91.065 86.358 85.188 84.893 84.62 84.39 84.148 83.863 83.623 83.338 83.085 82.813 82.53 82.235 81.94 81.61 81.313 81.033 80.778 80.53 80.285 80.05 79.803 79.59 79.365 79.163 78.968 78.84 78.548 78.733 78.283 78.148 77.963 77.708 77.395 77.218 76.973 76.735 76.508 76.31 76.085 75.88 75.638 75.403 75.158 74.898
76.882 77.72 78.192 78.215 77.945 78.18 78.41 78.62 78.84 79.05 79.43 79.502 79.66 79.922 80.152 80.262 82.05 87.355 88.885 90.355 90.977 88.54 83.822 83.627 82.987 83.085 83.235 83.39 83.585 83.807 84.012 84.187 84.33 84.452 84.59 84.715 84.867 86.38 88.655 85.692 85.217 85.242 85.262 85.32 85.58 85.972 86.695 86.897 86.572 86.665 86.775 86.932 86.992 87.132 87.287 87.532 87.837 88.18 88.722 88.957 89.345 89.787 90.08 90.225 90.35 90.495 90.487 90.72 90.982 92.412 92.51 93.607 95.305 95.157 94.995 94.89 94.935 94.965 94.915 94.925 95.047 95.04 95.267 95.58 95.345 95.455 96.807 101.715 103.29 103.177 102.87 100.555 96.122 97.602 98.39 98.525 98.492 98.455 98.582 97.765 97.525 97.542 98.192 98 97.652 97.662 97.887 98.687 98.097 97.995 97.975 98.017 98.32 97.98 97.99 98.035 98.185 98.525 98.34 98.245 98.967 98.485 98 97.97 98.015 98.525 98.24 98.085 98.105 98.095 101.082 103.622 105.007 104.365 102.41 100.392 99.495 98.965 98.805 98.587 98.577 98.61 98.652 98.622 98.672 98.657 98.682 98.7 99.427 99.49 98.78 98.785 98.81 98.835 98.98 99.04 98.977 98.987 98.995 99.015 99.012 99.087 99.125 99.127 99.165 99.207 99.25 99.39 99.482 99.675 99.607 99.21 98.997 99.075 99.205 99.332 99.76 100.562 99.885 99.63 99.34 99.282 99.237 99.197 99.207 99.21 99.172 99.147 99.17 99.157 99.215 99.19 99.125 99.032 99.02 98.947 99.02 99.097 99.112 99.122 99.122 99.142 99.137 99.155 99.157 99.207 99.222 99.187 99.182 99.187 99.212 99.222 99.265 99.355 99.325 99.28 99.352 99.36 99.207 99.295 99.702 99.58 99.207 99.152 99.352 99.802 99.27 99.09 99.002 99.065 99.1 99.115 99.15 99.29 99.455 99.402 99.205 99.087 99.235 99.117 99.26 99.417 99.327 99.852 101.147 99.507 100.242 99.67 99.215 99.932 100.847 100.98 101.97 100.1 99.297 99.31 99.427 99.682 99.47 99.49 99.1 99.122 99.222 99.232 99.375 99.647 100.105 102.282 102.597 102.025 100.77 100.305 100.157 100.165 100.197 100.215 100.19 100.19 100.185 100.177 100.197 100.245 100.667 101.445 102.25 102.607 102.635 102.672 102.695 102.71 102.72 102.73 102.75 102.742 102.717 102.702 102.685 102.665 102.672 102.69 102.682 102.685 102.66 102.625 102.58 102.537 102.517 102.475 102.435 102.365 102.355 102.102 101.482 100.752 100.027 99.21 98.425 97.692 97.117 96.55 95.927 95.585 95.847 96.397 97.033 97.7 98.463 99.133 99.673 100.073 100.465 100.76 100.9 100.755 100.72 100.49 100.248 100.045 99.928 100.258 100.203 99.455 99.068 98.75 98.215 97.798 97.443 97.045 96.633 96.313 96.115 95.47 94.85 94.308 93.935 94.095 93.118 92.698 92.223 91.918 91.363 91.03 90.665 90.365 90.053 89.77 89.578 89.378 89.165 88.945 88.733 88.505 88.3 88.065 87.825 87.623 87.39 87.16 86.885 86.688 86.485 86.273 86.058 85.96 92.968 91.955 85.22 84.978 84.748 84.433 84.21 83.928 83.69 83.428 83.165 82.9 82.58 82.26 81.973 81.668 81.385 81.105 80.85 80.578 80.31 80.07 79.803 79.58 79.365 79.15 78.948 78.93 78.58 78.808 78.33 78.128 77.923 77.743 77.438 77.113 76.898 76.613 76.343 76.168 75.945 75.71 75.478 75.233 74.995 74.758
77.347 78.587 78.737 77.695 77.937 78.172 78.41 78.607 78.84 79.06 79.422 79.94 79.71 79.92 80.072 80.1 81.777 87.222 88.73 90.29 90.927 89.577 84.652 83.397 83 83.815 83.652 83.35 83.487 83.612 83.772 83.942 84.095 84.262 84.387 84.557 84.737 85.67 87.302 85.555 85.397 85.267 85.315 85.352 85.44 85.607 86.105 86.385 86.397 86.527 86.67 86.81 86.885 86.972 87.26 87.405 87.665 88.115 88.475 88.742 89.17 89.562 89.837 90.015 90.207 90.307 90.38 90.522 90.8 91.365 92.412 93.397 94.612 95.225 95.005 94.912 94.952 94.997 94.935 94.897 95.032 95.052 95.215 95.835 95.392 95.41 95.662 99.1 98.892 99.885 97.955 97.13 96.25 97.485 98.177 97.692 97.68 97.527 97.817 97.252 97.212 97.29 97.75 97.66 97.565 97.777 97.677 98.737 97.835 98.13 98.005 98.32 98.612 97.917 97.922 97.975 98.037 98.135 98.17 98.607 98.825 98.66 98.337 98.807 98.662 98.94 99.365 98.912 98.132 98.405 101.74 103.645 103.557 101.772 101.085 98.56 98.355 98.375 98.37 98.46 98.52 98.517 98.55 98.585 98.622 98.59 100.77 105.537 105.257 102.725 99.81 98.82 98.837 98.817 98.827 98.855 98.935 98.96 98.995 99.012 99.022 99.067 99.122 99.175 99.325 99.275 99.307 99.287 99.277 99.217 99.262 99.185 99.127 99.15 99.202 99.285 99.307 99.455 99.367 99.32 99.382 99.265 99.25 99.247 99.29 99.277 99.312 99.22 99.185 99.182 99.175 99.18 99.135 99.05 99.062 98.992 99.23 99.605 99.26 99.272 99.17 99.29 99.252 99.245 99.25 99.285 99.672 99.285 99.272 99.327 99.202 99.125 99.252 99.317 99.385 99.197 99.18 99.032 99.572 99.32 99.482 99.137 98.99 98.965 99.017 98.95 98.922 98.935 98.957 99.012 99 98.947 99.112 99.07 99.095 99.09 99.032 99.03 99.102 101.14 100.147 99.452 99.367 99.717 100.997 99.182 99.545 99.042 99.01 99.06 99.11 99.545 99.262 99.427 99.322 99.41 99.375 99.252 99.135 99.102 99.15 99.21 99.692 99.442 100.535 102.835 103.165 101.567 101.295 100.312 100.155 100.16 100.14 100.162 100.212 100.217 100.205 100.195 100.205 100.167 100.187 100.175 100.337 101.06 101.88 102.502 102.652 102.677 102.697 102.725 102.74 102.735 102.75 102.75 102.725 102.692 102.69 102.67 102.662 102.672 102.652 102.64 102.647 102.63 102.61 102.577 102.54 102.49 102.48 102.42 102.352 102.432 102.092 101.44 100.74 99.955 99.23 98.557 97.897 97.315 96.812 96.487 96.745 97.287 97.965 98.573 99.16 99.783 100.27 100.65 100.903 101.13 100.968 101.338 100.728 100.543 100.3 100.263 100.16 99.98 99.865 99.63 99.18 98.83 98.638 98.073 97.72 97.333 97.015 96.39 95.858 95.275 94.778 94.355 93.965 93.585 93.158 92.77 92.323 91.908 91.503 91.133 90.788 90.473 90.193 89.928 89.73 89.53 89.303 89.063 88.833 88.575 88.38 88.158 87.933 87.675 87.44 87.208 86.968 86.783 86.58 86.363 86.143 88.545 89.54 86.588 85.29 85.018 84.785 84.52 84.26 84.005 83.738 83.465 83.18 82.9 82.588 82.31 82.028 81.733 81.455 81.158 80.868 80.583 80.29 80.055 79.793 79.558 79.323 79.128 78.955 78.733 78.895 78.415 78.218 78.083 77.855 77.673 77.465 77.11 76.773 76.553 76.235 75.978 75.79 75.545 75.313 75.068 74.83 74.56
