ncols 419
nrows 32
xllcorner    426038
yllcorner    542724
cellsize     2
NODATA_value -9999
104.347 104.372 104.432 104.482 104.515 104.52 104.527 104.537 104.55 104.567 104.557 104.58 104.592 104.622 104.658 104.702 104.745 104.732 104.72 104.665 104.66 104.65 104.652 104.64 104.622 104.637 104.615 104.625 104.602 104.602 104.607 104.585 104.57 104.57 104.553 104.528 104.518 104.515 104.51 104.478 104.448 104.41 104.398 104.418 104.433 104.418 104.393 104.378 104.31 104.16 103.915 103.798 103.563 103.575 105.07 103.085 102.728 102.495 102.185 101.258 100.473 99.31 98.36 97.79 97.345 96.858 96.263 95.58 94.87 94.675 95.688 96.048 96.4 96.708 97.125 97.535 97.713 97.75 97.818 98.005 98.348 98.905 99.183 99.55 99.833 99.888 99.735 99.38 98.888 98.335 98.163 98.148 98.343 98.323 98.235 97.87 97.59 97.233 96.745 96.343 96.235 96.073 95.48 95.03 94.605 94.383 93.69 92.743 92.308 92.103 91.925 91.748 91.998 91.908 92.255 92.09 91.525 90.898 90.29 90.093 90.135 90.198 90.14 90.023 89.913 89.388 88.753 88.008 87.25 86.64 88.61 89.288 89.98 84.028 82.01 80.72 79.495 78.555 77.64 76.563 75.42 74.33 73.315 72.325 71.358 70.373 69.413 68.503 67.608 67.003 66.735 66.525 66.448 66.5 66.42 66.418 66.34 66.378 66.215 66.243 66.24 66.088 66.063 65.97 66.013 66 66.398 66.398 66.805 66.58 67.293 67.688 68.205 68.533 68.768 68.993 69.053 68.993 68.695 68.03 67.363 66.698 65.976 65.311 64.708 64.156 64.051 63.481 63.046 62.806 62.688 62.553 62.461 62.273 62.106 61.911 61.696 61.533 61.453 61.508 61.191 60.988 60.861 60.723 60.533 60.483 60.353 60.161 59.998 59.998 59.588 59.421 59.361 59.206 59.103 59.058 59.491 59.073 58.971 58.866 58.816 58.716 58.468 58.321 58.113 57.928 57.878 57.653 57.703 57.616 57.478 57.528 58.061 57.396 57.543 57.586 57.771 58.138 58.851 58.823 59.031 59.563 59.551 60.173 61.158 65.801 62.326 62.938 64.126 64.158 64.756 65.971 68.563 68.191 68.093 68.176 68.388 68.683 68.941 69.161 69.538 70.116 70.828 71.643 72.331 72.846 73.408 73.893 74.551 75.028 73.448 72.046 70.896 69.686 68.926 68.296 68.071 67.996 67.961 67.956 68.053 68.156 68.066 68.046 68.069 68.189 68.594 69.211 69.894 70.254 70.704 71.384 72.181 73.051 74.526 76.811 77.819 78.816 80.216 81.899 83.979 85.051 86.844 86.374 87.236 87.344 87.694 87.289 87.771 87.544 87.531 87.434 87.104 86.799 86.559 86.716 85.336 84.386 83.221 82.129 80.761 79.124 77.809 76.846 76.996 74.899 73.654 73.226 73.171 76.116 77.501 78.016 76.831 69.706 65.829 65.841 65.821 65.794 65.711 65.639 65.549 65.489 65.436 65.691 65.981 66.796 65.956 66.319 66.574 67.006 69.096 71.026 75.556 76.344 75.201 69.806 68.091 67.501 66.956 66.759 66.506 66.356 68.679 70.749 73.786 77.584 77.639 77.584 77.539 77.294 68.631 65.644 65.211 64.991 64.309 63.616 63.824 63.366 61.699 63.261 61.989 62.496 60.149 59.996 59.964 59.886 59.921 63.171 73.154 76.054 73.206 71.311 77.181 72.726 68.721 68.184 68.156 68.161 68.159 68.186 68.214 68.251 68.364 68.434 68.969 70.381 70.719 71.074 71.386 71.591 71.776 71.951 72.099 72.111 73.399 74.274 75.109 75.676 76.349
104.425 104.465 104.512 104.535 104.565 104.572 104.562 104.567 104.567 104.572 104.595 104.61 104.632 104.647 104.692 104.72 104.725 104.73 104.737 104.707 104.692 104.68 104.655 104.655 104.643 104.637 104.635 104.62 104.635 104.625 104.612 104.598 104.595 104.58 104.57 104.535 104.52 104.533 104.518 104.49 104.45 104.44 104.433 104.443 104.43 104.448 104.415 104.353 104.293 104.21 103.96 103.84 103.628 103.348 104.133 105.73 104.018 102.643 102.343 101.573 100.833 100.058 98.833 97.958 97.455 97.19 97.12 96.773 95.89 95.305 96.335 96.753 97.1 97.493 97.865 98.248 98.53 98.66 98.695 98.918 99.265 99.608 99.973 100.275 100.535 100.598 100.468 100.368 99.565 99.165 98.993 99.005 98.97 98.88 98.648 98.47 98.413 98.145 97.655 97.225 96.915 96.485 96.005 95.405 94.908 94.538 93.935 93.173 92.583 92.275 92.215 92.695 91.928 91.933 92.31 92.293 91.835 91.245 90.65 90.428 90.468 90.525 90.5 90.375 90.098 89.605 89.133 88.595 87.98 90.085 95.525 93.958 93.998 84.888 82.413 81.238 79.988 78.97 77.905 76.695 75.48 74.425 73.395 72.348 71.348 70.373 69.38 68.83 67.663 67.045 66.643 66.483 66.37 66.353 66.333 66.29 66.283 66.373 66.318 66.128 66.163 66.19 66.115 66.145 65.993 66.065 66.345 66.385 66.77 66.66 67.775 68.248 68.468 68.71 68.913 69.068 69.185 69.183 69.188 69.05 68.613 67.791 67.063 66.318 65.706 65.036 64.456 63.843 63.388 63.021 62.846 62.706 62.563 62.406 62.296 62.173 61.918 61.693 61.501 61.473 61.623 61.411 61.208 60.976 60.778 60.736 60.596 60.346 60.213 59.958 59.788 59.871 60.061 59.428 59.258 59.136 59.271 58.976 58.916 58.853 58.673 58.638 58.458 58.438 58.413 58.091 57.876 57.796 57.741 57.651 57.526 57.368 57.058 57.128 56.806 57.208 57.316 57.483 57.626 57.878 58.333 59.013 59.061 59.636 60.461 61.563 61.151 61.091 62.143 63.598 63.316 67.643 75.751 74.568 71.036 69.133 68.106 68.271 68.563 68.766 69.008 69.363 69.923 70.598 71.438 72.266 72.633 73.181 74.108 74.796 73.071 71.186 69.953 68.711 68.081 67.833 67.806 67.821 67.878 67.921 67.966 68.036 68.016 68.046 68.044 68.081 68.181 68.426 69.056 69.569 70.246 70.981 71.759 72.776 74.206 76.004 77.509 78.491 80.134 81.636 83.746 84.324 86.109 86.136 86.711 87.699 87.366 87.054 87.746 87.339 87.866 87.064 87.006 87.041 88.524 86.721 85.154 84.306 83.526 82.659 81.509 80.261 79.131 78.131 76.949 75.839 74.459 73.339 73.056 75.491 75.879 75.341 70.539 65.426 65.841 69.526 66.754 65.639 65.596 65.539 65.481 65.439 65.389 65.329 65.271 65.324 65.519 66.159 66.204 66.174 65.631 65.616 70.884 75.506 74.879 73.804 68.556 67.049 66.861 66.546 66.309 66.059 66.216 67.649 68.811 67.866 67.516 67.376 68.466 66.819 66.414 65.514 64.941 64.739 63.961 63.331 63.876 63.531 61.554 64.399 66.364 64.804 61.899 59.894 59.849 59.791 59.784 62.261 65.949 69.304 67.594 71.991 71.161 70.999 68.669 68.211 68.181 68.191 68.186 68.181 68.229 68.259 68.331 68.429 68.561 69.084 69.871 70.509 71.194 71.604 71.779 71.981 72.114 72.231 72.844 73.916 74.746 75.324 75.974
104.487 104.522 104.545 104.56 104.587 104.577 104.595 104.577 104.6 104.605 104.612 104.625 104.645 104.665 104.692 104.72 104.712 104.725 104.75 104.735 104.725 104.697 104.685 104.677 104.67 104.657 104.658 104.657 104.645 104.647 104.632 104.618 104.62 104.593 104.58 104.568 104.55 104.553 104.515 104.51 104.503 104.465 104.47 104.448 104.448 104.445 104.438 104.375 104.283 104.208 103.973 103.88 103.715 103.485 103.425 104.1 105.035 103.133 102.593 102.168 101.343 100.518 99.083 98.245 97.713 97.378 97.353 97.328 97.07 96.715 97.07 97.308 97.613 97.94 98.39 98.765 99.05 99.17 99.448 99.85 100.178 100.52 100.78 101.065 101.273 101.27 101.095 101.05 100.155 99.568 99.503 99.325 99.168 99.055 98.928 98.91 98.745 98.533 98.303 97.968 97.755 97.323 96.978 96.205 95.325 94.82 94.218 93.703 93.388 93.21 92.93 92.635 92.235 92.193 92.453 92.473 92.27 91.665 91.003 90.745 90.84 90.91 90.868 90.733 90.278 89.723 89.41 88.905 88.32 89.72 95.035 97.103 94.62 84.695 82.565 81.513 80.29 79.185 78.085 76.858 75.695 74.593 73.6 72.578 71.545 70.523 74.488 71.848 67.978 67.183 66.76 66.615 66.42 66.31 66.335 66.268 66.268 66.26 66.298 66.133 66.255 66.325 66.26 66.143 66.188 66.33 66.838 66.83 67.215 67.388 67.928 68.275 68.588 69.178 70.245 72.008 70.3 69.938 69.51 69.245 69.135 68.908 68.303 67.786 66.663 65.958 65.113 64.343 63.876 63.523 63.178 62.971 62.743 62.488 62.598 62.951 62.101 61.958 61.816 61.778 61.641 61.428 61.296 61.138 61.023 60.943 60.838 60.681 60.531 60.331 60.033 59.791 59.696 59.566 59.443 59.328 59.543 59.231 58.943 58.943 58.801 58.956 58.736 58.743 58.218 58.328 58.001 58.038 57.716 57.551 57.518 57.471 57.541 57.006 56.688 57.038 57.156 57.248 57.271 57.291 57.503 58.293 58.523 58.396 58.996 59.916 61.641 60.618 61.051 62.416 70.716 69.468 67.578 68.098 71.591 73.428 67.926 67.988 68.128 68.376 68.576 68.823 69.178 69.691 70.438 71.241 72.071 72.873 73.748 74.038 72.103 70.271 68.958 67.953 67.691 67.638 67.653 67.728 67.786 67.948 67.883 67.894 68.031 67.986 67.999 68.011 68.069 68.194 68.566 69.201 69.924 70.814 71.679 72.649 73.824 75.534 77.169 78.481 80.076 82.229 82.811 84.014 85.289 85.169 86.344 86.801 87.829 87.016 86.966 86.921 87.629 87.399 87.571 87.176 87.339 86.306 84.999 84.176 83.436 82.604 81.814 80.861 79.676 78.386 77.066 76.209 74.751 73.304 72.571 72.749 74.961 73.539 65.474 65.381 66.704 72.369 68.764 65.616 65.684 65.836 65.534 65.431 65.201 65.214 65.221 65.184 65.174 65.094 64.969 64.876 64.879 65.121 66.664 71.589 74.906 74.666 72.354 66.956 67.469 66.521 66.101 65.819 65.496 65.261 65.161 65.129 65.969 65.266 64.851 65.304 65.719 65.236 64.741 64.359 63.894 63.244 62.744 62.321 61.744 66.036 68.894 68.669 64.831 60.174 59.761 59.681 59.664 61.044 63.711 64.454 67.109 68.671 68.611 70.414 70.009 68.194 68.209 68.184 68.206 68.201 68.221 68.244 68.311 68.416 68.464 68.616 69.151 69.869 70.779 71.516 71.846 72.026 72.194 72.321 72.566 73.591 74.391 75.001 75.654
104.542 104.55 104.545 104.582 104.592 104.605 104.605 104.6 104.6 104.607 104.625 104.642 104.662 104.675 104.69 104.707 104.707 104.73 104.747 104.732 104.747 104.73 104.722 104.692 104.688 104.69 104.67 104.655 104.662 104.643 104.64 104.615 104.613 104.608 104.585 104.585 104.573 104.553 104.545 104.525 104.513 104.475 104.47 104.47 104.473 104.475 104.445 104.41 104.328 104.17 103.993 103.9 103.81 103.623 103.42 103.188 104.615 105.42 103.495 102.543 101.768 100.778 100.673 99.733 97.938 97.515 97.43 97.485 97.448 97.47 97.56 97.73 97.95 98.205 98.65 99.005 99.275 99.52 99.958 100.38 100.825 101.518 101.493 101.758 101.935 101.858 101.645 101.295 100.47 99.673 99.53 99.418 99.39 99.378 99.193 99.03 98.84 98.97 99.143 99.228 98.998 98.45 98.088 97.298 96.04 95.46 94.793 94.143 93.61 93.408 93.178 92.993 92.898 92.783 92.783 93.008 92.77 92.16 91.475 91.215 91.238 91.293 91.308 90.983 90.265 89.795 89.578 89.24 88.605 91.05 93.375 94.48 90.413 83.975 82.795 81.573 80.475 79.385 78.308 77.073 76.028 74.835 73.708 72.75 71.713 71.583 73.065 69.073 68.128 67.508 66.995 66.855 66.735 67.195 66.415 66.28 66.325 66.288 66.28 66.313 66.37 66.393 66.37 66.443 66.608 66.848 67.113 67.348 67.653 67.783 68.1 68.955 69.943 70.775 71.305 72.048 71.423 71.148 70.818 70.07 69.413 69.031 68.833 68.546 67.988 66.791 65.748 65.051 64.541 64.083 63.643 63.251 62.896 62.668 62.503 62.378 62.233 62.158 62.038 61.891 61.748 61.743 61.576 61.403 61.281 61.163 61.011 60.846 60.733 60.601 60.408 60.181 59.831 59.776 59.811 59.473 59.328 59.236 59.086 58.966 58.843 59.123 58.606 58.828 58.306 58.306 57.976 57.848 57.698 57.606 57.616 57.698 57.501 57.086 57.018 56.658 56.813 57.071 57.228 57.116 57.241 57.388 57.976 58.133 58.591 59.441 58.978 59.601 60.111 69.858 72.731 74.841 70.361 66.021 64.958 66.483 67.118 67.783 67.873 67.993 68.178 68.451 68.783 69.068 69.583 70.248 71.583 72.506 72.896 73.023 71.256 69.443 68.251 67.598 67.483 67.463 67.571 67.696 67.716 67.771 67.803 67.844 68.014 67.894 67.941 67.976 67.981 68.101 68.416 69.059 69.924 70.861 71.806 72.794 73.906 75.449 76.989 79.154 80.261 81.559 82.871 82.999 85.506 85.614 86.271 85.714 86.471 86.891 86.819 86.884 86.891 86.921 86.674 86.854 87.146 85.826 85.104 84.104 83.364 83.361 81.654 80.734 79.814 78.601 77.261 76.266 74.916 73.651 72.149 70.826 72.524 72.394 66.061 65.979 67.736 72.346 68.571 65.579 65.936 66.059 65.831 65.426 64.904 65.081 65.176 65.151 65.119 65.114 65.784 65.431 64.844 64.559 64.411 64.214 65.054 67.351 66.936 67.626 66.799 66.586 65.916 65.646 65.356 65.044 64.786 64.671 65.064 66.484 67.266 65.581 65.936 66.516 64.589 65.379 63.886 63.441 62.384 62.011 62.436 68.479 71.401 71.104 67.856 61.166 59.654 59.606 59.526 59.551 63.056 65.009 67.631 69.146 70.226 71.624 70.511 69.061 68.224 68.199 68.176 68.186 68.216 68.256 68.316 68.376 68.474 68.549 68.734 69.274 70.101 70.884 71.669 72.069 72.246 72.416 72.484 73.149 74.064 74.694 75.256
104.557 104.55 104.58 104.595 104.61 104.597 104.607 104.612 104.602 104.61 104.615 104.662 104.673 104.665 104.697 104.72 104.73 104.742 104.737 104.742 104.765 104.76 104.74 104.717 104.705 104.695 104.682 104.662 104.658 104.65 104.632 104.625 104.628 104.623 104.593 104.608 104.588 104.565 104.56 104.545 104.543 104.505 104.473 104.475 104.468 104.463 104.475 104.475 104.39 104.255 104.035 103.943 103.865 103.785 103.58 103.285 103.15 104.603 104.86 102.643 102.223 101.538 100.735 100.173 100.048 97.92 97.505 97.493 97.365 98.148 97.903 98.025 98.11 98.348 98.648 99.015 99.525 99.898 100.405 100.743 101.193 101.565 101.975 102.225 102.35 102.275 102.073 101.738 100.973 100.08 99.618 99.67 99.755 99.653 99.52 99.205 99.225 99.518 99.895 100.138 100.095 99.623 98.645 97.81 96.893 96.308 95.65 95.09 94.29 93.793 93.603 93.705 93.718 93.695 94.29 93.63 93.338 92.86 91.98 91.735 91.59 91.615 91.49 91.248 90.698 90.145 89.783 89.585 88.375 87.608 86.858 87.63 85.79 85.625 83.18 81.825 80.69 79.535 78.42 77.28 76.125 74.923 73.865 72.788 71.775 70.765 69.875 68.92 68.223 67.648 67.18 66.995 66.853 66.75 66.528 66.498 66.445 66.363 66.32 66.358 66.45 66.455 66.49 66.575 66.798 66.918 67.103 67.28 67.523 68.105 69.215 70.31 71.113 71.438 71.64 71.76 71.795 71.755 71.493 71.118 70.44 69.516 68.991 68.841 68.493 67.468 66.448 65.826 65.281 64.723 64.241 63.771 63.313 63.048 62.826 62.606 62.498 62.381 62.218 62.096 62.001 61.903 61.913 61.818 61.583 61.403 61.233 61.058 60.933 60.803 60.601 60.478 60.366 60.226 59.971 59.613 59.493 59.451 59.293 59.163 59.098 58.888 58.701 58.446 58.673 58.271 58.036 57.943 57.853 57.806 57.808 57.636 57.511 57.548 57.108 57.166 57.463 56.568 56.773 59.228 67.223 63.218 58.123 57.521 57.686 57.931 57.651 58.041 59.108 62.383 71.876 65.563 67.576 72.568 65.118 65.761 65.883 67.068 67.493 67.748 67.768 68.023 68.276 68.531 68.886 69.353 70.108 71.051 71.873 72.103 70.446 68.836 67.848 67.423 67.371 67.398 67.488 67.583 67.611 67.676 67.731 67.759 67.811 67.804 67.826 67.906 67.891 68.031 68.371 69.144 70.209 71.089 72.039 73.054 74.254 75.664 76.919 78.729 80.369 81.101 81.789 82.669 85.279 84.831 85.474 85.354 86.361 86.366 86.116 86.361 86.121 87.211 86.439 86.616 85.831 85.834 84.576 83.999 83.081 82.029 81.124 80.566 79.609 78.556 77.321 76.744 75.134 73.676 72.596 71.179 69.944 68.964 68.344 68.419 69.204 70.159 67.404 65.771 65.844 65.789 64.834 64.459 65.024 66.169 66.581 65.309 65.266 66.274 68.294 67.491 66.639 65.366 64.724 64.141 63.959 63.771 64.144 66.466 67.196 66.559 66.034 65.579 65.211 64.931 64.616 64.331 64.051 63.834 63.841 64.434 66.941 66.789 66.764 66.724 64.431 63.001 62.149 61.594 62.294 70.476 71.254 70.461 68.176 59.616 59.544 59.494 59.411 59.461 62.159 64.344 66.049 71.269 75.279 76.289 79.886 73.001 68.211 68.204 68.166 68.176 68.204 68.226 68.279 68.329 68.434 68.569 68.621 68.794 69.239 70.164 71.064 72.586 72.451 72.459 72.594 72.811 73.671 74.326 74.864
104.58 104.592 104.6 104.597 104.615 104.61 104.625 104.62 104.617 104.645 104.652 104.675 104.673 104.677 104.692 104.717 104.725 104.727 104.735 104.76 104.757 104.752 104.745 104.735 104.71 104.69 104.688 104.677 104.658 104.655 104.647 104.633 104.635 104.623 104.593 104.618 104.59 104.558 104.568 104.56 104.558 104.533 104.5 104.48 104.475 104.488 104.51 104.508 104.465 104.385 104.105 103.963 104.378 104.45 103.878 103.443 103.183 103.108 104.738 104.74 102.573 102.003 101.128 102.68 103.498 101.165 98.405 98.14 98.98 98.348 98.183 98.5 99.308 98.863 99.313 99.708 100.395 100.778 101.143 101.65 101.843 102.05 102.213 102.453 102.553 102.49 102.22 101.93 101.53 101.065 100.418 100.075 100.02 99.853 99.7 99.953 100.19 100.3 100.54 100.65 100.613 100.52 99.863 98.925 97.988 97.47 96.415 95.848 95.33 95.01 95.045 95.063 94.955 94.768 94.63 94.15 94.168 93.438 92.445 91.898 91.845 91.708 91.478 91.065 90.805 90.29 89.603 88.89 88.118 87.325 86.67 86.093 85.38 84.438 83.413 82.255 81.065 79.763 78.658 77.593 76.478 75.303 74.418 74.99 71.898 70.865 69.875 68.99 68.328 67.815 67.375 67.07 66.9 66.81 66.69 66.738 66.618 66.63 66.62 67.965 66.525 66.503 66.53 66.63 66.763 66.913 67.128 67.393 68.28 69.423 70.29 71.07 71.4 71 70.705 70.588 71.133 71.535 71.668 71.485 71.025 70.466 69.668 68.916 68.773 68.326 67.478 66.868 66.553 65.438 64.921 64.411 64.073 63.666 63.386 63.188 62.993 62.773 62.546 62.416 62.288 62.226 62.153 62.131 62.166 61.746 61.568 61.388 61.228 60.996 60.806 60.618 60.453 60.301 60.131 59.891 59.768 59.658 59.601 59.408 59.276 59.081 58.963 58.911 58.611 58.416 58.246 58.321 58.093 58.273 58.036 57.716 57.631 57.453 57.438 57.296 56.933 56.571 56.483 56.856 58.723 57.641 56.766 56.793 57.228 57.051 57.196 57.451 59.201 68.101 68.181 68.538 69.448 68.521 63.623 63.486 64.713 65.716 66.831 68.248 74.541 68.458 67.836 68.126 68.368 68.666 69.248 69.943 70.626 70.953 69.688 68.341 67.593 67.336 67.303 67.341 67.371 67.423 67.523 67.608 67.616 67.654 67.689 67.724 67.846 67.751 67.836 68.006 68.351 69.206 70.656 71.426 72.329 73.389 74.541 75.809 77.391 79.091 80.291 80.809 81.974 82.889 83.641 84.809 84.604 84.699 85.429 85.751 85.861 86.146 85.936 86.676 85.879 85.449 84.971 84.604 84.236 83.536 82.721 81.026 80.069 79.659 79.009 77.416 76.414 76.144 75.389 73.761 73.166 71.919 70.969 68.751 68.316 68.306 68.309 68.321 66.739 66.236 65.314 64.424 64.094 65.136 66.876 67.426 67.521 66.109 65.544 67.389 70.241 70.606 69.676 67.296 68.524 66.911 64.546 64.209 63.531 63.486 65.074 65.401 65.544 65.966 65.549 64.761 64.496 64.244 63.954 63.644 63.329 63.086 63.779 63.644 65.374 67.801 63.084 65.126 62.184 61.696 61.154 61.244 67.369 69.319 64.826 59.506 59.439 59.391 59.324 59.331 60.916 63.341 64.244 67.386 71.529 77.491 77.461 74.196 68.746 68.194 68.184 68.171 68.206 68.214 68.241 68.279 68.361 68.499 68.611 68.686 68.911 69.661 70.576 72.481 73.014 72.589 72.619 72.799 73.881 78.821 74.924
104.615 104.612 104.615 104.635 104.625 104.627 104.62 104.632 104.667 104.66 104.67 104.697 104.702 104.707 104.737 104.755 104.752 104.757 104.765 104.76 104.77 104.775 104.755 104.73 104.717 104.732 104.702 104.695 104.67 104.662 104.655 104.638 104.643 104.633 104.618 104.62 104.618 104.603 104.593 104.588 104.583 104.558 104.54 104.525 104.518 104.505 104.538 104.533 104.528 104.465 104.178 104.035 105.678 106.338 104.413 103.608 103.328 103.12 103.113 102.988 102.735 102.428 101.75 103.153 103.73 101.063 98.69 98.573 99.3 99.545 99.85 99.798 100.08 100.095 100.708 101.38 101.693 102.55 102.298 103.945 102.725 103.018 103.438 102.723 102.713 102.735 102.683 102.19 101.963 101.928 100.988 100.543 100.255 100.17 100.498 100.813 100.858 100.855 100.948 100.933 101.213 100.818 100.703 100.475 99.243 98.463 97.913 97.333 96.863 96.585 96.628 96.545 96.28 95.908 95.313 94.64 94.253 93.61 92.68 92.008 91.785 91.613 91.373 91.1 90.65 90.098 89.533 88.88 88.168 87.298 86.423 86.098 85.435 84.51 83.413 82.53 81.658 80.05 78.955 78.22 76.648 75.308 74.448 74.445 72.08 70.95 69.97 69.1 68.5 68.038 67.578 67.228 66.983 66.865 66.99 66.84 66.733 66.78 66.865 66.868 66.813 66.725 66.71 66.7 66.758 66.985 67.773 68.4 69.385 70.198 70.765 70.248 70.15 70.113 69.895 69.935 70.308 70.475 70.503 70.81 71.243 71.001 70.426 69.593 68.926 68.776 68.433 67.716 66.876 66.153 65.658 65.238 64.883 64.536 64.073 63.793 63.531 63.321 63.116 62.971 62.826 62.951 62.671 62.556 62.566 62.226 62.081 61.971 61.756 61.498 61.301 61.178 61.098 60.553 60.366 60.163 60.506 59.923 59.761 59.633 59.466 59.386 59.508 59.471 58.803 58.583 58.383 58.313 58.366 58.016 57.936 57.733 57.483 57.123 57.843 57.126 56.958 56.496 56.918 57.038 56.793 56.761 56.731 56.791 57.173 56.968 56.908 57.061 57.318 63.388 60.356 61.581 60.091 60.918 61.538 62.686 63.233 64.261 69.118 72.963 72.573 67.773 67.418 67.671 67.928 68.168 68.491 69.021 69.526 69.646 68.936 67.858 67.393 67.276 67.251 67.186 67.206 67.261 67.386 67.496 67.498 67.531 67.559 67.604 67.636 67.676 67.764 67.936 68.411 69.206 70.324 71.536 72.504 73.494 74.461 75.694 77.149 79.009 80.574 80.936 81.374 81.926 82.706 83.524 83.976 83.849 84.734 85.424 85.324 86.021 86.156 85.589 85.959 84.736 84.419 84.074 83.594 83.106 82.184 80.426 79.126 78.346 77.789 76.486 75.271 74.439 74.196 73.534 71.941 70.349 69.016 67.899 68.149 68.214 68.196 68.209 66.479 65.236 64.164 63.866 64.924 66.354 67.246 68.114 68.081 67.094 65.801 67.179 72.156 74.236 71.869 68.719 68.864 67.459 69.996 67.324 63.829 63.299 63.096 63.096 64.086 65.354 65.044 64.604 64.314 64.059 63.779 63.526 63.279 62.999 62.649 62.376 62.121 61.964 61.574 61.426 61.234 61.124 61.054 60.101 60.351 62.779 60.239 59.416 59.349 59.271 59.249 59.204 59.631 62.771 63.786 68.099 66.924 70.859 75.981 75.431 69.711 68.174 68.181 68.154 68.181 68.209 68.201 68.271 68.339 68.451 68.561 68.671 68.726 69.116 69.829 71.584 72.316 72.684 72.659 72.831 75.394 78.011 77.341
104.595 104.62 104.62 104.637 104.64 104.632 104.632 104.652 104.673 104.675 104.682 104.715 104.74 104.742 104.765 104.762 104.772 104.782 104.76 104.777 104.79 104.767 104.765 104.747 104.715 104.72 104.717 104.705 104.685 104.677 104.66 104.66 104.66 104.668 104.65 104.635 104.643 104.635 104.62 104.61 104.598 104.588 104.57 104.538 104.54 104.528 104.553 104.568 104.578 104.508 104.215 104.103 105.99 106.338 104.388 103.705 103.418 103.243 103.098 102.908 102.783 102.655 102.218 101.708 101.545 99.985 98.908 99.135 99.75 100.338 100.838 101.315 101.575 101.793 102.285 102.648 102.563 103.655 102.683 102.708 102.878 103.153 103.508 103.523 102.715 102.785 102.633 102.513 102.338 102.028 101.663 101.25 101.165 101.208 101.303 101.253 101.205 101.19 101.193 101.185 101.11 100.963 100.888 100.758 100.555 99.863 99.535 99.028 98.53 98.248 97.973 97.693 98.228 96.853 95.925 95.04 94.31 93.625 92.868 92.703 91.705 91.508 91.273 91.115 90.835 90.123 89.575 88.945 88.12 87.195 86.62 86.07 85.56 84.645 83.34 82.523 81.715 80.485 79.025 77.813 76.558 75.29 74.085 72.988 72.14 71.153 70.033 69.27 68.755 68.23 67.81 67.45 67.215 67.133 67.035 66.9 66.955 67.088 67.205 67.19 67.22 67.03 67.033 66.973 66.955 67.29 67.948 68.955 69.57 70.19 70.048 69.315 69.525 69.46 69.425 69.65 69.745 70.09 69.493 69.71 70.088 70.668 70.966 72.021 70.733 68.921 68.753 68.568 67.873 67.153 66.528 66.053 65.646 65.433 64.831 64.566 64.313 64.123 63.858 63.761 63.628 63.511 63.438 63.326 63.346 63.033 62.836 62.708 62.493 62.248 62.048 63.576 62.038 61.178 60.931 60.626 60.836 60.201 59.991 59.816 59.788 59.876 59.448 59.206 59.131 58.868 58.623 58.473 58.441 58.131 58.021 57.878 57.541 57.303 57.166 57.238 56.976 56.851 56.766 56.816 56.986 56.963 56.751 56.868 57.203 56.956 57.081 57.053 56.973 57.178 57.518 58.048 58.921 60.036 60.548 61.228 62.433 63.103 68.813 68.258 67.808 67.851 67.243 67.248 67.491 67.726 67.918 68.211 68.526 68.716 68.398 67.706 67.266 67.201 67.126 67.098 67.096 67.166 67.251 67.331 67.393 67.364 67.384 67.419 67.451 67.549 67.669 67.894 68.404 69.259 70.344 71.556 72.574 73.494 74.494 75.649 76.604 77.524 79.056 80.379 80.426 81.309 82.364 82.619 82.421 83.104 84.429 84.619 85.009 85.269 84.924 84.381 84.306 84.166 83.871 83.504 83.141 82.746 81.889 80.089 78.811 77.054 76.344 75.534 74.339 73.241 72.636 72.301 71.579 70.194 68.549 67.131 66.109 65.769 66.306 66.656 65.234 64.026 63.354 64.764 65.866 66.776 67.566 68.299 68.434 67.859 66.119 66.666 72.041 72.239 67.201 67.109 67.186 67.536 68.836 67.134 71.486 71.594 63.446 63.981 62.649 62.546 63.774 64.201 64.219 63.936 63.649 63.394 63.149 62.914 62.609 62.324 62.041 61.741 61.454 61.196 60.891 60.576 60.299 60.039 59.764 59.524 59.376 59.314 59.241 59.211 59.109 59.061 59.129 61.706 64.559 65.684 67.259 69.989 72.894 72.494 70.289 68.589 68.174 68.171 68.164 68.191 68.186 68.249 68.299 68.411 68.509 68.646 68.714 68.784 69.294 70.044 71.044 71.746 72.524 73.064 73.081 74.446 77.684
104.622 104.595 104.62 104.643 104.647 104.652 104.655 104.652 104.655 104.675 104.7 104.725 104.742 104.757 104.782 104.777 104.79 104.795 104.785 104.787 104.802 104.785 104.77 104.77 104.755 104.74 104.74 104.732 104.712 104.69 104.662 104.69 104.685 104.668 104.685 104.66 104.668 104.66 104.633 104.628 104.61 104.6 104.563 104.555 104.573 104.573 104.575 104.578 104.585 104.545 104.303 104.14 104.96 105.008 104.498 103.8 103.528 103.378 103.25 103.09 102.883 102.773 102.488 102.01 101.488 100.023 99.738 100.07 100.935 101.52 101.97 102.343 102.43 102.87 102.915 103.373 103.715 103.36 102.71 102.588 102.58 102.628 102.65 102.77 102.79 102.693 102.68 102.673 102.54 102.308 102.138 101.965 101.833 101.73 101.63 101.573 101.713 101.378 101.33 101.325 101.198 101.108 101.015 100.883 100.73 100.428 100.263 99.945 99.595 99.218 98.92 98.553 98.153 97.548 96.65 95.608 94.535 93.658 92.973 92.288 91.64 91.418 91.2 91.138 90.99 90.338 89.648 88.948 88.168 87.45 86.888 86.175 85.633 85.215 85.545 82.438 81.393 80.348 78.89 77.725 76.465 75.19 74.03 72.803 71.848 70.908 70.065 69.415 68.893 68.478 68.063 67.735 67.583 67.338 67.193 67.23 67.3 67.603 67.748 67.568 67.473 67.435 67.33 67.388 67.295 67.503 67.97 68.703 69.813 69.633 69.445 69.35 68.97 68.78 68.963 69.125 68.675 68.77 68.898 68.908 69.093 69.588 70.166 70.423 70.301 69.306 68.951 68.791 68.753 68.213 67.503 66.771 66.363 66.033 65.803 65.356 65.193 64.993 64.733 64.608 64.471 64.328 64.208 64.116 63.983 63.846 63.698 63.508 63.358 63.526 62.868 62.566 62.268 61.973 61.818 61.358 61.068 60.803 60.478 60.258 60.053 60.001 59.526 59.496 59.928 59.331 59.056 58.768 58.663 58.406 58.133 57.973 57.626 57.548 57.453 57.216 56.948 57.056 56.603 56.928 56.806 56.773 56.803 56.946 57.148 56.911 56.908 56.858 56.806 56.866 57.026 57.338 58.168 58.873 59.731 61.093 61.693 62.058 63.291 64.573 67.146 68.228 67.051 66.993 67.036 67.286 67.473 67.608 67.791 67.951 67.781 67.463 67.161 67.221 67.143 67.068 67.011 67.078 67.166 67.348 67.216 67.161 67.169 67.186 67.264 67.364 67.551 67.784 68.296 69.276 70.489 71.589 72.471 73.269 74.259 75.304 75.951 76.824 77.749 78.589 79.256 80.174 80.686 82.239 82.059 82.689 83.096 83.619 84.206 85.029 84.219 83.486 83.479 83.421 83.476 82.931 82.581 82.236 81.286 79.624 78.266 76.629 75.256 74.246 73.476 72.386 71.454 70.589 70.721 70.129 69.219 67.744 67.026 66.226 65.241 64.574 63.974 63.211 63.179 65.051 66.289 67.111 68.044 68.431 68.379 67.859 67.314 66.171 66.946 66.321 66.301 66.266 66.184 66.224 66.239 67.151 69.636 68.846 66.084 68.859 63.064 62.456 62.311 62.209 63.066 63.479 63.381 63.321 63.011 62.721 62.431 62.214 61.884 61.639 61.394 61.104 60.819 60.576 60.296 60.011 59.736 59.499 59.331 59.239 59.181 59.149 59.066 58.936 58.984 62.756 64.179 65.679 72.116 71.556 69.946 68.691 70.114 70.529 68.129 68.126 68.134 68.159 68.181 68.209 68.254 68.351 68.439 68.584 68.691 68.746 68.806 69.344 70.081 71.174 72.229 73.114 73.286 73.334 73.479
104.627 104.622 104.645 104.652 104.66 104.67 104.665 104.66 104.662 104.697 104.702 104.722 104.76 104.765 104.787 104.797 104.792 104.822 104.81 104.832 104.82 104.807 104.785 104.762 104.757 104.753 104.745 104.725 104.735 104.712 104.697 104.685 104.69 104.693 104.685 104.688 104.673 104.663 104.638 104.61 104.593 104.595 104.58 104.563 104.56 104.595 104.598 104.615 104.608 104.565 104.363 104.215 104.173 104.13 104.093 103.858 103.65 103.538 103.44 103.315 103.103 102.928 103.908 103.918 102.515 101.233 100.75 101.138 101.928 102.27 102.793 102.795 103.33 103.443 103.82 104.858 103.458 102.95 102.655 102.598 102.645 102.86 102.935 102.788 102.765 103.465 102.563 102.548 102.543 102.47 102.383 102.218 102.145 101.948 101.808 101.723 101.8 101.53 101.42 101.363 101.33 101.228 101.063 100.933 100.81 100.575 100.465 100.265 100.09 99.84 99.575 99.238 98.725 98.025 97.193 96.11 95.008 93.763 92.953 92.31 91.6 91.2 91.02 91.008 90.89 90.423 89.828 89.155 88.41 87.793 86.965 86.4 85.688 84.685 86.448 82.245 81.02 79.763 78.575 77.525 76.355 75.228 74.068 72.643 71.68 70.828 70.14 69.575 69.043 68.72 68.393 68.085 67.885 67.618 68.258 67.895 68.23 68.355 68.445 68.41 68.33 68.243 67.933 67.815 67.855 68.128 68.115 68.685 69.315 69.078 68.87 68.958 68.778 68.84 68.583 68.31 68.048 68.285 68.348 68.345 68.458 68.773 69.238 69.583 69.918 69.798 69.506 69.076 68.873 68.766 68.521 67.468 67.081 66.758 66.448 66.123 65.906 65.858 65.713 65.511 67.743 66.488 67.388 65.178 64.903 64.748 64.601 64.416 64.228 64.426 63.796 63.426 63.131 62.833 63.431 62.161 61.876 62.371 61.188 60.898 60.658 60.866 60.406 60.016 60.306 59.551 59.071 58.811 58.636 58.483 58.171 58.061 58.203 57.731 57.608 57.528 57.011 56.836 56.673 56.863 56.681 56.771 56.703 56.911 56.901 56.893 56.958 56.968 56.951 56.788 56.681 56.856 57.468 57.808 60.338 60.386 61.711 61.393 62.178 63.296 64.451 66.856 66.493 67.011 69.196 67.338 67.048 67.196 67.293 67.376 67.248 67.058 66.981 67.058 67.076 66.941 66.886 66.918 66.933 67.068 67.008 66.986 66.926 66.954 67.071 67.181 67.476 67.661 68.204 69.359 70.691 71.499 72.079 72.919 73.981 74.644 75.289 75.981 77.049 77.889 78.424 79.419 80.429 80.119 81.824 82.476 82.344 82.999 82.771 83.234 82.521 82.651 82.654 82.551 82.884 82.171 81.911 81.519 80.911 79.074 77.744 76.224 74.731 73.284 72.376 71.206 69.841 69.329 69.189 69.344 69.191 68.766 68.074 66.851 65.164 64.231 63.401 62.686 63.226 65.336 66.551 67.531 68.249 68.479 68.144 66.881 66.294 66.134 66.164 66.111 66.149 66.124 66.086 66.064 66.044 66.036 66.479 67.336 69.044 70.551 68.736 66.136 63.551 62.099 61.956 61.826 61.726 62.439 62.779 62.584 62.379 62.084 61.786 61.526 61.251 60.979 60.721 60.474 60.214 59.946 59.674 59.439 59.271 59.146 59.084 59.034 58.996 58.844 58.879 60.486 64.694 72.204 74.526 73.356 69.579 69.629 75.269 73.614 69.081 68.106 68.104 68.119 68.131 68.164 68.204 68.276 68.329 68.429 68.576 68.694 68.729 68.761 69.181 70.366 71.646 72.509 73.351 73.626 73.564
104.615 104.622 104.652 104.682 104.685 104.688 104.702 104.712 104.715 104.73 104.757 104.76 104.777 104.77 104.807 104.817 104.822 104.855 104.882 104.857 104.842 104.83 104.792 104.777 104.752 104.768 104.757 104.755 104.74 104.727 104.712 104.713 104.723 104.713 104.703 104.693 104.678 104.65 104.643 104.63 104.62 104.603 104.585 104.568 104.583 104.59 104.598 104.618 104.613 104.59 104.435 104.265 104.213 104.158 104.085 103.9 103.773 103.705 103.618 103.5 103.303 103.07 103.823 104.3 104.415 102.63 102.175 102.21 102.645 103.473 104.125 105.145 105.183 104.913 104.318 103.933 103.585 103.255 102.943 102.74 102.975 103.37 103.403 103.183 102.853 102.613 102.65 103.543 102.725 102.54 102.515 102.855 102.393 102.115 101.97 101.79 101.685 101.57 101.63 101.498 101.363 101.29 101.21 101.068 100.915 100.75 100.913 100.458 100.24 100.043 99.868 99.563 99.22 98.665 97.463 96.465 95.268 95.095 92.905 92.428 91.708 91.03 90.795 90.76 90.718 90.373 89.85 89.198 88.488 87.775 87.003 86.423 85.78 84.7 83.39 82.08 80.753 79.473 79.345 77.19 76.1 74.96 73.685 72.583 71.705 70.928 70.248 69.7 69.273 68.983 68.678 68.385 68.135 68.143 68.308 68.88 69.555 69.833 69.49 69.84 69.705 69.415 69.058 68.598 68.41 68.598 68.563 68.83 69.468 68.805 68.458 68.538 68.618 68.393 67.993 67.92 67.945 68.065 68.145 68.19 68.245 68.338 68.463 68.738 69.053 69.356 69.793 69.791 69.231 68.883 68.751 68.758 67.776 67.323 67.083 66.821 66.596 66.491 66.498 66.343 66.528 66.161 66.146 66.801 65.811 65.686 65.463 65.276 65.046 64.841 64.608 64.291 63.993 63.683 63.316 63.323 62.636 62.348 61.976 61.653 62.251 61.318 60.788 60.343 59.981 59.463 59.046 58.813 58.823 58.603 58.723 58.586 58.121 58.053 57.706 57.648 57.111 56.881 56.796 56.826 56.828 56.803 56.933 56.671 56.728 56.818 56.908 56.903 56.831 56.751 56.671 56.618 56.756 57.206 58.316 58.671 60.196 61.133 61.146 62.433 62.978 64.733 66.541 69.578 69.763 68.748 66.723 66.871 66.966 66.998 66.941 66.808 66.768 66.793 66.816 66.766 66.731 66.711 66.696 66.733 66.778 66.901 66.746 66.756 66.884 66.934 67.021 67.471 68.451 69.804 70.671 71.241 71.634 72.319 73.276 74.049 75.386 75.214 76.359 77.106 77.599 78.086 78.616 79.286 81.494 81.069 80.561 80.984 81.381 81.561 81.734 81.766 81.831 81.776 81.519 80.826 80.821 80.134 79.121 78.154 76.964 75.629 74.254 72.746 71.494 70.216 69.109 68.241 67.861 68.639 69.104 68.294 67.961 66.569 64.771 63.656 62.784 62.374 65.591 65.654 66.701 67.681 67.649 67.374 68.141 66.934 66.044 66.089 66.146 66.146 66.186 66.124 66.099 66.039 67.446 67.544 66.011 66.026 66.814 68.406 69.216 67.901 69.839 65.814 64.251 61.961 61.611 61.471 61.334 61.264 62.014 62.224 61.924 61.501 61.171 60.889 60.586 60.356 60.111 59.836 59.566 59.369 59.191 59.051 58.996 58.936 58.881 58.799 58.756 58.734 64.466 71.064 74.649 75.789 72.461 68.509 70.359 70.526 70.456 68.696 68.081 68.106 68.119 68.146 68.161 68.246 68.261 68.276 68.369 68.521 68.664 68.726 68.914 69.836 71.051 71.911 73.086 73.714 73.201
104.637 104.647 104.68 104.68 104.697 104.712 104.727 104.747 104.73 104.762 104.767 104.777 104.787 104.792 104.83 104.852 104.84 104.895 104.905 104.887 104.855 104.852 104.827 104.802 104.785 104.78 104.782 104.785 104.752 104.732 104.747 104.743 104.738 104.73 104.69 104.67 104.678 104.678 104.668 104.638 104.633 104.62 104.605 104.595 104.608 104.61 104.62 104.618 104.63 104.63 104.485 104.32 104.25 104.168 104.11 104 103.895 103.788 103.753 103.65 103.488 103.24 103.975 102.895 102.905 104.055 104.095 103.368 104.275 104.663 105.268 104.485 104.143 104.093 104.115 104.148 104.11 103.78 103.513 103.355 103.653 103.83 103.755 103.533 103.23 102.973 102.74 103.058 104.213 103.3 102.505 102.56 102.635 102.233 102.095 101.905 101.775 101.638 101.73 101.435 101.393 101.33 101.225 101.128 101.013 100.828 100.688 100.538 100.248 100.098 99.908 99.668 99.24 98.448 97.648 96.6 95.193 93.858 92.778 92.38 91.765 90.958 90.583 90.51 90.45 90.073 89.355 88.728 88.2 87.545 86.998 86.293 85.57 84.343 83.28 85.608 84.438 82.093 79.18 76.955 75.77 74.668 73.62 72.568 71.663 70.95 70.363 69.89 69.575 69.313 68.97 68.645 68.548 68.538 69.058 69.873 70.678 71.235 70.888 71.165 71.13 71.063 70.453 69.733 69.238 68.913 68.883 69.125 69.163 68.723 68.578 68.62 68.17 67.92 67.898 67.915 68.013 68.12 68.138 68.23 68.235 68.253 68.288 68.386 68.523 68.708 69.386 69.846 69.968 69.171 68.771 68.893 69.136 67.898 67.638 67.331 67.133 67.108 67.093 66.996 66.901 66.853 67.636 66.856 66.533 66.458 66.211 66.196 65.886 65.523 65.271 64.998 64.711 64.418 64.011 63.843 63.383 63.231 62.726 62.398 62.033 61.711 61.291 60.883 60.573 59.968 59.403 58.968 58.856 59.171 58.723 58.506 58.096 58.643 58.143 57.423 57.458 57.053 56.951 56.921 57.058 56.776 56.843 56.556 56.568 56.663 56.843 56.918 56.838 56.848 59.143 67.266 63.023 58.386 72.688 71.356 64.948 65.906 60.066 60.901 63.406 63.441 64.228 67.246 66.418 68.641 66.528 66.533 66.643 66.723 66.741 66.618 66.478 66.553 66.596 66.588 66.546 66.523 66.468 66.491 66.531 66.809 66.489 66.486 66.601 66.676 66.836 67.351 68.499 69.611 70.226 70.731 71.186 71.704 72.441 73.286 73.914 74.451 75.246 76.304 76.841 77.309 77.764 78.291 79.064 79.174 79.586 80.191 80.424 80.599 80.749 80.896 80.921 80.424 79.954 79.356 79.074 78.636 77.826 76.861 75.766 74.561 73.459 72.124 70.931 69.524 68.204 67.294 66.794 67.656 66.781 66.061 65.884 65.176 64.161 63.079 62.241 62.669 65.099 66.926 66.989 67.116 68.229 69.836 70.669 68.944 66.036 66.034 66.096 66.144 66.176 66.141 67.584 70.761 74.316 72.304 66.536 66.006 65.981 66.024 66.751 68.881 70.319 67.981 69.436 68.311 67.091 65.581 62.326 61.119 61.041 60.994 60.799 60.716 60.714 60.846 60.551 60.249 60.021 59.734 59.494 59.229 59.111 58.946 58.924 58.871 58.761 58.744 58.656 58.656 59.891 65.689 74.089 76.279 70.221 72.416 72.356 73.019 70.031 69.091 68.016 68.074 68.099 68.109 68.139 68.184 68.254 68.251 68.234 68.356 68.536 68.679 68.729 69.261 70.439 71.479 72.309 72.369 73.451
104.677 104.66 104.677 104.69 104.705 104.712 104.74 104.76 104.76 104.78 104.78 104.792 104.795 104.8 104.845 104.842 104.857 104.895 104.91 104.902 104.877 104.852 104.85 104.827 104.81 104.795 104.81 104.805 104.777 104.77 104.76 104.753 104.763 104.738 104.693 104.688 104.698 104.69 104.673 104.668 104.653 104.633 104.63 104.625 104.653 104.643 104.628 104.633 104.628 104.613 104.545 104.345 104.28 104.228 104.173 104.13 104.04 103.935 103.87 103.785 103.695 103.463 103.28 102.983 102.908 102.88 102.88 102.993 103.57 103.915 103.823 104.053 104.088 104.08 104.048 104.038 104.388 103.968 103.905 103.92 103.898 103.858 103.813 103.75 103.6 103.353 103.123 102.88 102.848 104.15 103.16 102.525 102.345 102.21 102.118 102.008 101.863 101.708 101.578 101.455 101.36 101.31 101.258 101.153 101.028 100.85 100.705 100.468 100.258 100.085 99.868 99.54 99.148 98.808 97.625 96.53 95.185 93.835 92.633 92.24 91.808 90.853 90.46 90.313 90.115 89.425 88.918 88.455 88.055 87.513 87.015 86.23 85.388 84.01 83.22 87.04 87.628 86.35 83.09 77.32 75.673 74.633 73.573 72.493 71.653 71.018 70.513 70.185 69.988 69.67 69.295 69 68.833 69.108 69.938 70.835 71.73 71.948 71.905 72.155 72.213 72.133 71.765 71.31 70.49 69.585 69.308 69.36 69.468 68.85 68.613 68.235 67.908 67.89 67.893 67.91 68.013 68.398 68.463 68.325 68.078 68.173 68.318 68.411 68.501 68.583 68.703 68.891 69.273 69.346 68.746 68.666 68.703 68.821 68.036 67.738 67.598 67.596 67.526 67.456 67.448 67.496 67.513 67.266 67.043 66.871 66.698 66.493 66.306 66.028 65.778 65.506 65.213 64.848 64.576 64.303 64.091 63.761 63.341 62.968 62.676 62.236 61.741 61.251 60.776 60.311 59.806 59.406 59.216 59.123 58.676 58.423 58.226 58.433 57.846 57.611 57.441 57.343 57.003 57.063 57.091 56.793 56.696 56.823 56.581 56.551 56.618 56.778 56.783 56.798 61.381 68.258 60.466 56.461 63.708 69.418 67.981 67.913 66.223 62.068 64.281 63.076 63.113 65.031 66.353 70.283 66.363 66.283 66.288 66.401 66.421 66.353 66.261 66.356 66.398 66.383 66.356 66.313 66.278 66.286 66.256 66.274 66.206 66.249 66.381 66.504 66.751 67.386 68.296 68.899 69.501 70.081 70.631 71.159 71.799 72.516 73.191 73.724 74.209 75.226 75.981 76.516 76.954 77.706 77.764 78.224 78.656 79.039 79.394 79.579 79.829 79.709 79.341 78.789 78.371 78.099 77.679 77.371 76.766 75.859 74.944 73.501 72.436 70.944 69.829 68.716 67.256 67.989 66.959 65.931 64.596 64.501 65.809 63.786 63.224 62.329 61.901 63.319 64.966 66.201 66.584 66.281 68.474 71.029 70.869 69.519 66.661 66.074 66.101 66.144 66.436 70.836 74.659 75.786 76.926 76.324 69.359 66.904 67.534 65.939 65.916 66.314 67.369 69.114 70.209 70.174 69.924 69.496 68.101 66.794 64.986 62.894 60.704 60.529 60.369 60.224 60.146 60.001 59.879 59.704 59.419 59.141 58.964 58.909 58.834 58.774 58.734 58.631 58.551 58.544 59.401 68.519 74.291 71.324 65.456 76.619 71.821 70.921 70.206 69.629 68.269 67.991 68.069 68.084 68.134 68.161 68.216 68.254 68.226 68.254 68.351 68.549 68.634 69.076 70.321 70.999 72.156 71.571 72.511
104.682 104.68 104.69 104.715 104.725 104.737 104.745 104.747 104.785 104.802 104.807 104.815 104.835 104.825 104.85 104.877 104.88 104.897 104.923 104.907 104.885 104.885 104.85 104.84 104.82 104.787 104.802 104.785 104.78 104.79 104.775 104.78 104.78 104.75 104.73 104.713 104.718 104.703 104.7 104.68 104.655 104.653 104.63 104.645 104.655 104.655 104.635 104.643 104.64 104.605 104.54 104.393 104.313 104.285 104.273 104.218 104.173 104.08 103.998 103.953 103.925 103.738 103.438 103.14 102.953 102.958 104.473 103.128 103.175 103.825 104.085 104.145 104.118 104.088 104.048 104.02 104.025 104.095 103.963 103.96 103.928 103.878 103.888 103.84 103.78 103.695 103.478 103.233 102.98 102.693 102.488 103.108 103.123 102.303 102.185 102.078 101.923 101.785 101.59 101.475 101.388 101.27 101.215 101.128 100.99 100.833 100.66 100.513 100.25 100.24 99.648 99.333 99.353 98.318 97.48 96.413 95.233 93.938 92.625 92.085 91.73 90.665 90.315 90.183 89.778 89.053 88.675 88.335 87.863 87.323 86.915 86.283 84.96 83.868 82.593 84.263 84.558 81.853 79.168 76.75 75.575 74.59 73.518 72.573 71.775 71.163 70.793 70.57 70.343 70.215 69.675 69.313 69.143 69.458 70.94 71.838 72.225 72.193 72.193 72.255 72.38 72.373 72.37 72.08 71.423 70.593 70.373 69.443 68.93 69.088 68.75 68.093 67.895 67.903 67.895 67.94 68.073 68.69 68.79 68.218 68.148 68.471 68.563 68.678 68.576 68.651 68.701 68.686 68.738 68.716 68.616 68.568 68.578 68.808 68.936 67.968 67.868 67.816 67.848 67.803 67.803 67.828 67.743 67.596 67.463 67.198 66.971 66.733 66.468 66.243 65.963 65.838 65.573 65.188 64.933 64.756 64.538 64.141 63.716 63.216 62.868 62.466 61.996 61.428 60.948 60.471 60.316 59.611 59.071 58.748 58.876 58.646 58.411 58.636 57.871 57.713 57.551 57.448 57.406 57.098 56.931 56.806 56.706 56.788 56.593 56.533 56.531 56.593 56.648 56.426 56.391 56.566 56.288 56.383 58.221 61.423 58.441 63.821 71.996 60.703 65.743 74.731 69.651 65.373 66.021 68.268 67.071 66.181 66.046 66.028 66.063 66.041 66.031 66.201 66.233 66.151 66.146 66.116 66.073 66.088 66.033 66.024 66.021 66.064 66.151 66.346 66.706 67.201 67.734 68.224 68.824 69.434 70.094 70.594 71.149 71.774 72.466 72.994 73.481 73.954 74.984 75.656 76.076 76.461 76.876 77.221 77.649 78.024 78.361 78.629 78.409 77.876 77.581 77.264 76.789 76.751 76.219 75.759 75.499 74.549 74.504 73.214 71.441 70.004 68.914 67.581 66.109 67.569 66.534 64.789 63.586 64.039 64.429 62.991 62.431 61.874 61.934 63.879 65.309 66.536 66.319 66.129 66.529 69.726 67.716 66.296 66.094 66.084 66.349 70.069 73.539 75.671 76.949 77.356 76.779 76.331 74.371 74.671 71.199 65.891 65.859 65.806 66.309 68.766 69.131 69.506 69.929 70.221 70.156 69.934 69.566 68.651 65.524 64.149 60.959 60.729 60.729 59.869 59.666 59.479 59.291 59.074 58.921 58.846 58.731 58.669 58.626 58.514 58.446 58.386 58.416 63.499 68.629 70.084 65.334 66.569 65.901 67.311 68.464 69.434 72.039 68.951 67.969 68.039 68.084 68.096 68.159 68.201 68.211 68.221 68.221 68.331 68.476 69.001 70.086 70.531 71.794 71.419 71.609
104.697 104.712 104.72 104.737 104.747 104.757 104.768 104.777 104.792 104.81 104.837 104.845 104.852 104.852 104.87 104.892 104.907 104.917 104.947 104.92 104.885 104.88 104.867 104.855 104.84 104.82 104.82 104.82 104.797 104.812 104.802 104.798 104.785 104.75 104.73 104.728 104.723 104.723 104.688 104.663 104.658 104.653 104.663 104.665 104.665 104.67 104.663 104.635 104.655 104.653 104.628 104.45 104.395 104.36 104.34 104.28 104.248 104.198 104.14 104.13 104.11 103.968 103.74 103.47 103.243 103.233 103.438 103.26 103.788 104.14 104.175 104.128 104.088 104.078 104.1 104.035 103.985 103.968 103.933 104.038 103.933 103.87 103.9 103.875 103.79 103.778 103.713 103.58 103.335 103.065 102.783 102.95 103.513 103.143 102.495 102.078 101.968 101.815 101.648 101.5 101.388 101.293 101.21 101.11 100.968 100.848 100.623 100.38 100.093 99.793 99.543 98.98 98.518 97.975 97.588 96.335 95.32 93.965 92.688 91.993 91.555 90.59 90.28 90.083 89.605 88.948 88.468 88.155 87.62 87.043 85.968 85.148 84.595 84.898 82.43 81.16 80.093 79.375 77.783 77.013 75.613 74.528 73.483 72.543 71.963 71.425 71.195 71.04 70.675 70.353 69.945 69.608 69.505 70.095 71.3 72.575 72.32 72.44 72.363 72.315 72.27 72.258 72.42 72.413 71.698 70.835 70.493 69.79 68.908 68.693 69 67.985 67.925 67.905 67.95 68.093 68.268 68.79 69.783 68.588 68.32 68.218 68.381 68.766 68.748 68.888 68.823 68.698 68.676 68.643 68.538 68.481 68.368 68.398 68.388 68.146 68.021 68.061 68.016 67.936 67.926 67.913 67.866 67.741 67.528 67.286 67.011 66.731 66.451 66.206 66.011 66.243 66.043 65.298 65.006 64.726 64.423 64.056 63.573 63.098 62.673 62.428 61.873 61.408 61.018 60.648 60.158 59.676 59.203 59.011 58.836 58.678 58.636 58.581 58.221 57.913 57.706 57.518 57.763 57.653 57.166 56.956 56.868 56.868 56.653 56.618 56.641 56.568 56.468 56.103 56.376 56.496 56.766 56.336 56.473 56.643 56.711 57.058 63.803 67.048 71.561 68.658 68.938 65.208 66.216 69.183 67.821 66.006 65.963 65.841 65.743 65.806 65.866 65.988 65.961 65.921 65.901 65.853 65.813 65.821 65.818 65.834 65.821 65.834 65.906 66.139 66.401 66.834 67.259 67.701 68.229 68.794 69.411 70.034 70.584 71.144 71.791 72.369 72.809 73.136 73.654 74.481 75.109 75.494 76.014 76.261 76.574 77.039 77.431 78.306 76.589 76.249 75.961 75.764 75.464 74.941 74.736 74.471 73.966 73.464 73.384 72.859 71.136 69.581 68.511 66.989 65.596 64.561 64.341 64.171 63.359 63.009 62.941 62.416 61.916 61.536 62.714 64.431 66.021 66.946 66.519 66.151 66.061 66.596 66.109 66.134 66.656 69.621 73.109 75.789 77.204 77.319 76.974 75.801 73.004 73.721 76.494 76.326 74.409 66.429 65.811 65.796 66.431 67.776 68.199 68.449 68.721 69.071 69.459 69.881 70.211 67.151 65.071 66.989 63.831 64.674 62.251 59.676 59.576 59.414 59.189 58.999 58.859 58.771 58.656 58.611 58.544 58.491 58.394 58.254 58.289 63.401 70.971 71.429 66.724 67.834 65.221 65.534 71.254 71.404 71.974 68.344 68.214 67.921 68.289 68.041 68.084 68.114 68.154 68.164 68.159 68.201 68.301 68.769 69.521 69.751 72.314 70.929 74.804
104.712 104.712 104.71 104.735 104.755 104.77 104.79 104.787 104.812 104.81 104.837 104.845 104.867 104.867 104.877 104.88 104.905 104.92 104.96 104.942 104.922 104.915 104.902 104.865 104.88 104.852 104.852 104.855 104.845 104.815 104.815 104.798 104.8 104.775 104.75 104.765 104.763 104.76 104.718 104.715 104.695 104.703 104.688 104.685 104.695 104.678 104.678 104.665 104.673 104.678 104.643 104.503 104.445 104.393 104.388 104.373 104.323 104.285 104.258 104.265 104.243 104.178 104.06 103.853 103.635 103.483 103.453 103.703 104.095 104.218 104.188 104.233 104.12 104.103 104.093 104.055 104.02 103.963 103.953 103.955 103.93 104.553 103.885 103.858 103.813 103.788 103.713 103.705 103.665 103.448 103.188 102.873 102.725 103.415 102.49 102.268 102.093 101.793 101.66 101.505 101.433 101.263 101.145 101.108 100.968 100.73 100.458 100.185 99.848 99.423 98.865 98.233 97.75 97.275 96.865 96.158 95.46 94.18 92.998 92.008 91.613 90.768 90.275 90.03 89.558 88.888 89.01 88.845 87.225 86.468 85.295 84.765 84.343 83.508 82.185 80.86 79.875 82.095 77.703 77.133 75.59 74.58 73.555 72.728 72.088 71.708 71.488 71.268 71.01 70.723 70.245 69.92 70.035 70.705 71.735 72.415 72.445 72.5 72.333 72.295 72.268 72.348 72.598 72.535 72.37 71.34 70.973 70.718 69.59 68.56 68.08 67.945 67.948 67.948 68.23 68.58 68.55 69.123 70.33 69.703 68.885 68.448 68.643 69.413 69.946 69.911 69.243 68.906 68.726 68.653 68.513 68.423 68.321 68.166 68.056 68.156 68.236 68.208 68.173 68.093 68.001 67.903 67.816 67.656 67.463 67.211 66.941 66.663 66.411 66.118 65.908 65.693 65.503 65.103 64.931 64.668 64.216 63.791 63.293 62.861 62.453 62.051 61.621 61.231 61.391 60.606 59.996 60.138 59.718 59.156 58.943 58.736 58.563 58.906 58.423 58.228 57.906 57.656 57.628 57.413 57.263 57.111 57.026 57.033 56.921 56.986 56.721 56.488 56.423 56.266 56.661 56.288 57.088 59.461 57.456 58.168 57.681 57.116 58.638 67.001 74.186 65.828 61.731 65.398 63.713 71.181 74.341 71.223 65.751 65.678 65.551 65.553 65.608 65.673 65.651 65.683 65.703 65.611 65.561 65.591 65.538 65.569 65.601 65.621 65.666 65.809 66.061 66.419 66.811 67.224 67.711 68.201 68.756 69.409 69.971 70.604 71.391 71.501 71.969 72.376 72.771 73.229 73.709 74.514 75.024 75.256 75.084 75.789 76.279 75.529 75.184 75.001 74.716 74.546 74.506 74.306 73.936 73.879 73.279 73.614 72.964 71.304 70.241 69.166 68.156 66.814 65.376 64.246 63.734 63.366 63.679 62.986 62.429 62.014 61.484 61.419 63.566 64.946 66.191 66.441 66.116 66.221 66.056 66.076 66.566 69.614 73.861 75.431 76.514 77.239 78.329 76.014 74.524 70.966 66.269 69.041 75.381 76.556 74.939 69.779 65.794 65.754 65.646 65.584 65.836 67.156 67.909 68.184 68.391 68.669 68.844 64.836 63.694 63.636 63.674 63.836 62.779 60.499 59.554 59.249 59.094 58.851 58.784 58.671 58.634 58.546 58.486 58.381 58.311 58.201 58.166 59.021 65.666 65.971 68.746 71.746 67.061 66.104 72.266 73.704 69.469 68.629 71.934 74.479 74.256 69.146 67.984 68.009 68.066 68.106 68.119 68.119 68.239 68.344 69.161 70.926 71.636 71.004 71.041
104.697 104.712 104.722 104.762 104.77 104.777 104.782 104.805 104.82 104.822 104.825 104.842 104.867 104.88 104.88 104.905 104.917 104.945 104.995 104.972 104.955 104.947 104.93 104.91 104.9 104.9 104.887 104.882 104.867 104.842 104.81 104.823 104.833 104.8 104.78 104.793 104.77 104.755 104.74 104.75 104.715 104.718 104.713 104.71 104.703 104.69 104.688 104.71 104.695 104.678 104.663 104.533 104.493 104.435 104.413 104.415 104.388 104.355 104.355 104.328 104.308 104.275 104.218 104.128 103.983 103.853 103.865 104.108 104.278 104.235 104.21 104.168 104.138 104.105 104.073 104.048 104.033 104.003 103.968 103.935 103.93 103.883 103.943 103.908 103.8 103.795 103.735 103.708 103.705 103.645 103.493 103.215 102.89 102.523 102.285 102.255 102.078 102.095 101.638 101.538 101.383 101.268 101.245 101.115 100.825 100.598 100.3 99.888 99.37 98.753 98.118 97.578 97.253 96.965 96.635 96.143 95.938 94.538 93.233 92.288 91.628 90.958 90.283 90.005 89.578 88.86 88.12 87.565 86.87 86.185 85.315 84.583 84.048 82.97 81.648 80.733 79.6 78.513 77.473 76.51 75.61 74.733 73.818 73 72.368 71.94 71.715 71.49 71.24 70.905 70.468 70.31 70.618 71.725 72.86 72.538 72.463 72.395 72.253 72.22 72.218 72.23 72.228 72.473 72.528 72.27 71.88 71.498 70.14 68.818 68.318 67.993 67.988 68.095 68.33 68.63 68.88 69.153 69.785 69.705 69.575 69.496 69.908 70.496 70.688 70.781 70.128 69.571 69.633 69.078 69.096 68.738 68.398 68.116 67.803 68.008 68.353 68.336 68.243 68.096 67.983 67.878 67.643 67.446 67.261 67.046 66.713 66.473 66.188 65.923 65.731 65.556 65.238 64.768 64.456 64.191 63.926 64.061 62.901 62.836 62.146 61.723 61.396 61.048 60.876 60.008 60.426 60.053 60.401 59.203 59.031 58.713 58.623 58.901 58.521 58.421 58.308 57.913 57.696 57.563 57.383 57.591 57.123 57.146 57.243 57.438 56.773 56.608 56.441 56.371 56.421 56.716 56.466 61.838 62.926 62.578 60.388 58.408 61.806 65.368 60.481 59.881 59.241 59.538 60.543 71.816 69.701 64.201 65.468 65.496 65.398 65.301 65.276 65.346 65.386 65.386 65.416 65.706 65.378 65.613 65.288 65.279 65.891 65.336 65.381 65.481 65.664 65.906 66.269 66.679 67.189 67.646 68.161 68.731 69.324 69.929 71.396 70.879 71.141 71.551 72.001 72.331 72.646 73.134 73.664 74.011 74.226 74.969 74.874 74.051 73.646 73.344 73.876 73.089 72.989 73.319 73.091 74.184 72.691 74.274 73.074 71.289 70.151 69.154 68.096 66.981 65.679 64.679 63.646 63.054 62.879 62.666 62.434 61.621 61.211 62.159 64.184 65.481 66.129 66.134 66.041 66.034 66.571 68.354 73.369 75.276 76.394 77.341 77.071 76.074 74.176 71.271 66.541 65.866 66.759 68.924 73.276 76.151 75.974 73.681 66.014 65.739 65.671 65.599 65.509 65.454 65.369 65.409 67.234 67.899 67.521 67.256 66.959 64.539 65.099 62.731 62.696 62.124 60.644 59.484 58.939 58.799 58.664 58.576 58.544 58.469 58.386 58.319 58.246 58.116 58.096 58.074 59.339 63.301 64.594 69.064 67.591 64.461 67.729 72.016 68.736 68.899 73.781 75.674 75.299 73.101 68.139 67.954 67.974 68.019 68.076 68.531 68.841 68.319 70.701 69.969 71.456 70.856 70.311
104.715 104.73 104.722 104.737 104.77 104.79 104.802 104.83 104.845 104.855 104.875 104.885 104.907 104.92 104.917 104.932 104.938 104.95 105.002 104.985 104.952 104.96 104.945 104.932 104.935 104.932 104.92 104.88 104.872 104.86 104.852 104.843 104.838 104.848 104.825 104.8 104.783 104.785 104.785 104.778 104.775 104.75 104.75 104.72 104.74 104.715 104.693 104.718 104.718 104.698 104.665 104.54 104.51 104.463 104.433 104.433 104.433 104.395 104.405 104.393 104.365 104.343 104.308 104.255 104.218 104.168 104.168 104.278 104.278 104.273 104.205 104.185 104.155 104.128 104.083 104.055 104.043 104 103.988 103.955 103.945 103.908 103.87 103.878 103.843 103.773 104.215 103.75 103.698 103.708 103.67 103.48 103.168 102.77 102.363 102.235 102.205 102.09 101.7 101.553 101.48 101.288 101.153 100.89 100.68 100.31 99.788 99.243 98.808 98.205 97.73 97.263 97.658 96.793 96.488 96.043 95.633 94.738 93.608 92.628 91.785 91.263 90.36 89.953 89.585 88.91 88.073 87.405 86.78 86.113 85.153 84.61 83.698 86.118 81.585 81.08 79.375 78.538 77.65 76.493 75.663 74.888 74.19 73.39 72.675 72.22 71.98 71.763 71.525 71 70.77 70.925 71.62 72.413 72.835 72.575 72.428 72.325 72.2 72.158 72.173 72.163 72.238 72.19 72.415 72.798 72.32 71.425 70.148 69.185 68.38 68.038 68.06 68.12 68.27 68.345 68.548 68.92 69.36 69.553 69.628 69.876 70.216 70.416 70.066 70.046 70.273 70.073 69.763 69.488 69.816 69.021 68.763 68.371 67.808 67.513 67.823 68.338 68.213 67.933 67.786 67.681 67.406 67.188 66.918 66.713 66.443 66.183 65.918 65.693 65.443 65.148 64.863 64.521 64.128 63.681 63.468 63.076 62.963 63.113 61.791 61.381 61.066 60.748 60.618 59.873 60.371 59.943 59.693 59.486 59.158 58.841 58.726 58.838 58.593 58.831 58.543 58.211 57.976 57.823 57.666 57.791 57.346 57.248 57.128 56.973 56.868 56.736 56.563 56.461 57.541 59.928 56.748 56.871 61.558 62.081 56.596 56.331 66.263 57.143 56.871 57.216 58.263 59.206 59.558 63.091 68.896 68.273 70.128 71.428 67.933 66.656 65.056 64.991 65.063 65.108 65.098 65.113 65.116 65.093 65.033 65.014 65.429 65.046 65.066 65.156 65.294 65.456 65.694 66.211 66.651 67.064 67.511 68.059 68.574 69.119 70.041 70.054 70.331 70.716 71.101 71.416 71.819 72.189 72.859 73.179 73.414 73.766 73.419 72.526 72.136 71.479 71.766 71.629 71.304 71.884 71.964 71.711 71.789 71.969 71.554 70.961 70.379 69.121 68.401 67.501 66.369 65.339 64.321 63.319 62.664 62.171 61.661 61.146 61.041 65.059 64.721 65.696 65.949 65.969 66.256 68.571 72.981 75.104 76.291 77.209 77.146 76.171 74.871 71.489 67.436 65.846 65.829 65.829 65.824 69.829 71.884 75.104 76.616 75.104 69.354 65.769 65.704 65.601 65.516 65.424 65.314 65.181 65.024 64.901 64.946 66.221 67.191 66.229 66.964 64.166 65.284 62.386 62.621 63.404 59.326 58.754 58.571 58.504 58.466 58.389 58.301 58.224 58.161 58.076 57.966 57.926 57.999 62.399 63.434 64.434 64.096 64.234 63.779 65.179 66.349 66.761 76.196 75.191 75.191 70.909 67.831 67.899 67.911 68.576 72.486 72.111 69.019 70.144 69.539 71.981 70.049 69.329 69.901
104.735 104.737 104.742 104.768 104.792 104.807 104.795 104.817 104.872 104.87 104.86 104.887 104.902 104.917 104.952 104.942 104.96 104.977 105.027 105.007 104.985 104.95 104.945 104.93 104.947 104.932 104.917 104.91 104.9 104.902 104.887 104.88 104.87 104.853 104.848 104.823 104.805 104.793 104.795 104.8 104.773 104.78 104.763 104.753 104.745 104.735 104.718 104.715 104.73 104.708 104.673 104.603 104.565 104.523 104.46 104.46 104.45 104.448 104.443 104.415 104.383 104.38 104.338 104.33 104.345 104.323 104.29 104.35 104.293 104.25 104.218 104.188 104.183 104.128 104.095 104.08 104.048 104.005 103.978 103.978 103.95 103.938 103.923 103.873 103.825 103.86 104.015 103.833 103.723 103.73 103.698 103.575 103.32 102.943 102.5 102.243 102.253 102.223 102.023 101.638 101.475 101.265 101.093 100.81 100.33 99.605 99.133 98.705 98.385 98.01 97.593 97.155 96.918 96.688 96.358 96.003 95.585 95.128 93.905 92.793 91.978 91.395 90.58 89.838 89.475 88.828 88.15 87.435 86.328 85.503 84.533 84.373 84.27 82.885 81.143 80.293 79.955 79.075 78.3 76.483 75.688 75.033 74.378 73.57 72.938 72.533 72.315 72.048 71.713 71.323 71.233 71.683 72.675 73.115 72.83 72.643 72.438 72.335 72.24 72.168 72.068 72.033 72.053 72.008 72.353 72.378 72.233 71.675 70.645 69.508 68.448 68.11 68.143 68.185 68.17 68.168 68.533 69.605 70.01 70.278 70.203 70.173 70.011 70.323 70.226 70.011 69.601 69.576 69.603 69.328 69.066 68.741 68.683 68.443 68.258 67.406 67.183 67.811 67.916 67.646 67.443 67.281 67.083 66.786 66.563 66.346 66.113 65.896 65.688 65.438 65.091 64.826 64.551 64.233 63.793 63.363 62.906 62.611 62.233 61.763 61.413 61.033 60.608 60.336 60.096 59.883 59.703 59.376 59.561 60.516 59.591 59.058 58.946 59.026 58.876 58.903 58.518 58.368 58.256 58.131 57.948 57.786 57.583 57.438 57.311 57.131 56.986 57.151 56.783 56.596 57.023 58.381 56.681 57.578 56.351 56.573 57.118 56.476 60.216 56.413 58.291 57.008 57.628 60.401 59.208 63.206 61.626 71.728 73.861 73.423 70.896 70.676 64.878 64.741 64.643 64.713 64.758 64.783 64.776 64.786 64.718 64.786 64.746 64.769 64.766 64.819 64.951 65.109 65.241 65.531 65.936 66.341 66.724 67.199 67.709 68.256 68.691 69.171 69.574 69.849 70.144 70.469 70.881 71.281 71.869 72.431 72.659 72.591 71.776 70.999 71.319 70.444 70.269 70.186 70.131 70.429 70.589 70.109 69.889 70.036 70.191 70.496 71.539 69.641 68.499 67.931 66.694 65.539 64.944 65.896 63.226 61.614 61.119 60.756 61.639 64.539 65.254 65.696 65.901 65.984 69.799 74.054 75.306 77.199 77.191 76.244 75.134 71.446 67.871 65.876 65.864 65.861 65.846 65.844 65.831 67.151 70.234 73.274 76.004 76.136 73.786 66.874 65.736 65.649 65.554 65.474 66.544 67.461 66.351 64.846 64.666 64.484 64.729 66.036 68.734 66.096 65.136 64.336 63.089 60.909 59.786 59.259 58.644 58.369 58.346 58.261 58.199 58.124 58.044 58.001 57.916 57.816 57.796 60.056 64.406 65.744 68.659 65.619 62.596 62.826 64.229 66.671 76.921 74.951 70.526 68.796 67.886 67.791 67.884 72.086 75.846 73.769 69.631 70.244 67.654 67.994 68.506 68.849 69.361
104.765 104.76 104.752 104.768 104.802 104.82 104.827 104.85 104.867 104.895 104.905 104.907 104.912 104.952 104.955 104.96 104.97 104.995 105.025 105.01 104.965 104.965 104.962 104.947 104.947 104.927 104.927 104.915 104.92 104.91 104.897 104.883 104.878 104.875 104.858 104.828 104.823 104.818 104.798 104.788 104.785 104.8 104.788 104.773 104.75 104.73 104.73 104.73 104.74 104.738 104.7 104.61 104.578 104.553 104.518 104.468 104.465 104.473 104.46 104.43 104.45 104.438 104.39 104.335 104.313 104.338 104.353 104.34 104.3 104.245 104.248 104.2 104.155 104.113 104.108 104.078 104.053 104.013 104 103.985 103.983 103.935 103.88 103.868 103.86 103.818 103.783 103.75 103.753 103.763 103.645 103.573 103.388 103.078 102.63 102.323 102.243 102.225 102.133 101.958 101.51 101.268 101.058 100.638 99.73 99.053 99.313 98.525 98.3 98.045 97.553 97.083 96.828 96.82 96.27 95.965 95.433 94.898 94.245 93.115 92.26 91.838 90.823 89.813 89.395 88.675 87.98 87.07 85.775 84.755 83.82 83.023 82.593 81.57 80.688 79.808 79.06 78.7 77.228 76.465 75.755 75.16 74.91 73.63 73.168 72.84 72.583 72.29 71.925 71.575 71.775 72.65 73.265 73.24 72.978 72.775 72.55 72.47 72.61 72.405 71.883 71.838 71.96 71.918 71.83 71.865 72.043 71.905 71.213 70.003 68.743 68.193 68.225 68.213 68.183 68.21 68.938 69.975 70.47 70.278 70.235 70.451 70.106 69.876 70.098 69.593 69.613 69.316 69.406 69.173 68.901 68.521 68.361 68.243 68.141 67.813 66.908 66.901 67.553 67.396 67.088 66.946 66.708 66.396 66.213 65.998 65.873 65.621 65.428 65.033 64.826 64.571 64.176 63.873 63.478 63.198 62.533 62.148 61.858 61.403 61.021 60.666 60.371 60.121 59.961 59.776 59.768 59.521 59.601 59.621 59.488 59.256 59.136 59.153 59.266 58.906 58.663 58.543 58.488 58.436 58.303 58.168 57.981 57.783 57.546 57.326 57.886 57.586 56.856 56.751 56.631 56.456 56.363 56.371 57.163 57.573 56.606 56.716 57.153 58.791 62.483 57.788 57.893 59.156 59.418 59.216 59.388 60.216 63.506 69.563 65.523 64.478 64.616 64.763 64.378 64.301 64.323 64.423 64.438 64.446 64.398 64.366 64.391 64.449 64.514 64.529 64.576 64.664 64.806 64.884 65.194 65.534 65.919 66.309 66.849 67.286 67.724 68.171 68.576 68.859 69.129 69.444 69.969 70.346 70.841 71.269 71.539 70.924 70.111 69.461 68.831 68.466 68.806 68.376 68.599 68.596 68.576 68.519 68.819 69.976 70.071 69.046 69.481 69.939 68.391 67.479 66.394 65.304 64.674 65.469 62.494 61.099 60.651 60.546 62.199 63.951 68.006 65.831 65.909 65.971 66.996 74.474 75.016 76.436 75.301 71.929 67.891 65.884 65.846 65.841 65.854 65.864 65.846 65.839 65.821 65.849 69.534 71.271 74.609 76.574 75.601 72.894 66.116 65.666 65.556 66.361 68.546 69.116 69.119 66.176 64.626 64.434 64.241 64.076 65.534 67.174 66.434 65.121 64.656 61.429 60.504 60.159 59.364 58.306 58.234 58.166 58.109 58.036 58.009 57.956 57.896 57.759 57.684 57.859 60.744 65.079 71.429 67.831 63.321 62.201 62.581 64.161 72.084 70.944 70.059 70.406 69.339 67.744 68.631 71.239 74.009 70.441 68.529 67.186 66.971 69.219 70.261 68.351 68.746
104.777 104.782 104.78 104.787 104.805 104.82 104.835 104.867 104.882 104.902 104.92 104.93 104.93 104.945 104.97 104.96 104.992 105.003 105.03 105.025 104.997 104.975 104.975 104.955 104.945 104.927 104.935 104.917 104.912 104.9 104.895 104.888 104.875 104.868 104.858 104.848 104.833 104.83 104.81 104.798 104.813 104.793 104.793 104.765 104.745 104.745 104.74 104.745 104.75 104.74 104.728 104.66 104.603 104.615 104.575 104.518 104.48 104.468 104.455 104.443 104.428 104.438 104.435 104.395 104.39 104.393 104.378 104.368 104.293 104.28 104.25 104.195 104.158 104.133 104.125 104.09 104.065 104.043 104 103.995 103.98 103.93 103.918 103.873 103.875 103.963 103.793 103.75 103.75 103.715 103.638 103.575 103.448 103.21 102.83 102.418 102.29 102.395 102.213 102.28 101.81 101.208 100.928 100.343 99.358 98.74 98.65 98.523 98.32 97.993 97.378 96.98 96.72 96.443 96.02 95.66 95.213 94.66 93.908 93.058 92.408 91.5 90.835 89.948 89.218 88.493 87.49 86.318 85.12 84.53 83.258 82.46 81.803 81.055 80.17 79.355 78.52 78.013 76.973 76.33 75.56 74.965 74.54 73.758 73.363 73.063 72.73 72.428 72.078 71.878 72.418 73.115 73.06 73.175 73.115 72.895 72.663 72.638 72.35 72.335 71.673 71.72 71.843 71.825 71.758 71.748 71.918 71.965 71.575 70.388 69.153 68.423 68.263 68.268 68.208 68.345 69.235 69.995 70.695 70.268 70.383 70.321 70.036 69.943 69.866 69.558 69.433 69.188 69.171 68.921 68.588 68.323 68.188 68.031 67.916 67.846 67.046 66.478 66.736 67.156 66.846 66.496 66.281 66.091 65.898 65.756 65.491 65.378 65.051 64.668 64.548 64.236 63.851 63.508 63.093 62.673 62.191 61.781 61.411 61.108 60.788 60.541 60.221 60.176 59.941 59.893 59.846 59.831 60.161 60.058 59.771 59.513 59.406 59.351 59.186 59.061 58.923 58.838 58.708 58.871 58.826 58.553 58.323 58.098 57.861 57.581 57.313 57.133 56.873 56.821 56.738 56.611 56.548 56.466 57.783 57.163 57.048 56.768 57.896 58.931 61.868 60.533 57.368 59.288 71.651 66.313 58.846 59.766 64.981 64.221 62.213 64.123 64.211 69.778 69.563 64.141 63.951 63.951 63.981 63.996 63.983 64.001 63.991 64.046 64.124 64.209 64.256 64.301 64.359 64.439 64.571 64.796 65.079 65.479 66.029 66.451 66.834 67.216 67.596 67.909 68.161 68.544 69.144 69.511 69.856 70.261 70.359 69.296 68.431 67.871 67.466 67.516 67.249 69.819 67.696 66.826 66.991 66.944 69.241 67.076 66.841 66.589 66.969 67.444 66.419 66.216 65.454 64.726 63.724 62.369 61.376 60.631 60.309 60.961 62.859 64.311 65.501 65.851 65.954 66.006 66.044 70.444 74.206 74.099 74.249 67.686 65.876 65.871 65.841 65.854 65.834 65.854 65.859 65.831 65.836 65.849 66.304 70.169 73.171 76.664 78.544 76.211 69.391 67.094 68.536 70.191 70.414 70.234 70.289 69.829 65.119 64.416 64.219 63.984 63.714 63.669 64.901 64.559 63.564 61.501 60.949 60.441 60.016 59.304 58.161 58.091 58.014 57.919 57.881 57.844 57.784 57.679 57.599 57.601 58.099 61.656 65.871 63.901 63.019 62.744 62.061 62.989 63.564 66.074 67.039 66.509 66.774 67.134 67.176 67.959 68.106 65.916 66.996 66.219 66.446 71.716 70.079 68.109 69.451
104.805 104.805 104.8 104.802 104.832 104.86 104.85 104.875 104.895 104.917 104.932 104.947 104.938 104.938 104.975 104.985 105.005 105.02 105.033 105.027 105.007 104.995 104.987 104.975 104.952 104.947 104.947 104.932 104.932 104.923 104.915 104.898 104.893 104.865 104.868 104.853 104.838 104.835 104.823 104.82 104.82 104.808 104.81 104.785 104.778 104.768 104.745 104.768 104.76 104.75 104.73 104.66 104.613 104.625 104.583 104.565 104.54 104.5 104.488 104.488 104.468 104.458 104.438 104.42 104.44 104.433 104.39 104.34 104.288 104.26 104.243 104.185 104.15 104.125 104.12 104.108 104.048 104.055 104.025 103.983 103.965 103.955 103.908 103.893 103.848 103.898 103.938 103.818 103.76 103.77 103.745 103.608 103.515 103.333 103.068 102.633 102.38 102.308 102.195 102.225 102.165 101.39 100.753 99.983 99.178 98.693 98.688 98.605 98.313 97.778 97.238 96.945 96.638 96.265 95.833 95.49 95.018 94.375 93.69 92.873 92.233 91.543 90.743 89.888 89.048 88.203 87.06 85.733 84.8 85.015 82.908 81.83 81.045 80.493 79.578 78.823 78.043 77.288 76.718 75.83 75.423 75.065 74.468 73.888 73.515 73.225 72.933 72.958 73.405 72.865 72.75 72.865 72.96 73.138 73.398 73.103 73.005 72.705 71.773 71.435 71.518 71.813 72.233 72.21 71.948 71.795 72.113 71.903 71.393 70.23 69.328 68.575 68.343 68.298 68.25 68.443 69.47 69.908 70.138 70.07 70.168 70.256 70.041 69.761 69.521 69.283 69.276 69.083 69.131 68.703 68.408 68.118 67.908 67.711 67.481 67.233 67.106 66.408 66.118 66.468 66.676 66.196 65.938 65.743 65.623 65.428 65.281 65.011 64.738 64.441 64.231 63.913 63.558 63.223 62.706 62.268 61.846 61.481 61.198 60.928 60.701 60.526 60.471 60.206 60.053 60.043 60.156 60.576 60.743 61.168 60.898 60.088 59.908 59.821 59.648 59.531 59.386 59.296 59.161 59.228 59.093 58.798 58.793 58.486 58.146 57.836 57.606 57.236 57.011 56.958 56.871 56.696 56.658 56.578 56.578 56.871 57.553 57.201 57.266 56.828 56.808 56.741 57.961 68.226 63.693 61.118 58.228 59.061 60.083 61.953 62.768 61.698 62.691 70.188 69.278 71.861 63.833 63.716 63.581 63.508 63.483 63.501 63.514 63.656 63.679 63.789 63.879 63.926 63.976 64.056 64.161 64.281 64.409 64.661 65.016 65.504 65.896 66.344 66.789 67.194 67.531 67.816 68.169 68.599 68.979 69.309 68.739 67.914 67.141 66.531 66.096 65.796 65.674 65.756 65.389 65.206 65.546 65.601 65.546 65.311 64.979 65.209 65.679 65.611 65.006 64.909 64.489 63.896 62.729 61.741 60.901 60.184 60.156 61.959 63.254 64.651 65.644 65.904 65.986 66.039 66.089 67.174 69.486 66.326 71.586 72.879 68.719 67.579 65.846 65.811 65.806 65.851 65.854 65.849 65.854 66.299 67.529 70.044 70.529 75.909 78.406 77.399 73.881 71.141 70.119 70.431 70.474 70.556 70.419 70.426 67.174 64.629 64.239 63.939 63.694 63.466 63.264 63.726 63.121 62.671 62.044 60.889 60.356 59.996 59.184 58.111 57.934 57.874 57.791 57.726 57.686 57.591 57.541 57.466 57.504 59.551 61.399 62.569 62.819 62.554 62.239 61.586 62.864 63.664 64.141 64.886 65.861 66.331 66.031 65.651 65.271 67.766 66.006 65.579 65.896 66.356 66.871 67.616 69.866
104.835 104.857 104.835 104.847 104.852 104.877 104.865 104.9 104.905 104.932 104.94 104.962 104.957 104.975 104.987 105.012 105.015 105.035 105.065 105.06 105.012 105.015 105.007 104.99 104.957 104.96 104.977 104.945 104.95 104.952 104.947 104.895 104.9 104.863 104.888 104.883 104.868 104.84 104.82 104.835 104.83 104.835 104.828 104.78 104.78 104.788 104.785 104.788 104.768 104.765 104.74 104.693 104.668 104.658 104.633 104.585 104.555 104.525 104.513 104.505 104.503 104.48 104.458 104.453 104.478 104.435 104.36 104.285 104.295 104.275 104.25 104.205 104.17 104.165 104.13 104.09 104.083 104.06 104.025 104.005 103.985 103.945 103.925 103.883 103.84 103.825 103.808 103.77 103.733 103.705 103.658 103.708 103.62 103.52 103.3 102.915 102.488 102.208 102.168 102.135 102.098 101.76 100.845 99.835 99.218 98.705 98.658 98.53 98.233 97.723 97.243 96.873 96.59 96.27 95.715 95.31 94.638 94.108 93.55 92.663 91.925 91.465 90.7 89.72 88.793 87.86 87.41 85.19 84.035 83.1 82.3 81.34 80.358 79.668 78.943 78.278 77.643 76.965 76.478 75.978 75.198 74.775 74.488 74.213 73.908 73.553 73.41 73.458 73.418 73.33 73.333 73.893 73.7 73.863 73.848 73.45 72.933 72.258 71.565 71.23 71.538 71.863 72.125 72.113 71.883 71.895 72.02 71.92 71.38 70.273 69.083 68.49 68.443 68.393 68.415 68.853 69.6 69.743 70 69.983 70.205 70.176 69.876 69.638 69.413 69.223 69.121 68.986 68.786 68.528 68.198 67.898 67.668 67.401 67.123 66.886 67.603 66.441 66.236 65.768 66.383 65.991 65.706 65.696 65.381 65.208 64.886 64.678 64.416 64.208 63.941 63.663 63.248 62.823 62.413 61.971 61.593 61.316 61.098 60.923 60.751 60.596 60.498 60.303 60.326 60.513 60.721 61.646 60.928 61.248 62.446 62.091 60.718 60.626 60.368 60.198 60.406 60.821 59.813 59.666 59.741 59.491 59.401 58.828 58.466 58.118 57.796 57.513 57.283 57.128 56.991 56.823 56.701 56.738 56.848 57.508 57.346 57.281 56.998 60.506 60.358 57.928 56.583 61.211 59.336 57.003 57.258 58.813 58.983 60.828 62.161 60.756 61.523 63.618 69.828 64.211 63.558 63.973 63.498 63.361 63.246 63.131 63.059 63.029 63.126 63.306 63.424 63.559 63.551 63.641 63.704 63.799 63.931 64.194 64.356 64.649 65.131 65.524 65.969 66.351 66.656 66.976 67.304 67.671 69.519 71.546 67.579 66.554 65.801 65.109 64.489 64.214 64.114 64.024 64.959 64.086 63.606 63.811 63.956 63.646 63.646 63.719 64.261 63.981 63.576 63.409 63.204 62.896 61.756 60.914 60.201 59.861 60.629 62.409 63.619 65.024 66.311 65.944 66.024 66.076 66.091 66.099 66.134 69.804 73.879 75.964 75.169 74.231 66.674 65.844 65.841 65.861 65.906 67.966 68.771 69.684 70.279 70.531 70.701 73.664 77.386 78.524 77.166 77.089 71.056 70.661 70.854 70.834 70.431 70.454 69.354 65.251 64.496 64.009 63.604 63.404 63.176 63.106 62.751 62.891 62.884 61.744 60.471 60.009 59.764 59.009 58.016 57.791 57.704 57.629 57.559 57.501 57.461 57.321 57.271 58.196 60.231 62.024 62.859 62.609 62.151 61.181 61.294 62.649 63.449 64.181 64.874 65.189 66.359 65.031 64.994 65.084 65.774 64.974 65.309 65.989 66.381 68.991 69.111
104.825 104.837 104.852 104.88 104.87 104.9 104.908 104.92 104.925 104.94 104.945 104.985 104.98 104.992 105.007 105.02 105.03 105.047 105.057 105.065 105.02 105.005 105.015 104.992 104.992 104.975 104.965 104.965 104.955 104.947 104.95 104.92 104.898 104.903 104.895 104.898 104.898 104.863 104.87 104.86 104.85 104.843 104.815 104.79 104.788 104.793 104.793 104.793 104.765 104.77 104.748 104.723 104.708 104.665 104.678 104.628 104.608 104.565 104.553 104.52 104.508 104.485 104.495 104.51 104.475 104.403 104.353 104.313 104.28 104.28 104.24 104.195 104.163 104.165 104.135 104.118 104.088 104.018 104.028 104.005 103.985 103.975 103.94 103.905 103.863 103.835 103.823 103.778 103.743 103.725 103.68 103.653 103.643 103.608 103.528 103.275 102.855 102.445 102.233 102.09 102.158 101.865 101.183 99.9 99.155 98.813 98.665 98.47 98.22 97.75 97.163 96.785 96.598 96.145 95.45 94.91 94.428 93.86 93.235 92.375 91.655 91.005 90.283 89.443 88.538 88.925 90.823 85.205 83.825 82.633 81.678 80.89 79.91 79.2 78.505 77.93 77.405 76.933 76.298 75.738 75.393 75.33 75.11 74.718 74.41 74.705 74.315 74.375 74.415 74.488 74.445 74.26 73.973 73.735 73.578 73.615 72.493 71.288 71.028 71.25 71.428 71.62 71.858 71.775 71.423 71.718 71.745 71.34 70.74 69.798 69.093 68.575 68.503 68.488 69.08 69.425 69.505 69.718 69.815 69.99 70.125 70.168 69.916 69.673 69.473 69.271 69.108 68.958 68.666 68.291 68.028 67.743 67.453 67.123 66.736 66.466 66.461 66.163 66.126 65.503 65.421 65.573 66.663 65.173 65.181 64.676 64.591 64.368 64.103 63.858 63.588 63.293 63.011 62.586 62.173 61.813 61.536 61.281 61.076 60.958 60.873 60.701 60.583 60.638 60.908 61.146 61.348 61.653 61.986 63.651 63.826 62.888 62.158 61.281 61.051 60.921 62.071 62.791 60.476 60.336 59.923 59.698 59.398 58.891 58.671 58.516 58.196 57.836 57.588 57.253 57.106 56.896 56.833 57.453 57.446 57.518 57.426 57.638 56.468 57.293 60.473 61.796 60.408 57.691 56.491 56.631 57.016 57.333 57.623 58.851 60.268 59.968 60.541 61.831 62.343 62.798 62.936 64.613 63.586 63.443 63.121 62.961 62.861 62.701 62.614 62.726 62.906 63.076 63.149 63.219 63.269 63.374 63.496 63.606 63.761 63.959 64.346 64.729 65.084 65.404 65.751 66.194 66.549 66.911 68.196 70.801 65.384 64.826 63.939 63.514 62.881 62.609 62.984 62.499 62.361 62.126 61.621 61.631 61.779 61.744 61.929 62.226 62.656 62.351 62.401 62.454 61.806 61.504 60.849 60.256 59.696 59.826 61.434 63.271 64.601 65.599 67.734 67.026 71.911 66.784 66.141 68.599 74.521 75.959 76.946 77.536 75.854 74.091 69.906 65.849 65.834 66.006 69.421 72.999 71.711 70.456 70.631 70.769 70.794 70.949 75.671 78.289 77.909 75.996 70.939 70.439 70.441 69.661 69.699 69.334 68.836 66.351 64.654 64.244 63.736 63.276 63.094 62.916 62.654 62.429 62.746 62.889 60.984 60.189 59.791 59.734 58.956 57.889 57.629 57.519 57.469 57.434 57.389 57.234 57.169 57.124 57.844 61.264 61.504 60.229 60.289 60.826 60.851 61.589 62.501 63.126 64.191 66.484 67.449 63.799 64.776 64.241 64.284 65.981 64.851 66.514 67.614 68.446 68.411
104.825 104.832 104.847 104.872 104.877 104.91 104.923 104.938 104.935 104.962 104.972 104.987 104.992 105.002 105.01 105.032 105.035 105.045 105.067 105.057 105.025 105.007 105.002 104.992 104.98 104.99 104.967 104.962 104.967 104.955 104.94 104.93 104.923 104.893 104.895 104.89 104.888 104.878 104.873 104.873 104.843 104.83 104.825 104.8 104.805 104.805 104.81 104.805 104.8 104.788 104.783 104.758 104.71 104.683 104.68 104.648 104.61 104.608 104.595 104.56 104.535 104.523 104.54 104.56 104.513 104.395 104.338 104.318 104.313 104.29 104.24 104.193 104.175 104.145 104.13 104.098 104.075 104.035 104.025 104 103.988 103.98 103.925 103.928 103.89 103.84 103.835 103.813 103.758 103.763 103.69 103.678 103.635 103.588 103.588 103.545 103.315 102.908 102.505 102.16 103.038 102.008 101.385 100.525 99.328 98.99 98.723 98.593 98.25 97.82 98.008 97.063 96.533 95.975 95.125 94.763 94.463 93.75 93.083 92.238 91.643 90.775 89.895 89.123 88.068 87.493 86.968 85.01 84.053 82.835 81.528 80.575 79.728 79.045 78.445 77.925 77.38 76.795 76.263 75.958 76.013 76.37 75.913 75.535 75.265 75.365 75.578 76.08 75.825 75.403 75.115 74.813 74.24 73.275 72.668 71.99 71.165 70.853 70.97 71.308 71.423 71.74 71.475 71.198 71.145 71.015 70.828 70.285 69.598 69.628 68.76 68.663 68.57 69.035 69.623 69.848 69.54 69.648 69.7 69.843 70.04 70.158 69.933 69.701 69.541 69.336 69.303 70.146 68.453 68.131 67.933 67.698 67.413 66.906 66.466 66.246 66.063 65.851 65.606 65.348 65.146 65.056 65.586 65.256 64.616 64.513 64.336 64.098 63.866 63.568 63.286 62.993 62.696 62.303 61.996 61.701 61.418 61.233 61.123 61.036 60.978 60.828 60.941 61.228 61.516 61.798 61.946 62.066 62.216 64.276 64.058 63.098 64.098 61.936 61.893 62.038 61.483 62.831 61.471 60.981 60.611 60.283 59.871 59.353 58.891 58.723 58.536 58.148 57.861 57.453 57.156 56.976 58.066 59.606 59.718 59.743 57.058 57.598 56.343 59.006 61.303 62.176 63.118 63.618 60.296 58.721 57.298 56.711 57.118 58.083 58.981 58.863 59.823 60.421 62.323 65.113 67.971 64.778 62.633 62.803 62.706 61.989 62.189 62.389 62.374 62.296 62.326 62.526 62.669 62.759 62.866 63.006 63.089 63.151 63.256 63.386 63.629 63.916 64.244 64.549 64.951 65.334 65.771 66.096 65.614 65.224 64.044 63.259 62.456 62.341 61.724 60.736 61.036 61.021 60.746 60.926 60.244 59.944 60.351 60.121 60.404 60.576 60.751 61.186 61.154 61.024 60.686 60.314 60.101 60.124 59.384 60.586 62.336 63.239 64.839 66.146 65.894 66.539 75.654 73.511 74.906 75.846 76.959 77.776 78.626 78.784 76.916 74.579 73.001 66.084 66.976 69.426 71.251 72.711 72.436 71.036 70.489 70.841 70.824 70.979 72.939 77.199 78.516 76.446 73.496 70.446 69.291 69.101 69.124 68.351 66.021 64.946 64.784 64.356 63.914 63.259 63.036 62.821 62.561 62.319 62.106 62.291 61.491 60.446 59.961 59.714 59.636 58.819 57.659 57.486 57.359 57.329 57.311 57.231 57.091 56.966 57.001 57.321 59.886 59.721 59.794 60.304 60.656 60.269 61.286 63.434 63.824 64.506 63.371 63.561 63.564 63.509 63.759 64.134 64.446 64.861 66.499 66.756 66.721
104.842 104.857 104.86 104.89 104.91 104.92 104.927 104.952 104.955 104.967 104.985 104.992 105 105.017 105.022 105.042 105.045 105.07 105.062 105.072 105.045 105.027 105.012 105.01 104.99 104.987 104.99 104.99 104.982 104.955 104.947 104.935 104.93 104.905 104.928 104.895 104.873 104.885 104.89 104.883 104.848 104.85 104.82 104.808 104.803 104.81 104.803 104.808 104.79 104.81 104.8 104.77 104.748 104.703 104.693 104.67 104.643 104.63 104.618 104.56 104.54 104.548 104.575 104.538 104.423 104.375 104.348 104.3 104.31 104.273 104.228 104.225 104.188 104.155 104.12 104.105 104.085 104.045 104.028 103.983 103.988 103.975 103.928 103.925 103.9 103.873 103.85 103.808 103.79 103.76 103.73 103.72 103.658 103.618 103.6 103.58 103.53 103.423 102.993 102.41 103.36 102.078 101.883 101.175 99.935 99.138 98.815 98.455 98.213 98.203 97.053 96.623 96.37 95.865 95.09 94.765 94.32 93.57 92.793 91.998 91.518 90.718 89.765 88.858 87.738 87.453 86.113 84.928 84.075 83.208 81.81 80.465 79.763 79.19 78.628 78.055 77.638 76.828 76.445 76.563 76.898 77.105 77.01 76.71 76.38 76.325 76.56 76.478 75.838 75.093 74.203 73.43 72.95 72.055 71.423 70.97 70.753 70.643 70.663 70.493 70.758 70.765 70.213 70.21 70.385 70.15 69.81 69.695 69.085 68.885 68.835 68.768 68.658 68.755 69.875 69.908 69.92 69.703 69.693 69.535 69.833 70.078 69.953 69.806 69.603 69.398 69.691 68.788 68.243 68.018 68.018 67.998 67.293 66.923 66.551 66.231 65.971 65.721 65.453 65.321 65.063 64.803 64.731 65.188 64.706 64.298 64.023 63.798 63.601 63.338 63.076 62.763 62.448 62.096 61.931 61.666 61.408 61.303 61.283 61.173 61.098 61.221 61.488 62.191 62.211 63.056 62.513 62.883 62.766 62.946 63.043 62.748 62.578 62.463 62.351 62.128 62.088 62.216 61.673 62.046 61.708 60.853 60.418 59.906 59.326 59.318 58.781 58.496 58.223 57.746 57.336 57.106 61.553 63.761 58.286 57.023 57.611 59.301 56.541 60.243 61.686 62.606 63.486 63.333 62.396 61.543 60.553 58.663 56.693 56.806 57.383 57.708 57.833 58.661 60.431 68.213 72.981 68.691 61.228 61.551 61.828 61.549 61.189 61.464 61.889 62.074 61.979 61.981 62.134 62.301 62.484 62.591 62.649 62.751 62.886 62.954 63.149 63.266 63.499 63.799 64.236 64.526 64.749 64.334 64.341 63.169 64.386 62.684 61.181 60.026 59.499 58.901 58.704 58.561 58.359 58.474 57.991 58.054 58.219 58.676 59.196 58.594 57.979 58.364 58.934 59.621 59.946 59.909 59.351 59.084 59.656 61.384 63.371 63.929 65.221 65.756 65.984 67.499 74.774 76.191 77.976 78.134 78.529 78.736 77.876 78.051 78.176 75.834 69.564 68.609 70.089 70.786 70.631 72.009 73.011 74.554 70.996 70.781 71.219 72.129 74.831 76.674 78.579 77.826 76.819 75.454 68.689 68.176 66.411 65.124 65.154 65.331 65.311 64.851 63.809 63.286 63.021 62.746 62.444 62.216 61.979 61.769 61.464 60.751 60.196 59.756 59.399 59.076 58.656 57.564 57.334 57.206 57.146 57.104 57.016 56.904 56.859 56.889 58.006 59.751 59.704 59.869 60.496 60.119 59.914 61.664 64.001 63.386 63.134 62.416 62.709 62.961 63.354 63.729 64.211 64.531 65.704 65.776 65.476
104.872 104.9 104.89 104.897 104.93 104.945 104.945 104.952 104.975 104.972 104.985 105.02 105.017 105.032 105.037 105.052 105.065 105.082 105.072 105.072 105.072 105.042 105.04 105.037 105.017 104.997 104.997 105 104.99 104.98 104.96 104.94 104.928 104.923 104.935 104.915 104.91 104.903 104.893 104.878 104.858 104.845 104.843 104.825 104.818 104.83 104.833 104.828 104.818 104.825 104.845 104.813 104.778 104.733 104.728 104.718 104.663 104.655 104.635 104.6 104.59 104.59 104.565 104.515 104.388 104.375 104.355 104.313 104.298 104.28 104.238 104.22 104.198 104.143 104.128 104.113 104.098 104.06 104.038 103.998 104.02 103.96 103.945 103.918 103.905 103.863 103.84 103.793 103.785 103.753 103.735 103.703 103.665 103.628 103.625 103.603 103.54 103.555 103.428 102.96 103.293 102.503 101.648 100.865 99.898 99.425 98.925 98.478 98.08 97.945 96.813 96.463 96.153 95.843 95.113 94.558 94.043 93.205 92.498 91.75 91.313 90.398 89.61 89.36 87.543 86.65 85.705 84.74 83.763 82.765 81.673 80.61 79.928 79.41 78.98 78.363 77.773 77.055 76.83 77.435 77.835 78.243 78.135 77.675 76.905 76.365 76.285 75.903 75.035 73.74 73.543 72.573 71.853 71.305 70.945 70.715 70.673 70.65 70.52 70.395 70.298 70.123 69.84 69.563 69.413 69.543 69.23 69.198 69.068 68.95 68.898 68.803 68.84 68.983 69.76 70.048 69.988 69.608 69.735 69.545 69.548 70.121 70.131 70.023 69.678 69.441 68.883 68.516 68.503 68.153 68.051 67.903 68.191 67.518 66.541 66.248 66.093 65.948 65.743 65.576 65.283 64.931 64.578 64.471 64.433 64.333 63.823 63.601 63.328 63.103 62.841 62.523 62.263 62.076 61.838 61.716 61.603 61.453 61.356 61.268 61.413 61.688 61.993 62.381 62.593 62.881 63.066 63.178 63.226 63.383 63.366 63.591 62.986 62.866 62.768 62.598 62.423 62.198 62.058 61.843 61.621 61.278 60.886 60.493 60.093 59.358 59.123 58.681 58.488 58.016 57.486 57.321 57.576 63.681 62.588 56.976 59.118 58.531 57.721 61.178 62.071 62.993 63.648 62.931 62.023 61.123 60.851 61.668 60.781 60.466 57.226 56.746 56.801 60.231 57.676 60.501 62.331 75.373 74.201 59.561 60.068 59.849 59.379 60.054 60.734 61.479 61.716 61.666 61.581 61.739 62.021 62.761 62.196 62.296 62.384 62.499 62.639 62.729 62.884 63.139 63.464 63.711 63.106 62.574 61.996 61.426 62.056 59.879 58.459 57.776 57.689 57.586 57.526 57.474 57.384 57.351 57.349 57.949 57.594 57.336 57.311 57.371 57.414 57.516 57.686 57.831 59.094 60.421 59.301 58.964 60.814 61.914 63.144 64.661 65.716 66.714 70.966 74.981 76.969 77.579 78.521 78.921 78.034 76.921 75.934 76.661 78.594 77.294 72.614 69.034 69.406 70.746 70.539 71.726 77.269 77.956 75.479 72.081 74.851 76.341 77.484 78.466 78.501 78.551 77.521 74.641 66.486 65.411 65.331 65.351 65.661 65.824 65.286 64.241 63.594 63.294 62.999 62.669 62.341 62.096 61.804 61.639 61.429 61.196 60.411 59.951 59.506 59.076 58.729 58.341 57.521 57.164 57.031 56.976 56.914 56.926 56.809 56.759 56.749 58.141 59.721 59.626 59.304 58.729 59.756 61.676 63.361 62.149 62.874 62.514 62.594 62.394 62.651 63.181 63.856 64.009 65.041 64.711 64.829
104.887 104.897 104.912 104.935 104.945 104.952 104.962 104.985 104.99 104.993 105.012 105.03 105.04 105.062 105.07 105.07 105.09 105.095 105.095 105.1 105.085 105.077 105.052 105.05 105.04 105.007 105.017 105.02 105.005 104.995 104.98 104.968 104.948 104.933 104.925 104.933 104.923 104.915 104.878 104.863 104.86 104.863 104.853 104.835 104.828 104.843 104.863 104.813 104.833 104.855 104.865 104.845 104.835 104.763 104.755 104.758 104.708 104.68 104.643 104.623 104.618 104.598 104.533 104.445 104.388 104.395 104.36 104.32 104.298 104.28 104.26 104.248 104.23 104.175 104.138 104.125 104.088 104.065 104.045 104.01 104.008 103.985 103.963 103.913 103.89 103.865 103.84 103.803 103.798 103.763 103.733 103.69 103.633 103.633 103.615 103.59 103.535 103.558 103.53 103.423 103.443 104.083 101.935 101.115 100.295 99.915 98.978 98.39 97.935 97.308 97.188 96.33 96.018 95.635 95.025 94.358 93.8 92.935 92.018 91.818 90.968 90.27 89.385 88.355 87.383 86.58 85.778 85.025 84.065 82.748 81.77 80.733 80.103 79.97 79.29 78.455 77.775 77.4 77.25 77.453 77.61 78.205 77.878 77.265 76.438 75.605 75.148 74.585 73.658 73.008 72.903 72.285 71.52 71.103 70.848 70.743 70.695 70.66 70.548 70.443 70.408 70.268 70.278 69.66 69.375 69.235 69.153 69.185 69.105 68.973 68.933 68.84 68.995 69.565 70.088 70.05 69.668 69.758 69.705 69.603 69.3 69.803 70.181 70.068 69.786 69.636 68.743 68.398 68.173 67.913 67.681 68.268 67.348 66.973 66.603 66.493 66.431 66.271 66.073 65.861 65.653 65.396 64.946 64.568 64.376 64.296 64.031 63.618 63.398 63.023 62.646 62.341 62.241 61.993 61.873 61.841 61.853 61.606 61.466 61.553 61.858 62.188 62.491 62.793 63.093 63.308 63.458 63.601 63.601 63.566 63.773 63.771 63.356 63.206 63.051 62.873 62.631 62.461 62.376 62.146 61.903 61.613 61.318 60.908 60.748 60.438 59.696 58.843 58.658 58.288 57.816 57.611 57.686 59.756 62.151 57.771 60.128 56.401 60.011 61.596 62.523 63.391 63.498 62.491 61.628 60.803 61.178 62.028 62.333 63.673 62.461 59.726 56.968 59.366 57.043 57.303 57.591 69.078 75.651 72.538 60.481 60.066 58.244 58.681 59.549 60.304 61.104 61.531 61.369 61.261 61.339 61.509 61.726 61.796 61.894 62.001 62.144 62.234 62.366 62.561 62.941 62.906 61.461 60.909 60.496 59.464 58.504 57.801 57.691 57.614 57.551 57.496 57.429 57.364 57.299 57.251 57.256 57.964 57.429 57.216 57.229 57.294 57.331 57.424 57.569 57.609 58.659 60.916 59.526 60.624 62.579 62.439 64.791 66.571 67.904 69.936 78.239 77.819 78.374 78.766 78.334 77.956 77.866 73.124 66.981 73.031 78.011 78.821 76.119 69.914 70.141 70.741 70.671 70.544 77.899 77.984 78.099 76.544 77.311 78.351 79.406 77.796 76.781 77.964 77.926 74.681 66.421 65.274 65.199 65.536 65.711 65.316 64.414 63.926 63.631 63.354 63.069 62.634 62.164 61.871 61.631 61.464 61.306 61.441 60.896 60.046 59.579 59.156 58.804 58.444 58.261 57.394 56.999 56.839 56.826 56.806 56.694 56.606 56.581 56.806 58.006 57.144 57.904 58.409 60.219 62.349 62.534 63.329 63.009 63.069 66.026 63.209 62.466 63.886 63.539 63.519 65.364 66.011 65.279
104.905 104.902 104.92 104.942 104.96 104.977 104.985 105.005 105.007 105.01 105.032 105.055 105.065 105.072 105.085 105.085 105.087 105.105 105.102 105.11 105.092 105.087 105.077 105.047 105.055 105.04 105.012 105.022 105.035 105.018 104.995 104.978 104.963 104.945 104.935 104.948 104.94 104.918 104.895 104.885 104.89 104.88 104.875 104.875 104.858 104.858 104.84 104.818 104.838 104.853 104.863 104.865 104.848 104.808 104.778 104.758 104.71 104.698 104.68 104.638 104.63 104.585 104.575 104.47 104.458 104.41 104.363 104.335 104.298 104.3 104.29 104.243 104.213 104.188 104.155 104.148 104.118 104.065 104.035 104.01 104.01 103.983 103.963 103.92 103.915 103.865 103.848 103.813 103.798 103.753 103.735 103.698 103.678 103.655 103.638 103.59 103.583 103.545 103.535 103.48 103.433 103.845 102.858 101.253 100.883 100.038 99.2 98.363 98.438 98.425 96.503 96.253 95.935 95.455 95.105 94.583 93.605 92.695 91.76 91.158 90.845 90.27 89.37 88.458 87.49 86.62 85.968 85.055 84.095 82.888 81.785 80.985 80.385 79.788 79.24 78.768 78.318 78.038 77.928 77.733 77.54 77.628 76.848 75.83 74.985 74.285 73.695 73.555 73.028 72.96 72.813 72.08 71.33 71.055 70.903 70.825 70.743 70.815 70.715 70.718 71.168 71.255 70.833 69.76 69.593 69.325 69.34 69.278 69.51 69.248 69.438 69.398 69.715 69.965 70.013 69.715 69.68 69.818 69.72 69.77 70.053 70.561 70.458 70.158 70.028 69.316 68.776 68.431 68.168 67.951 67.783 67.658 67.191 66.933 66.836 66.856 66.816 66.598 66.508 66.366 66.176 65.903 65.543 65.076 64.641 64.368 64.248 64.753 63.446 63.196 62.706 62.383 62.228 62.051 62.011 62.166 61.978 61.756 61.723 62.016 62.323 62.668 62.986 63.321 63.571 63.773 63.918 63.876 63.851 63.766 63.698 63.618 63.523 63.383 63.286 63.011 62.956 62.696 62.553 62.348 62.281 62.133 61.678 61.323 60.876 60.386 59.706 59.251 58.948 58.521 58.088 57.873 57.841 57.491 59.656 59.286 58.958 57.366 61.141 62.006 62.916 63.651 63.031 62.128 61.243 60.783 61.546 62.446 63.358 63.471 62.601 61.698 60.276 60.173 57.433 56.881 57.228 58.348 71.763 73.733 63.686 57.544 57.621 57.754 58.296 59.436 60.604 61.339 61.214 60.966 60.801 60.904 61.061 61.231 61.381 61.499 61.629 61.754 61.906 61.509 61.289 59.996 59.644 59.751 58.496 57.836 57.719 57.666 57.609 57.516 57.436 57.331 57.269 57.209 57.179 57.136 57.094 57.079 57.101 57.129 57.169 57.199 57.256 57.364 57.431 57.494 58.109 58.894 60.101 65.779 64.509 65.044 71.169 73.251 66.706 70.626 77.114 78.756 78.476 77.514 76.571 76.119 69.134 66.654 65.951 67.486 76.361 78.491 77.181 72.561 70.981 69.946 71.189 70.944 75.456 78.996 78.991 78.764 78.626 77.834 76.866 75.826 72.249 76.469 78.379 76.836 71.524 65.224 65.131 64.969 64.674 64.459 64.194 64.074 64.066 64.204 65.181 63.056 61.906 61.604 61.411 61.261 61.091 60.949 60.671 60.051 59.599 59.211 58.821 58.496 58.199 58.284 57.121 56.816 56.756 56.704 56.641 56.584 56.511 56.469 56.396 56.319 56.664 58.809 61.909 63.451 63.494 62.819 61.661 64.764 66.734 64.189 64.906 68.169 64.049 65.301 65.169 65.179 65.699
104.907 104.915 104.93 104.95 104.97 104.985 105 104.985 105.015 105.04 105.042 105.062 105.07 105.075 105.102 105.107 105.11 105.117 105.132 105.13 105.112 105.085 105.08 105.08 105.065 105.057 105.04 105.055 105.047 105.037 105 104.99 104.973 104.978 104.96 104.945 104.953 104.92 104.88 104.88 104.888 104.885 104.885 104.878 104.865 104.878 104.855 104.838 104.853 104.898 104.888 104.9 104.868 104.81 104.78 104.753 104.715 104.683 104.7 104.665 104.64 104.55 104.5 104.465 104.46 104.408 104.368 104.335 104.308 104.31 104.285 104.243 104.213 104.203 104.168 104.148 104.105 104.088 104.07 104.055 104.005 103.98 103.95 103.915 103.908 103.868 103.853 103.835 103.8 103.773 103.723 103.685 103.675 103.66 103.62 103.613 103.568 103.588 103.55 103.523 103.363 103.398 104.563 101.613 100.823 100.593 100.005 98.485 97.4 96.895 96.593 96.318 96.133 95.455 94.893 94.168 93.703 92.975 92.16 91.355 90.96 90.35 89.388 88.548 87.59 86.653 85.72 84.913 84.043 83.043 82.198 81.518 80.86 80.315 79.863 79.443 79.163 78.983 78.918 78.883 78.398 77.478 76.715 75.88 74.878 74.003 73.243 73.218 72.725 72.865 72.42 71.78 71.323 71.18 70.993 70.923 70.935 71.248 72.198 71.613 72.225 72.26 70.98 70.123 69.895 70.14 70.478 70.37 69.73 69.608 70.015 70.15 69.815 69.953 70.005 69.675 69.505 69.828 69.593 70.148 71.308 71.026 70.808 70.281 69.813 69.321 68.946 68.566 68.336 68.178 67.876 67.528 67.313 67.188 67.141 67.163 67.148 67.066 67.098 67.418 66.833 66.748 66.571 66.218 65.401 64.851 64.438 64.223 63.976 63.553 62.928 62.541 63.043 63.086 62.533 62.433 62.203 62.021 62.118 62.451 62.826 63.171 63.476 63.828 64.103 64.098 64.176 64.088 64.006 63.916 63.853 63.826 63.668 63.508 63.346 63.133 63.043 62.903 62.666 62.438 62.211 62.403 61.906 61.568 61.186 60.636 60.076 60.341 59.486 58.721 58.406 58.168 58.106 57.963 57.811 57.126 56.721 59.791 61.538 61.823 63.421 63.461 62.626 61.706 60.883 61.098 61.983 62.911 63.646 63.133 61.326 61.318 60.791 61.541 62.253 61.606 58.771 57.116 59.411 65.718 62.328 57.491 57.669 57.701 57.844 58.861 60.209 61.011 61.014 60.806 60.566 60.416 60.434 60.586 60.796 60.966 61.129 61.154 60.384 58.836 58.261 58.091 58.239 57.961 57.829 57.761 57.661 57.581 57.451 57.354 57.274 57.174 57.106 57.061 57.014 56.981 56.946 57.024 56.944 56.994 57.056 57.119 57.191 57.296 57.314 57.414 58.009 58.226 59.931 64.509 65.324 74.071 74.276 69.084 65.794 69.504 76.474 78.066 77.609 73.839 68.976 66.014 66.416 66.181 65.916 65.911 73.726 77.614 78.349 75.929 71.244 70.521 73.544 75.546 77.076 78.819 78.716 78.391 76.916 75.801 70.781 65.736 65.541 72.776 77.791 76.971 68.909 65.191 65.061 64.924 64.711 64.471 64.239 65.049 65.189 64.606 66.734 63.041 61.574 61.354 61.156 61.006 60.886 60.739 60.631 60.061 59.586 59.176 58.824 58.539 58.254 58.456 57.926 56.919 56.686 56.576 56.546 56.499 56.456 56.359 56.334 56.299 57.269 59.881 60.449 60.694 60.886 61.196 60.929 66.764 65.474 63.526 63.374 66.786 66.066 67.576 67.744 68.926 67.076
104.92 104.938 104.942 104.957 104.985 104.987 105.007 105.012 105.035 105.05 105.072 105.097 105.105 105.097 105.122 105.135 105.132 105.137 105.147 105.14 105.11 105.097 105.092 105.082 105.085 105.095 105.072 105.065 105.072 105.052 105.012 105.008 104.998 104.993 104.968 104.99 104.99 104.958 104.92 104.913 104.88 104.873 104.898 104.898 104.903 104.893 104.86 104.853 104.868 104.92 104.923 104.92 104.873 104.81 104.765 104.74 104.745 104.733 104.683 104.665 104.62 104.533 104.493 104.478 104.458 104.383 104.373 104.353 104.343 104.318 104.283 104.245 104.235 104.205 104.173 104.135 104.13 104.07 104.073 104.06 104.025 103.978 103.92 103.915 103.895 103.895 103.873 103.843 103.805 103.763 103.753 103.713 103.663 103.668 103.635 103.618 103.583 103.568 103.528 103.478 103.27 102.71 103.778 102.308 101.07 100.41 99.375 98.435 97.623 97.023 96.7 96.33 96.195 95.628 95.053 94.358 93.755 92.985 92.295 91.395 90.74 89.863 89.06 88.275 87.448 86.695 85.903 84.98 84.045 83.483 83.088 82.588 81.703 81.125 80.7 80.463 80.17 80.045 80.088 80.033 79.21 78.233 77.533 76.623 75.245 74.16 73.413 72.998 72.525 72.19 72.353 71.61 71.358 71.203 71.145 71.333 71.44 71.398 72.115 72.34 73.173 72.695 71.48 70.998 70.75 70.993 71.873 71.563 70.613 70.365 69.65 70.295 69.735 70.085 69.993 69.703 69.395 69.673 69.88 70.935 71.333 70.993 71.116 70.288 69.861 69.371 69.021 68.798 68.511 68.218 67.908 67.741 67.593 67.511 67.553 67.646 67.731 67.818 67.836 67.913 67.888 67.701 67.518 66.996 66.403 65.893 65.316 64.443 64.201 64.058 64.043 63.681 64.098 63.161 62.881 62.733 62.596 62.491 62.648 62.896 63.266 63.618 63.886 64.428 64.663 64.436 64.476 64.363 64.173 64.138 64.021 63.963 63.806 63.708 63.506 63.313 63.188 62.973 63.381 62.488 62.343 62.563 62.221 61.726 61.348 60.973 60.476 60.056 59.821 59.071 58.653 58.508 58.408 58.056 57.553 56.461 57.346 61.048 61.963 62.861 63.636 61.373 60.931 61.313 60.723 61.478 62.388 63.328 63.558 62.736 61.791 60.923 61.056 61.906 62.861 63.633 62.888 61.321 58.711 61.713 57.491 56.844 57.176 57.234 57.616 58.424 59.339 60.299 60.561 60.484 60.364 60.151 59.971 59.981 60.141 60.471 60.516 59.936 58.541 58.224 58.146 58.049 57.986 57.896 57.791 57.694 57.531 57.416 57.289 57.181 57.111 57.004 56.961 57.049 57.359 57.191 57.544 57.709 60.379 56.914 56.974 57.086 57.156 57.219 57.231 57.434 57.834 59.174 60.344 67.891 71.226 77.169 77.034 69.469 65.854 65.949 68.821 75.856 75.461 67.339 65.934 65.926 65.916 65.911 65.901 66.089 72.624 77.294 78.644 77.551 74.446 75.849 77.044 77.991 78.614 78.689 77.631 77.586 75.556 67.946 65.584 65.444 65.376 66.319 70.311 66.029 65.171 65.124 65.054 64.934 64.776 64.634 65.556 65.644 64.229 65.271 64.281 61.881 61.301 61.094 60.924 60.784 60.669 60.539 60.374 60.046 59.571 59.189 58.861 58.536 58.281 58.021 57.801 57.876 57.181 56.499 56.376 56.381 56.366 56.291 56.249 56.186 56.156 57.649 59.916 64.079 62.944 60.384 62.279 65.781 61.879 60.351 60.769 63.241 63.279 62.499 64.726 59.584 67.334
104.935 104.942 104.95 104.972 104.975 104.98 105.02 105.02 105.055 105.062 105.087 105.107 105.112 105.125 105.13 105.132 105.15 105.155 105.15 105.132 105.12 105.11 105.117 105.127 105.115 105.102 105.077 105.077 105.082 105.075 105.05 105.038 105.018 104.99 104.973 105.018 105.018 104.99 104.943 104.893 104.878 104.878 104.905 104.918 104.91 104.908 104.885 104.865 104.895 104.92 104.923 104.915 104.893 104.813 104.778 104.74 104.76 104.723 104.688 104.648 104.608 104.56 104.518 104.473 104.438 104.38 104.365 104.368 104.335 104.323 104.27 104.26 104.21 104.178 104.178 104.153 104.113 104.075 104.068 104.05 104.015 104 103.985 103.933 103.908 103.875 103.875 103.85 103.815 103.775 103.758 103.738 103.71 103.648 103.628 103.595 103.595 103.57 103.518 103.4 103.155 102.638 103.385 103.435 101.405 100.32 99.16 98.498 97.99 97.598 96.793 96.553 96.193 95.985 95.323 94.478 93.93 93.508 93.44 92.86 91.035 90.383 89.603 88.975 87.65 86.71 85.963 85.418 85.733 84.503 83.955 83.35 82.683 82.143 81.828 81.515 81.293 81.288 81.425 81.353 80.73 79.263 78.378 76.473 75.083 74.208 73.688 73.04 72.595 72.333 72.118 71.69 71.95 71.37 71.715 71.928 71.96 72.065 72.738 72.928 73.855 73.328 72.988 72.383 72.15 72.185 72.958 72.725 72.39 71.08 70.713 70.143 69.97 70.04 69.863 69.645 69.653 70.085 70.943 71.058 71.02 70.858 70.598 70.243 69.823 69.426 69.208 68.988 68.496 68.316 68.131 67.991 67.933 67.976 68.156 68.328 68.623 68.596 68.913 69.101 69.058 68.828 68.568 68.098 67.621 66.841 65.943 65.193 64.433 64.173 64.113 64.283 65.558 65.131 63.288 63.073 62.981 62.998 63.118 63.353 63.696 64.003 64.228 64.441 64.661 64.553 64.536 64.476 64.406 64.443 64.191 64.043 63.863 63.813 63.671 63.518 63.701 63.193 63.058 62.876 62.491 62.323 62.063 61.796 61.538 61.236 60.853 60.441 59.901 59.371 58.958 58.973 58.613 57.883 57.006 56.181 59.311 61.441 62.351 63.248 63.548 62.701 61.811 60.921 61.013 61.893 62.841 63.661 63.173 62.288 61.396 60.818 61.446 62.368 63.268 63.628 62.773 61.861 60.996 60.713 57.993 57.489 57.076 57.076 57.939 57.931 58.304 59.326 59.661 59.959 59.826 59.899 59.819 59.616 59.591 60.951 59.869 58.959 58.321 58.169 58.094 58.024 57.879 57.774 57.644 57.524 57.379 57.244 57.119 57.044 56.954 57.116 57.091 57.066 56.956 56.974 58.319 61.801 63.271 59.954 56.956 57.034 57.114 57.131 57.199 57.481 57.771 59.651 60.811 64.246 69.141 77.326 72.999 66.321 66.194 65.886 68.194 67.396 66.526 65.891 65.906 65.919 65.929 65.914 65.909 65.911 70.196 77.231 77.406 78.846 76.861 77.861 79.556 78.391 77.284 75.709 75.631 77.754 74.394 67.759 65.436 65.366 65.314 65.289 65.224 65.169 65.114 65.084 65.056 65.034 65.669 65.254 65.579 64.956 64.459 63.791 61.941 61.361 61.164 60.969 60.764 60.614 60.434 60.306 60.206 59.996 59.571 59.234 58.849 58.501 58.239 58.001 57.784 60.561 59.454 56.559 56.339 56.251 56.231 56.254 56.194 56.076 56.044 56.074 61.389 65.066 65.301 63.189 58.264 57.981 58.171 58.486 60.421 64.169 59.956 60.951 63.454 59.486 59.934
