ncols 414
nrows 31
xllcorner    426040
yllcorner    543568
cellsize     2
NODATA_value -9999
107.294 107.459 107.497 107.849 108.632 108.744 108.644 107.967 107.582 107.589 107.837 108.642 112.407 112.984 112.542 112.097 113.947 109.234 108.664 109.039 111.499 112.332 112.749 113.004 112.757 112.792 113.262 112.934 112.134 110.569 108.799 108.422 108.374 108.302 108.229 108.162 108.804 111.449 111.072 107.847 107.767 107.727 107.697 107.692 108.647 108.392 108.092 108.034 107.957 109.567 108.867 107.837 107.802 107.674 107.507 107.379 107.352 107.489 107.659 108.149 108.934 109.092 109.092 109.512 109.857 109.682 108.602 107.777 107.424 107.412 107.384 107.404 107.374 107.367 107.347 107.344 107.384 107.387 107.382 107.447 107.887 108.202 107.625 107.39 107.402 107.395 107.365 107.395 107.365 107.385 107.387 107.382 108.11 108.592 108.045 107.157 106.475 105.867 105.567 105.607 105.502 105.467 105.462 105.48 105.432 105.32 105.182 105.16 105.162 105.162 105.155 105.077 105.06 105.095 105.205 105.165 105.157 105.18 105.2 105.165 105.132 105.06 104.935 104.82 104.772 104.607 104.595 104.637 104.625 104.602 104.61 104.662 104.82 104.81 104.752 104.767 104.762 104.682 104.655 104.667 104.672 104.667 104.71 104.685 104.69 104.722 104.72 104.71 104.667 104.652 104.68 104.682 104.702 104.715 104.675 104.685 104.617 104.657 104.585 104.525 104.49 104.447 104.385 104.255 103.997 103.742 103.627 103.572 103.537 103.537 103.525 103.452 103.41 103.347 103.315 103.265 103.162 103.077 103.112 103.262 103.397 103.535 105.997 115.327 117.01 116.872 117.23 110.227 104.465 102.88 102.602 102.405 102.185 101.992 101.837 101.717 101.677 101.615 101.512 101.47 101.492 101.185 101.032 100.917 100.772 100.652 100.562 100.767 100.715 101.37 100.36 100.43 100.445 98.862 98.117 97.93 97.79 97.755 97.755 97.76 97.812 97.83 97.932 98.012 98.05 97.83 97.732 97.575 97.462 97.307 97.187 97.142 97.095 96.752 96.557 96.55 96.507 96.705 96.502 95.957 95.63 99.58 100.85 95.492 95.007 95.2 94.947 92.665 92.33 92.175 92.08 92.052 91.952 91.842 91.78 92.43 92.432 92.022 91.042 90.785 90.697 90.412 90.312 90.2 90.155 90.192 90.222 89.95 89.82 89.735 89.72 89.725 89.73 89.72 89.66 89.662 89.722 89.442 88.53 88.435 88.377 88.352 88.352 88.347 88.342 88.342 88.497 89.065 88.515 88.417 88.365 89.552 90.615 92.052 94.62 95.082 95.06 95.092 95.097 95.125 95.105 95.122 95.162 95.152 95.187 95.155 95.172 95.122 95.102 95.115 95.112 95.11 95.08 95.037 95.037 95.067 94.625 92.92 91.86 90.49 90.492 90.502 88.8 87.565 87.62 87.442 87.42 88.805 91.94 93.265 91.135 91.217 91.315 91.35 91.505 92.117 92.212 93.347 92.502 92.63 93.03 93.065 93.522 92.582 92.605 92.59 92.567 92.492 92.452 92.537 92.625 92.67 92.86 92.832 92.887 92.902 92.84 92.782 92.765 92.835 92.795 92.745 92.71 92.582 92.465 92.297 92.155 91.897 91.572 91.545 91.165 90.95 90.755 90.572 90.42 90.397 90.167 89.942 89.825 89.66 89.512 89.38 89.19 89.285 89.02 89.065 88.957 88.987 89.212 89.365 89.475 89.582 89.64 89.947 90.192 90.58 90.935 91.237 91.537 91.865 92 92.112 92.215 92.247 92.312 92.297 92.295 92.52 92.227 92.265 92.19 92.087 92.007 92.02
107.127 107.277 107.392 107.437 108.647 108.572 108.244 107.429 107.272 107.359 107.807 111.217 112.884 112.957 111.389 109.954 111.564 112.204 108.992 108.699 108.662 110.857 112.192 112.604 112.982 113.204 113.134 112.514 110.867 108.824 108.459 108.617 108.352 108.302 108.229 108.937 111.179 110.447 108.599 107.877 107.749 107.659 107.659 107.592 107.612 108.522 108.289 108.237 109.147 110.062 108.827 107.789 107.654 107.429 107.289 107.324 107.417 107.559 108.202 108.689 108.852 109.037 109.479 109.834 109.792 108.842 107.572 107.359 107.337 107.337 107.317 107.304 107.289 107.294 107.297 107.279 107.317 107.377 107.359 107.819 107.622 107.332 107.332 107.305 107.307 107.31 107.282 107.272 107.277 107.322 107.337 107.342 108.385 108.372 108.085 107.567 106.917 106.14 105.692 105.537 105.425 105.337 105.32 105.325 105.3 105.185 105.08 105.05 105.087 105.09 105.035 105.055 104.985 105.047 105.12 105.08 105.087 105.13 105.127 105.127 105.065 104.992 104.902 104.762 104.692 104.607 104.492 104.575 104.59 104.542 104.52 104.652 104.732 104.642 104.607 104.677 104.645 104.61 104.692 104.61 104.597 104.625 104.607 104.63 104.65 104.702 104.71 104.682 104.66 104.677 104.685 104.665 104.65 104.645 104.795 104.655 104.582 104.615 104.612 104.507 104.395 104.322 104.092 103.807 103.5 103.412 103.425 103.472 103.52 103.515 103.5 103.417 103.365 103.315 103.25 103.215 103.152 103.057 103.025 103.042 103.147 103.425 103.402 103.392 114.81 112.877 105.115 103.705 103.037 102.757 102.48 102.33 102.145 101.955 101.815 101.677 101.657 101.59 101.507 101.402 101.29 101.132 101.01 100.915 100.87 101.357 100.665 101.172 101.215 101.185 100.405 99.21 98.385 97.895 97.857 97.807 97.775 97.752 97.77 97.77 97.757 97.787 97.857 97.855 97.83 97.79 97.682 97.532 97.39 97.302 97.2 97.172 97.047 96.572 96.52 96.495 96.53 96.497 96.19 95.655 95.455 95.335 94.937 95.152 97.695 97.527 93.72 92.552 92.21 92.047 91.977 91.927 91.835 91.777 91.64 91.582 91.59 92.015 91.19 90.692 90.572 90.392 90.202 90.075 90.017 89.932 89.87 89.78 89.652 89.572 89.552 89.547 89.537 89.54 89.535 89.597 89.657 89.732 88.64 88.36 88.307 88.292 88.287 88.232 88.285 88.25 88.232 88.385 88.907 92.04 93.16 95.092 95.057 95.06 95.052 95.097 95.115 95.112 95.145 95.127 95.137 95.18 95.16 95.167 95.185 95.142 95.132 95.105 95.1 95.087 95.082 95.09 95.072 94.327 92.162 88.457 87.692 90.607 90.495 90.522 90.512 90.55 89.927 87.415 87.437 87.31 87.315 88.045 90.807 90.92 91.482 94.017 91.252 91.162 91.217 91.602 92.56 92.772 92.125 92.21 92.247 92.235 92.25 92.247 92.167 92.055 92.012 92.107 92.205 92.247 92.212 92.2 92.44 92.205 92.255 92.262 92.185 92.127 92.007 91.965 91.95 91.855 91.79 91.7 91.452 91.247 91.537 90.882 90.63 90.472 90.282 90.085 90.027 89.777 89.795 89.447 89.257 88.95 89.295 88.6 88.637 88.502 88.377 88.28 88.317 88.197 88.212 89.177 88.312 88.452 88.57 88.727 88.837 89.11 89.365 89.785 90.09 90.435 90.85 91.17 91.41 91.52 91.582 91.655 91.73 91.732 91.697 92.785 91.627 91.572 91.715 91.5 91.407 91.442
107.119 107.457 107.242 108.374 107.817 107.382 107.077 107.392 107.872 107.577 107.332 108.814 111.537 112.114 109.652 109.824 110.042 110.897 111.114 109.002 110.237 109.032 109.354 112.499 113.119 113.244 112.702 111.994 109.132 108.522 109.034 109.669 108.379 108.312 108.249 110.097 109.034 108.184 107.952 107.912 107.817 107.689 107.582 107.557 107.509 107.562 108.912 109.377 109.362 109.007 107.859 107.479 107.297 107.174 107.224 107.277 107.437 107.867 108.717 108.859 109.034 109.584 110.144 109.622 108.512 107.297 107.257 107.242 107.224 107.222 107.214 107.227 107.224 107.237 107.224 107.202 107.222 107.309 107.437 107.367 107.24 107.232 107.242 107.217 107.222 107.227 107.217 107.205 107.232 107.262 107.265 107.712 108.237 108.027 108.035 108.157 106.917 105.952 105.46 105.312 105.257 105.21 105.162 105.182 105.172 105.047 104.945 104.955 104.97 104.962 105.015 104.982 104.932 105.015 105.072 105.05 105.052 105.045 105.03 105.035 104.995 104.892 104.832 104.707 104.595 104.49 104.437 104.465 104.46 104.502 104.522 104.63 104.895 104.492 104.622 104.725 104.655 104.555 104.542 104.512 104.487 104.567 104.582 104.625 104.635 104.647 104.63 104.607 104.62 104.627 104.655 104.647 104.65 104.627 104.675 104.612 104.557 104.515 104.447 104.305 104.04 103.82 103.575 103.432 103.23 103.28 103.335 103.41 103.502 103.502 103.475 103.41 103.37 103.28 103.205 103.13 103.09 103.027 102.94 102.877 102.932 103.19 103.345 103.377 104.877 103.252 103.207 103.045 102.857 102.615 102.362 102.21 102.047 101.9 101.8 101.71 101.65 101.565 101.457 101.375 101.22 101.152 101.022 100.935 100.857 101.93 101.13 100.842 100.697 99.647 98.342 97.827 97.815 99.612 98.832 98.007 97.775 97.76 97.75 97.742 97.802 97.76 97.78 97.77 97.71 97.77 97.62 97.505 97.385 97.312 97.23 97.172 96.71 96.467 96.465 96.42 96.492 96.297 95.965 95.787 95.357 95.1 94.902 97.857 103.07 101.622 94.682 92.782 92.142 91.98 91.855 91.755 91.672 91.66 91.527 91.445 91.45 91.565 91.425 90.62 90.44 90.347 90.102 89.935 89.872 89.815 89.722 89.63 89.57 89.47 89.402 89.392 89.402 89.37 89.36 89.362 89.477 89.455 89.162 88.295 88.265 88.232 88.232 88.22 88.22 88.207 88.145 91.972 95.085 95.075 95.097 95.07 95.052 95.105 95.07 95.105 95.137 95.125 95.182 95.17 95.14 95.142 95.127 95.13 95.152 95.102 95.1 95.072 95.02 94.217 93.65 92.967 91.122 89.987 88.5 87.392 87.262 89.807 90.527 90.525 90.512 91.1 92.127 89.377 87.307 87.217 87.222 87.345 90.355 90.615 90.79 94.167 92.052 91.855 91.707 91.5 91.465 92.992 91.855 91.837 91.82 92.28 91.86 91.857 91.745 91.757 91.89 91.937 91.87 91.845 91.6 91.652 91.63 91.532 91.475 91.502 91.497 91.34 91.31 91.25 91.345 91.062 90.775 90.662 90.622 90.54 90.175 89.992 89.782 89.557 89.37 89.165 88.967 88.79 88.655 88.517 88.332 88.04 87.865 87.752 87.67 87.57 87.427 87.357 87.642 88.72 88.207 87.442 87.775 87.692 87.652 88.04 87.927 88.12 88.535 89.222 89.195 89.665 90.1 90.507 90.782 90.91 90.962 91.037 91.142 91.165 91.185 91.262 91.05 91.097 91.777 90.81 90.7 90.795
107.802 108.099 108.369 108.807 107.254 106.857 107.134 107.662 107.444 109.119 108.097 107.359 107.664 108.874 108.159 109.887 109.952 109.999 109.959 111.787 115.282 112.737 109.424 109.467 111.509 112.824 111.542 110.109 108.662 109.462 108.964 108.597 108.389 108.674 110.347 110.682 110.587 108.387 107.947 107.917 107.834 107.747 107.577 107.479 107.427 107.374 107.624 109.252 108.884 107.957 107.454 107.209 107.049 107.112 107.179 107.332 107.634 108.149 108.734 108.822 109.277 109.642 109.347 108.239 107.274 107.189 107.172 107.127 107.132 107.114 107.137 107.157 107.154 107.157 107.174 107.232 107.577 107.589 107.204 107.169 107.172 107.16 107.15 107.147 107.152 107.137 107.142 107.172 107.147 107.17 107.362 107.652 107.815 107.682 107.445 107.48 106.792 105.837 105.285 105.155 105.132 105.097 105.075 105.045 104.997 104.895 104.822 104.817 104.872 104.91 104.975 104.935 104.867 104.892 104.99 104.977 104.977 104.965 104.947 104.915 104.875 104.827 104.76 104.652 104.552 104.417 104.38 104.415 104.432 104.485 104.51 104.57 104.482 104.515 104.75 104.96 104.87 104.597 104.485 104.51 104.525 104.537 104.582 104.602 104.605 104.605 104.612 104.552 104.585 104.55 104.607 104.64 104.627 104.637 104.647 104.775 104.565 104.395 104.217 103.992 103.762 103.502 103.337 103.162 103.117 103.192 103.26 103.347 103.455 103.555 103.545 103.555 103.492 103.355 103.202 103.07 103 102.945 102.87 102.795 102.762 102.87 103.13 103.32 103.222 103.097 103.012 102.862 102.667 102.455 102.217 102.055 101.967 101.865 101.757 101.652 101.62 101.55 101.44 101.36 101.23 101.125 101.08 101.042 100.977 101.152 101.28 100.202 98.902 98.055 97.845 97.865 98.59 102.38 103.022 100.475 99.31 98.147 97.81 97.735 97.825 97.732 97.757 97.76 97.692 97.722 97.59 97.472 97.385 97.3 97.292 97.137 96.445 96.405 96.39 96.342 96.425 96.05 96.027 96.977 95.59 95.017 94.785 97.035 101.772 98.562 93.572 93.215 92.242 91.925 91.727 91.58 91.59 91.53 91.47 91.332 91.287 91.302 91.377 90.75 90.31 90.242 90.072 89.832 89.76 89.697 89.612 89.532 89.457 89.35 89.267 89.187 89.222 89.215 89.192 89.185 89.192 89.285 89.04 88.235 88.19 88.165 88.18 88.16 88.157 88.15 88.08 89.622 95.062 95.1 95.13 95.155 95.15 95.15 95.122 95.145 95.152 95.14 95.137 95.137 95.122 95.092 95.075 95.085 95.112 94.79 94.95 92.65 90.362 90.38 87.417 87.415 87.957 87.67 87.332 87.292 87.21 89.212 91.277 91.685 92.455 92.707 92.695 92.267 87.935 87.1 87.075 87.09 89.097 90.497 90.58 90.402 91.687 90.87 91.027 92.42 91.142 91.385 91.47 91.545 91.555 91.502 91.437 91.482 91.582 91.517 91.847 91.52 91.182 91.005 90.68 90.52 90.642 90.635 90.707 90.8 90.74 90.66 90.602 90.517 90.83 90.182 89.897 90.31 89.637 89.457 89.315 89.26 88.895 88.682 88.527 88.407 88.255 88.195 88.072 87.79 87.54 87.425 87.31 87.187 87.092 87.02 86.912 86.767 86.705 86.652 87.455 86.65 86.962 86.802 86.795 86.797 86.962 87.24 88.512 88.112 88.342 88.805 89.265 89.712 90.105 90.26 90.355 90.432 90.507 90.555 90.597 90.877 90.47 90.43 90.38 90.237 90.137 90.195
107.369 108.257 107.597 106.972 106.637 106.722 106.739 106.839 108.664 110.427 109.784 108.722 107.349 107.437 107.567 108.099 109.802 109.922 109.972 111.499 114.492 112.787 109.354 108.527 108.547 110.609 109.614 108.499 108.464 109.049 109.237 108.874 108.652 110.489 110.627 110.627 110.624 110.062 108.314 107.964 107.889 107.794 107.642 107.497 107.372 107.314 107.259 107.322 107.367 107.372 107.137 107.002 107.017 107.042 107.224 107.499 108.079 108.787 108.977 109.122 109.362 109.127 108.082 107.167 107.127 107.082 107.064 107.064 107.049 107.047 107.059 107.089 107.087 107.069 107.267 107.519 107.312 107.069 107.102 107.124 107.077 107.067 107.065 107.055 107.065 107.08 107.1 107.105 107.172 107.172 107.085 106.882 106.572 106.1 106.05 106.165 106.057 105.53 105.015 104.992 105.077 104.972 104.955 104.887 104.837 104.745 104.692 104.685 104.787 104.832 104.88 104.865 104.767 104.747 104.862 104.912 104.907 104.902 104.845 104.797 104.76 104.717 104.647 104.575 104.462 104.36 104.312 104.367 104.42 104.405 104.435 104.47 104.35 104.492 104.85 105.207 105.202 104.792 104.582 104.49 104.51 104.527 104.54 104.567 104.587 104.602 104.537 104.52 104.547 104.53 104.572 104.645 104.66 104.647 104.665 104.672 104.48 104.222 104.12 103.807 103.567 103.302 103.082 102.977 103.032 103.155 103.232 103.37 103.485 103.545 103.612 103.565 103.57 103.517 103.252 103.102 102.942 102.857 102.797 102.707 102.652 102.647 102.722 102.952 102.967 102.915 102.805 102.63 102.45 102.2 101.995 101.887 101.81 101.705 101.637 101.557 101.542 101.5 101.452 101.367 101.322 101.25 101.197 101.192 101.225 100.722 99.362 98.49 97.895 97.895 97.847 99.152 103.14 104.352 104.752 103.792 103.812 100.91 98.592 97.807 97.765 97.75 97.755 97.752 97.702 97.532 97.47 97.392 97.36 97.265 97.122 96.542 96.362 96.337 96.275 96.655 99.627 95.76 96.645 98.167 97.38 95.53 95.89 98.457 96.622 94.752 94.337 93.482 92.497 91.895 91.687 91.46 91.507 91.387 91.347 91.235 91.105 91.127 91.205 91.14 90.337 90.135 90.015 89.75 89.63 89.55 89.48 89.405 89.302 89.227 89.177 89.11 89.057 89.087 89.035 89.03 89 89.105 89.172 88.347 88.147 88.105 88.122 88.087 88.08 88.09 88.085 88.307 93.51 95.082 95.112 95.155 95.147 95.177 95.175 95.112 95.125 95.115 95.115 95.1 95.072 95.067 95.03 95.11 92.072 89.927 87.517 87.73 87.557 87.38 87.755 87.632 88.307 89.275 88.775 87.232 87.205 90.482 92.712 92.702 92.675 92.712 92.732 92.74 88.085 87.057 87.07 87.065 87.445 91.505 88.7 90.007 90.537 90.682 90.697 90.685 90.78 91.445 91.407 91.145 91.057 91.072 91.28 91.242 91.042 90.935 90.687 90.545 90.297 89.875 89.775 89.367 89.39 89.66 89.822 90.025 90.037 89.972 89.862 89.742 89.547 89.342 89.167 89.035 88.85 88.705 88.577 89.197 88.207 88.132 88.082 87.91 87.642 87.467 87.457 87.21 87.025 86.947 86.85 86.75 86.662 86.577 86.447 86.372 86.335 86.25 86.182 86.112 86.115 86.147 86.117 86.167 86.502 86.5 86.84 87.175 87.5 87.887 88.325 88.817 89.255 89.485 89.647 89.767 89.877 89.927 89.945 89.925 89.862 89.835 90.53 89.672 89.627 89.63
106.169 106.252 106.337 106.474 106.557 107.034 106.649 108.469 111.429 111.142 110.549 108.757 109.144 107.537 107.527 107.854 108.737 108.689 109.902 109.537 109.062 111.217 109.549 108.862 108.504 108.454 108.519 108.579 108.514 108.452 108.734 110.119 110.662 108.534 108.689 110.544 110.607 110.614 110.344 108.272 107.957 107.842 107.694 107.524 107.372 107.222 107.207 107.119 107.089 107.027 106.964 106.972 106.974 107.134 107.374 107.812 108.122 108.467 108.857 109.447 109.309 108.239 107.194 107.029 106.994 106.999 106.999 106.969 106.972 106.967 106.997 106.972 106.989 107.259 107.307 107.062 106.987 107.002 106.994 106.977 106.982 106.977 106.975 106.985 106.997 107.005 107.022 107.125 107.095 106.652 105.987 105.395 104.702 104.682 105.487 105.107 104.885 104.877 104.822 104.955 105.752 104.902 104.837 104.74 104.615 104.562 104.52 104.58 104.64 104.73 104.8 104.83 104.802 104.672 104.737 104.822 104.802 104.795 104.745 104.687 104.625 104.585 104.53 104.43 104.325 104.285 104.287 104.35 104.357 104.327 104.335 104.402 104.322 104.36 104.66 104.997 105.187 104.882 104.572 104.47 104.482 104.48 104.53 104.562 104.555 104.55 104.5 104.52 104.535 104.63 104.697 104.66 104.682 104.67 104.672 104.64 104.447 104.05 103.78 103.567 103.342 103.04 102.855 102.845 102.965 103.057 103.22 103.33 103.39 103.44 103.38 103.327 103.325 103.52 103.3 103.135 102.947 102.802 102.725 102.65 102.577 102.512 102.502 102.555 102.647 102.672 102.605 102.34 102.197 101.957 101.79 101.747 101.64 101.63 101.585 101.54 101.557 101.6 101.57 101.475 101.43 101.41 101.452 101.057 100.015 99.075 98.667 98.677 97.902 97.835 97.83 103.447 104.382 105.042 105.405 104.942 104.47 103.99 102.07 99.207 97.83 97.832 97.837 97.78 97.677 97.527 97.342 97.282 97.23 96.987 96.572 96.327 96.27 96.24 96.23 97.227 97.092 96.86 96.155 97.695 97.582 95.607 97.395 98.23 96.785 96.172 94.24 93.432 92.905 92.032 91.635 91.422 91.292 91.277 91.257 91.12 91.01 90.945 90.942 91.2 90.552 90.087 89.952 89.69 89.537 89.442 89.372 89.345 89.32 89.32 89.337 89.18 88.877 88.887 88.87 88.815 88.81 88.845 88.965 88.575 88.102 88.052 88.042 88.002 88.045 88.017 87.995 87.96 90.965 95.07 95.105 95.162 95.162 95.147 95.11 95.112 95.052 95.092 95.072 95.067 95.097 94.705 92.777 91.51 87.947 87.405 87.395 87.367 87.487 87.82 88.955 88.5 87.287 87.532 87.85 87.167 87.132 87.84 91.71 92.725 92.74 92.75 92.765 92.747 90.05 87.037 87.03 86.967 87.07 88.237 86.912 89.337 91.03 90.74 90.61 90.705 90.457 90.55 90.647 90.582 90.715 90.982 90.967 90.712 90.242 90.745 89.907 89.617 89.392 89.067 88.942 88.802 88.687 89.015 89.165 89.277 89.332 89.255 89.302 89.065 88.917 89.232 88.8 88.447 88.67 88.042 87.857 87.745 87.615 87.495 87.382 87.312 87.237 87.135 87.065 86.972 86.887 86.782 86.687 86.592 86.55 86.43 86.355 86.247 86.17 86.067 85.992 85.89 85.802 85.73 85.652 85.645 85.67 85.73 85.917 86.387 86.715 87.255 87.425 87.867 88.385 88.695 88.89 89.14 89.267 89.315 89.405 89.317 89.287 89.277 89.187 89.122 89.1 89.177
106.119 106.187 106.302 106.702 106.927 106.679 108.367 111.442 112.049 111.834 111.232 109.957 110.577 110.267 108.467 107.657 107.742 107.704 109.337 109.712 108.159 109.502 111.037 110.747 108.564 108.469 108.454 108.447 108.454 108.417 108.399 109.177 108.604 108.309 108.242 108.759 109.132 111.214 113.132 111.424 107.974 107.884 107.727 107.604 107.442 107.184 107.134 107.067 107.014 106.922 106.909 106.892 107.027 107.319 107.584 108.319 108.152 108.422 108.937 109.669 109.174 107.592 106.962 106.894 106.902 106.899 106.907 106.912 106.907 106.919 106.919 107.067 107.304 107.174 106.899 106.917 106.927 106.939 106.929 106.912 106.882 106.885 106.9 106.92 106.937 107.012 107.077 106.792 106.205 105.29 104.512 104.495 104.445 104.42 104.4 104.43 104.435 104.49 104.642 104.727 105.26 105.667 104.735 104.582 104.402 104.337 104.367 104.49 104.575 104.727 104.69 104.765 104.755 104.675 104.612 104.647 104.675 104.672 104.615 104.55 104.492 104.467 104.41 104.272 104.187 104.202 104.3 104.292 104.327 104.337 104.265 104.327 104.195 104.152 104.392 104.655 104.802 104.802 104.625 104.427 104.387 104.437 104.482 104.48 104.51 104.527 104.527 104.545 104.592 104.642 104.642 104.682 104.715 104.735 104.697 104.582 104.172 103.622 103.357 103.3 103.102 102.917 102.697 102.732 102.84 102.995 103.127 103.3 103.242 103.242 103.227 103.167 103.125 103.135 103.105 103.192 102.992 102.825 102.637 102.54 102.477 102.405 102.327 102.325 102.36 102.33 102.302 102.127 101.925 101.782 101.657 101.587 101.56 101.525 101.507 101.535 101.712 101.715 101.735 101.617 101.65 101.597 100.727 99.43 98.75 98.28 99.215 99.72 98.52 97.82 101.3 104.207 104.877 105.512 106.022 105.607 105.13 104.652 104.187 102.915 101.562 98.992 99.225 98.417 97.75 97.545 97.295 97.122 96.872 96.447 96.24 96.24 96.307 96.83 96.235 96.12 97.055 98.497 98.515 97.057 96.22 95.457 96.155 97.035 95.945 94.437 93.465 92.962 93.41 92.222 91.585 91.402 91.235 91.207 91.112 91.045 90.932 90.827 90.842 90.92 91.185 90.117 89.847 89.657 89.512 89.48 89.56 89.587 89.73 89.822 89.9 89.335 88.827 88.745 88.732 88.695 88.65 88.645 88.727 88.625 88.06 88.035 87.985 87.987 87.947 87.96 87.917 87.877 90.027 95.077 95.082 95.135 95.167 95.112 95.102 95.105 94.672 94.237 93.51 92.882 90.542 89.215 88.687 87.767 87.452 87.327 87.31 87.272 87.245 87.547 87.347 87.265 87.22 87.13 87.12 87.76 87.06 87.022 91.217 92.752 92.767 92.792 92.75 92.755 91.78 87.055 86.95 86.947 86.93 86.93 86.912 88.52 90.537 92.302 90.532 90.535 90.26 90.195 90.217 90.342 90.647 91 90.532 90.142 89.55 89.27 89.092 88.965 88.865 88.78 90.642 91.39 88.687 88.377 88.605 88.772 88.71 89.047 88.47 88.322 88.092 88.13 87.895 87.822 87.647 87.542 87.47 87.407 87.317 87.312 87.267 87.227 87.167 87.092 87 86.92 86.84 86.78 86.705 86.555 86.437 86.367 86.272 86.14 86.037 85.957 85.88 85.79 85.685 85.587 85.485 85.412 85.322 85.28 85.34 85.545 85.882 86.202 86.52 87.022 87.505 87.897 88.282 88.515 88.647 88.705 88.757 88.755 88.735 88.702 88.69 88.54 88.462 88.497
106.067 106.567 106.172 106.342 107.077 106.909 111.059 112.202 112.149 112.194 111.999 111.382 110.862 110.617 110.414 108.522 107.714 107.769 109.249 108.214 107.784 107.964 108.447 110.932 109.474 108.469 108.544 108.472 108.402 108.394 109.399 108.829 108.369 108.249 108.167 108.034 109.872 114.127 114.564 113.822 110.247 107.959 107.772 107.994 107.502 107.257 107.082 107.017 106.957 106.854 106.842 106.952 107.157 107.459 107.839 107.922 107.949 108.297 108.807 109.477 108.284 107.004 106.827 106.782 106.802 106.824 106.844 106.854 106.807 106.872 107.142 107.349 106.897 106.837 106.847 106.844 106.867 106.867 106.847 106.832 107.062 106.957 106.855 106.86 106.99 107.092 106.715 105.395 104.692 104.462 104.435 104.415 104.367 104.332 104.33 104.362 104.36 104.392 104.515 104.615 104.682 105.42 104.782 104.46 104.32 104.217 104.27 104.375 104.535 104.697 104.622 104.69 104.647 104.62 104.567 104.517 104.492 104.477 104.507 104.447 104.38 104.315 104.207 104.172 104.15 104.187 104.23 104.225 104.23 104.277 104.22 104.292 104.21 103.942 104.09 104.35 104.562 104.64 104.62 104.417 104.365 104.43 104.417 104.462 104.5 104.632 104.62 104.662 104.657 104.665 104.69 104.707 104.75 104.705 104.625 104.335 103.7 103.135 103.09 103.062 102.907 102.962 102.575 102.6 102.712 102.88 102.937 103.162 103.055 103.19 103.477 103.09 103.015 102.967 102.887 102.965 103.092 102.947 102.587 102.47 102.377 102.352 102.287 102.185 102.157 102.075 102.012 101.9 101.792 101.647 101.577 101.52 101.46 101.455 101.517 101.602 101.682 101.84 101.772 101.685 101.01 100.392 99.517 98.627 98.17 97.985 97.885 98.152 98.065 100.01 104.01 104.66 105.32 106.012 106.572 106.212 105.707 105.127 104.54 103.982 102.232 100.585 102.115 100.902 98.862 97.527 97.162 97.05 96.632 96.337 96.235 96.25 98.44 100.13 97.13 96.52 98.252 96.915 97.507 96.822 97.905 96.475 94.775 94.887 94.53 94.847 95.022 93.212 93.175 92.33 91.732 91.302 91.19 91.017 90.995 90.94 90.827 90.73 90.682 90.7 90.965 90.417 89.81 89.6 89.567 89.63 89.772 89.99 90.387 90.492 90.352 89.685 88.98 88.667 88.575 88.552 88.477 88.467 88.47 88.652 88.11 87.985 87.965 87.94 87.897 87.9 87.87 87.825 87.812 94.94 95.085 95.102 95.127 95.125 95.08 93.802 90.762 87.93 87.505 88.002 88.005 87.362 87.352 87.327 87.297 87.26 87.232 87.195 87.192 87.235 88.06 88.55 88.412 87.04 87.192 88.157 87.002 86.99 89.135 91.915 92.772 92.752 92.757 92.745 91.827 87.45 86.912 86.87 86.9 86.91 86.872 87.177 89.545 90.502 90.407 90.302 90.082 89.91 89.992 90.262 90.512 90.575 90.112 89.655 89.135 88.89 88.827 88.577 90.537 91.732 91.7 91.702 89.535 88.102 88.45 88.425 88.147 88.012 87.925 87.837 87.732 87.67 87.592 87.552 87.537 87.477 87.427 87.35 87.307 87.267 87.24 87.172 87.132 87.082 87.005 86.94 86.845 86.765 86.66 86.612 86.39 86.292 86.2 86.102 85.995 85.902 85.797 85.687 85.605 85.482 85.372 85.277 85.187 85.085 85.05 85.067 85.172 85.43 85.837 86.105 86.58 87.11 87.67 88.035 87.987 88.152 88.257 88.307 88.307 88.305 88.292 88.235 88.145 88.155
106.307 106.809 106.429 105.969 106.574 110.132 111.922 112.039 111.199 111.534 112.077 112.139 111.534 110.934 110.627 110.404 109.117 108.219 107.829 107.817 107.797 108.627 110.199 110.517 109.662 108.539 108.474 108.479 108.539 109.122 108.907 108.199 108.212 108.164 108.039 108.979 113.554 114.472 114.917 114.477 113.679 109.652 107.827 107.684 107.549 107.307 107.092 106.964 106.884 106.812 106.734 106.917 107.149 107.389 107.644 107.669 107.744 108.127 108.457 107.987 107.477 106.834 106.742 106.682 106.739 106.709 106.764 106.812 106.809 107.302 106.947 106.762 106.759 106.759 106.762 106.764 106.789 106.762 106.759 106.772 106.802 106.752 106.485 106.972 106.82 106.302 105.13 104.527 104.432 104.38 104.35 104.35 104.312 104.255 104.237 104.255 104.285 104.352 104.405 104.492 104.55 105.305 105.282 104.305 104.107 104.09 104.202 104.31 104.445 104.502 104.515 104.577 104.597 104.527 104.545 104.447 104.39 104.335 104.317 104.265 104.235 104.23 104.15 104.155 104.192 104.237 104.23 104.197 104.192 104.192 104.127 104.165 104.24 104.057 103.865 104.077 104.347 104.465 104.465 104.355 104.422 104.452 104.532 104.57 104.61 104.66 104.71 104.735 104.697 104.74 104.732 104.702 104.762 104.665 104.34 103.82 103.117 102.755 102.83 102.83 102.707 102.562 102.445 102.467 102.567 102.637 102.732 102.76 102.81 103.302 103.282 102.957 102.89 102.812 102.655 102.545 102.89 103.057 102.722 102.462 102.265 102.25 102.185 102.1 102.017 101.895 101.797 101.73 101.625 101.527 101.46 101.407 101.397 101.455 101.577 101.587 101.65 101.747 101.48 100.842 100.54 99.927 98.955 98.25 98.012 97.962 97.94 98.71 98.732 102.58 104.307 104.842 105.33 105.84 106.322 106.127 105.5 104.832 104.182 101.74 101.26 102.192 101.907 101.637 100.88 99.605 97.487 97.095 96.607 96.307 96.257 96.33 99.375 97.4 95.81 96.532 95.9 96.022 97.24 95 95.05 95.762 94.662 94.307 96.875 99.035 97.577 93.227 92.622 92.295 92.515 91.292 91.125 90.96 90.847 90.83 90.75 90.657 90.575 90.652 90.637 90.882 89.735 89.475 89.445 89.495 89.66 90.05 90.455 90.58 90.482 89.99 89.202 88.642 88.422 88.395 88.382 88.307 88.292 88.347 88.142 87.895 87.92 87.877 87.847 87.83 87.77 87.75 87.687 91.482 95.067 95.117 95.157 95.137 95.1 95.115 88.592 87.39 87.35 87.322 87.312 87.29 87.267 87.257 87.215 87.182 87.172 87.165 87.122 87.125 88.827 90.055 89.412 87.372 86.93 87.932 87.027 86.897 87.59 90.46 92.725 92.732 92.69 92.71 92.697 89.697 86.86 86.822 86.83 86.842 86.84 86.775 89.342 90.315 91.315 90.785 90.007 89.72 89.73 89.942 90.097 90.03 90 89.42 88.842 89.555 90.392 91.725 91.73 91.717 91.525 90.912 89.562 87.657 88.082 87.947 87.77 87.715 87.657 87.627 87.6 87.58 87.55 87.502 87.46 87.455 87.397 87.34 87.257 87.212 87.227 87.287 87.352 87.595 87.092 86.95 86.81 86.697 86.647 86.567 86.42 86.27 86.145 86.04 85.935 85.817 85.752 85.617 85.54 85.415 85.277 85.172 85.042 84.967 84.877 84.855 84.787 84.76 85.1 85.44 86.03 86.275 86.675 87.025 87.37 87.592 87.745 87.857 87.92 87.92 87.927 87.905 87.832 87.847
105.859 106.269 107.607 106.402 109.894 111.729 112.439 111.412 107.454 107.214 111.207 111.967 112.197 111.697 111.069 110.697 110.534 109.034 107.804 107.792 108.109 109.499 110.347 109.537 108.737 109.554 111.059 108.962 109.014 110.862 109.554 108.179 108.134 108.059 108.892 111.307 112.492 113.842 114.562 114.942 114.409 112.849 108.547 107.677 107.522 107.369 107.142 106.949 106.824 106.767 106.657 106.749 107.099 107.622 107.474 107.474 107.554 107.819 108.094 107.784 107.147 106.749 106.632 106.589 106.607 106.657 106.887 106.944 106.944 107.004 106.677 106.687 106.689 106.669 106.679 106.669 106.694 106.687 106.687 106.687 106.692 106.672 105.97 106.297 105.78 104.785 104.44 104.42 104.375 104.335 104.265 104.332 104.242 104.215 104.162 104.162 104.182 104.312 104.255 104.402 104.387 104.322 104.447 104.165 103.997 104.047 104.09 104.227 104.297 104.37 104.457 104.52 104.51 104.495 104.512 104.467 104.457 104.347 104.285 104.22 104.192 104.217 104.187 104.19 104.197 104.187 104.177 104.195 104.142 104.115 104.065 104.047 104.127 104.107 103.852 103.865 104.12 104.31 104.337 104.387 104.49 104.412 104.51 104.61 104.702 104.74 104.767 104.765 104.762 104.757 104.745 104.71 104.665 104.31 103.75 103.035 102.587 102.607 102.67 102.652 102.577 102.47 102.34 102.347 102.412 102.465 102.445 102.455 102.54 102.642 102.732 102.69 102.682 102.595 102.427 102.315 102.415 102.682 102.672 102.477 102.25 102.112 102.09 102 101.912 101.797 101.76 101.61 101.46 101.385 101.365 101.342 101.437 101.475 101.52 101.5 101.63 101.765 101.57 100.727 100.527 99.26 98.505 98.092 98.01 97.98 97.94 97.965 97.957 98.88 102.6 104.222 104.725 105.207 105.697 105.65 105.04 104.39 103.675 100.477 102.075 101.995 101.7 101.402 101.135 100.83 98.705 96.83 96.445 96.317 96.245 96.385 100.217 97.952 96.057 96.707 96.57 96.585 95.89 94.78 94.005 94.03 93.817 93.86 95.947 98.175 96.535 93.085 92.542 92.265 92.445 91.74 91.027 90.93 90.72 90.712 90.67 90.592 90.53 90.47 90.475 91.002 90.057 90.005 89.335 89.392 89.46 89.797 90.31 90.61 90.562 90.312 89.575 88.805 88.377 88.282 88.257 88.212 88.155 88.162 88.187 87.88 87.827 87.827 87.795 87.747 87.677 87.71 87.627 89.115 95.105 95.122 95.14 95.172 95.117 95.055 92.065 87.317 87.26 87.25 87.222 87.205 87.19 87.155 87.15 87.125 87.107 87.067 86.997 87.012 88.02 90.112 90.115 87.715 86.84 86.945 86.805 86.77 86.822 91.287 92.692 92.68 92.68 92.68 92.67 91.197 86.85 86.762 86.74 86.765 86.772 86.725 88.45 90.102 91.577 95.345 91.34 89.625 89.497 89.595 89.655 89.57 89.362 89.145 88.635 88.562 91.617 91.685 91.7 90.342 90.03 87.83 87.557 87.597 87.61 87.625 87.615 87.597 87.577 87.55 87.53 87.505 87.512 87.47 87.432 87.392 87.407 87.375 87.71 87.34 87.57 87.37 87.162 87.017 86.865 86.807 86.752 86.67 86.585 86.53 86.45 86.322 86.22 86.077 85.982 85.875 85.797 85.67 85.54 85.385 85.205 85.07 84.937 84.81 84.707 84.677 84.66 84.565 84.517 84.745 85.142 85.467 85.915 86.345 86.652 86.882 87.175 87.442 87.592 87.595 87.595 87.605 87.532 87.55
105.992 105.757 105.774 108.712 111.599 112.167 111.464 108.542 107.244 106.829 107.224 109.137 111.822 112.249 111.864 111.204 110.382 111.277 108.754 107.799 109.002 110.139 109.342 108.444 108.437 109.682 111.134 109.352 111.429 113.539 113.587 109.529 108.069 108.012 108.324 110.507 111.364 112.919 114.002 114.604 114.912 114.359 111.537 108.114 107.509 107.389 107.192 106.912 106.762 106.657 106.594 106.532 107.264 107.609 107.322 107.289 107.324 107.397 107.599 107.429 107.094 106.652 106.567 106.492 106.542 106.569 106.634 107.097 107.199 107.237 106.697 106.592 106.609 106.587 106.589 106.567 106.584 106.584 106.592 106.667 106.875 106.84 105.772 104.84 104.505 104.437 104.365 104.332 104.297 104.292 104.232 104.22 104.235 104.247 104.177 104.085 104.077 104.255 104.09 104.21 104.075 104.017 103.94 103.932 103.915 103.965 104.05 104.107 104.225 104.312 104.377 104.452 104.477 104.46 104.42 104.427 104.422 104.37 104.322 104.287 104.25 104.257 104.217 104.19 104.162 104.13 104.157 104.185 104.087 104.06 103.965 103.927 104.04 104.08 103.907 103.7 103.78 104.112 104.325 104.387 104.372 104.415 104.537 104.697 104.767 104.787 104.815 104.782 104.787 104.712 104.707 104.627 104.322 103.805 103.075 102.507 102.467 102.512 102.522 102.492 102.422 102.44 102.292 102.287 102.282 102.285 102.235 102.245 102.33 102.485 102.48 102.495 102.462 102.365 102.275 102.225 102.162 102.152 102.362 102.435 102.4 102.1 102.052 101.927 101.837 101.757 101.665 101.507 101.37 101.222 101.192 101.26 101.392 101.385 101.365 101.372 101.617 101.38 100.937 100.565 99.54 98.787 98.322 98.092 98.065 98 97.94 97.875 97.81 97.727 99.522 101.362 103.235 104.537 105.045 105.162 104.857 104.465 101.032 101.927 102.057 101.76 101.48 101.212 100.917 100.01 97.055 96.452 96.387 96.22 96.085 95.965 96.517 96.335 102.095 103.86 99.075 96.222 94.867 94.425 94.062 93.86 93.667 93.937 96.705 95.17 94.905 93.257 92.38 92.165 92.077 92.257 91.05 90.825 90.63 90.595 90.555 90.452 90.39 90.287 90.347 90.337 90.612 89.51 89.295 89.327 89.432 89.597 90.4 90.562 90.68 90.535 90 89.187 88.415 88.15 88.115 88.077 88.01 87.997 88.02 87.835 87.777 87.76 87.717 87.7 87.652 87.622 87.567 88.992 94.18 95.092 95.102 95.137 95.15 95.095 94.282 87.642 87.2 87.17 87.147 87.077 87.127 87.07 87.065 87.035 86.995 86.997 86.922 86.912 86.995 88.467 87.702 86.855 86.777 86.74 86.727 86.692 86.71 89.795 92.7 92.687 92.672 92.66 92.695 92.51 87.73 86.982 86.75 86.725 86.725 86.712 86.802 88.225 90.192 93.945 90.557 89.597 89.345 89.385 89.447 89.177 88.957 88.74 88.592 87.887 90.027 90.197 89.335 87.802 87.527 87.527 87.532 87.557 87.565 87.557 87.55 87.547 87.552 87.55 87.52 87.487 87.497 87.737 87.74 87.432 87.697 87.172 87.27 86.99 86.965 86.927 86.885 86.817 86.74 86.697 86.652 86.592 86.507 86.42 86.362 86.295 86.232 86.142 86.067 85.975 85.842 85.737 85.597 85.447 85.267 85.072 84.882 84.637 84.542 84.532 84.517 84.457 84.392 84.375 84.447 84.765 85.235 85.565 86.032 86.225 86.597 86.87 87.135 87.297 87.33 87.292 87.215 87.242
106.299 105.677 108.254 111.614 112.124 111.707 108.462 106.522 108.162 106.637 106.314 106.832 109.214 111.707 112.222 111.957 111.687 111.337 108.389 109.759 109.684 108.749 108.179 108.314 108.447 108.409 108.924 111.732 118.232 115.867 110.904 108.834 108.087 107.922 108.004 108.912 110.799 111.382 113.094 114.079 114.707 113.009 108.552 107.644 107.482 107.379 107.172 106.882 106.699 106.577 106.482 106.407 106.639 107.654 107.234 107.177 107.154 107.209 107.329 107.342 107.027 106.619 106.497 106.439 106.432 106.464 106.489 106.752 106.759 106.692 106.534 106.504 106.514 106.524 106.532 106.519 106.512 106.517 106.704 106.974 106.597 105.677 104.67 104.467 104.417 104.335 104.312 104.29 104.24 104.215 104.19 104.175 104.277 104.565 104.402 104.192 104.087 103.972 103.955 103.957 103.897 103.875 103.86 103.837 103.85 103.877 103.982 104.062 104.187 104.322 104.395 104.422 104.417 104.415 104.37 104.347 104.345 104.312 104.307 104.257 104.18 104.165 104.145 104.122 104.07 104.072 104.045 104.047 103.997 103.937 103.845 103.835 103.89 103.96 103.947 103.642 103.545 104.092 104.295 104.347 104.362 104.397 104.39 104.535 104.752 104.767 104.787 104.767 104.76 104.715 104.595 104.36 103.825 103.135 102.502 102.42 102.407 102.44 102.442 102.44 102.462 102.325 102.225 102.2 102.157 102.142 102.117 102.157 102.185 102.47 102.27 102.33 102.252 102.227 102.14 102.095 102.057 101.975 101.977 102.117 102.235 102.21 102.105 101.895 101.775 101.67 101.575 101.457 101.327 101.165 101.075 101.132 101.167 101.147 101.127 101.152 101.057 100.94 100.762 100.035 99.155 98.622 98.255 98.177 98.1 98.02 97.92 97.857 97.797 97.725 97.672 97.75 99.322 103.88 104.36 104.617 104.262 102.37 101.677 102.135 101.865 101.567 101.29 101.017 100.72 97.645 96.462 96.412 97.09 96.572 96.475 96.32 97.192 97.392 105.49 103.397 96.94 96.11 95.805 97.697 95.165 95.157 93.687 93.43 93.292 93.765 93.7 92.657 92.4 92.107 91.825 91.547 91.142 90.77 90.632 90.437 90.395 90.372 90.295 90.22 90.162 90.225 90.457 90.082 89.247 89.165 90.377 89.272 89.782 90.352 90.772 90.665 90.317 89.635 88.687 88.125 88 87.972 87.917 87.867 87.85 87.792 87.742 87.707 87.642 87.635 87.602 87.532 87.44 89.482 92.645 95.057 95.097 95.16 95.057 95.062 94.197 88.825 87.135 87.067 87.08 87.025 87.042 87 86.977 86.945 86.925 86.927 86.867 86.81 86.805 86.792 86.742 86.727 86.695 86.645 86.67 86.61 86.63 87.45 91.222 92.71 92.71 92.695 92.702 92.745 89.36 87.1 86.702 86.697 86.722 86.69 86.605 86.91 89.032 90.015 89.842 92.007 89.22 89.007 88.922 89.152 88.57 88.387 88.237 87.67 87.455 87.587 87.44 87.47 87.47 87.44 87.455 87.512 87.492 87.495 87.49 87.527 87.612 87.82 87.72 87.512 87.307 87.257 87.017 86.962 86.945 86.927 86.905 86.86 86.812 86.76 86.732 86.687 86.627 86.572 86.537 86.475 86.417 86.327 86.26 86.225 86.172 86.125 86.072 86.007 85.935 85.825 85.732 85.615 85.355 85.085 85.292 84.445 84.347 84.392 84.4 84.392 84.307 84.262 84.205 84.237 84.522 84.817 85.127 85.557 85.977 86.37 86.692 86.95 87.037 86.927 86.892 86.907
105.807 106.577 111.237 112.809 111.847 109.862 107.902 106.542 107.422 106.904 106.182 106.317 107.364 109.867 111.532 112.052 112.137 111.364 109.477 110.004 108.594 108.674 108.872 108.267 108.579 108.467 108.544 111.724 115.414 111.147 108.227 107.972 107.884 107.829 107.879 107.997 108.744 110.959 111.752 112.899 112.787 108.244 107.869 107.909 107.712 107.317 106.972 106.804 106.624 106.507 106.387 106.339 106.217 106.574 107.217 107.032 107.062 107.112 107.287 107.367 107.164 106.667 106.457 106.412 106.362 106.374 106.397 106.442 106.467 106.442 106.442 106.432 106.417 106.449 106.432 106.449 106.487 106.689 106.949 106.474 105.187 104.535 104.442 104.42 104.35 104.28 104.247 104.25 104.237 104.19 104.192 104.167 104.117 104.38 104.43 104.25 104.107 103.89 103.88 103.852 103.8 103.807 103.8 103.81 103.79 103.82 104.145 104.125 104.27 104.38 104.495 104.505 104.525 104.532 104.462 104.412 104.365 104.372 104.325 104.24 104.137 104.16 104.082 104.065 104.007 103.977 103.95 103.972 103.952 103.857 103.79 103.722 103.727 103.8 104.152 103.55 103.475 104.042 104.192 104.18 104.042 103.882 103.69 103.73 104.53 104.65 104.637 104.66 104.615 104.492 104.23 103.822 103.195 102.467 102.38 102.345 102.385 102.417 102.427 102.287 102.355 102.192 102.092 102.062 102.04 102.065 102.042 102.102 102.145 102.115 102.125 102.175 102.122 102.095 102.03 102.005 101.965 101.897 101.862 101.81 101.997 102.017 101.982 101.887 101.822 101.605 101.472 101.362 101.307 101.127 100.995 100.992 101.035 100.94 101.007 101.01 101.125 100.665 100.017 99.375 98.925 98.465 98.295 98.195 98.087 98.027 97.967 97.882 97.815 97.732 97.677 97.87 98.305 100.185 101.662 104.057 103.39 102.432 102.207 101.937 101.652 101.357 101.085 100.797 98.622 96.545 96.53 99.235 101.092 98.43 100.25 100.232 98.29 103.39 102.357 96.662 95.155 96.155 95.91 95.805 95.455 94.567 93.552 93.422 93.267 93.127 92.987 93.037 92.765 92.187 91.92 91.602 91.252 90.8 90.537 90.375 90.297 90.285 90.195 90.14 90.095 90.135 90.115 90.142 89.385 90.697 88.965 89.037 89.327 89.952 90.587 90.862 90.622 90.082 89.225 88.29 87.887 87.892 87.832 87.77 87.745 87.682 87.697 87.635 87.595 87.585 87.527 87.5 87.447 88.187 90.485 95.052 95.087 95.145 95.107 95.112 95.062 90.925 87.07 87.012 86.997 86.977 86.95 86.935 86.915 86.867 86.832 86.827 86.792 86.75 86.732 86.725 86.652 86.587 86.612 86.57 87.015 86.545 86.532 87.245 91.077 91.93 92.747 92.74 92.765 92.777 91.757 86.96 86.617 86.627 86.622 86.655 87.165 87.875 89.317 89.7 89.397 91.015 89.857 88.702 88.412 88.23 88.285 88.027 87.717 87.437 87.337 87.35 87.37 87.392 87.415 87.43 87.45 87.485 87.48 87.612 87.632 87.642 87.155 87.067 86.977 86.957 86.955 86.895 86.86 86.842 86.815 86.817 86.76 86.72 86.672 86.647 86.61 86.585 86.52 86.46 86.425 86.347 86.3 86.222 86.17 86.122 86.107 86.08 86.05 86.04 85.967 85.952 86.172 85.842 85.587 84.63 84.445 84.107 84.7 84.565 84.267 84.27 84.235 84.182 84.09 84.017 84.02 84.29 84.6 84.887 85.43 85.84 86.192 86.522 86.685 86.615 86.59 86.61
105.859 111.084 111.872 112.002 110.169 108.054 107.827 107.019 107.539 106.554 106.464 106.177 106.439 107.319 107.994 111.342 111.979 112.064 111.389 109.102 108.772 110.232 110.462 110.007 109.227 108.672 108.807 112.367 113.952 112.922 109.837 108.479 107.824 107.749 107.722 107.819 107.732 109.357 111.162 110.914 109.124 109.159 109.577 109.392 107.879 106.969 106.757 106.722 106.617 106.482 106.272 106.207 106.152 106.092 106.684 107.054 106.954 107.047 107.187 107.294 107.237 106.987 106.557 106.389 106.344 106.314 106.332 106.367 106.367 106.329 106.329 106.344 106.392 106.339 106.359 106.592 107.044 106.742 105.649 104.999 104.5 104.445 104.385 104.342 104.307 104.245 104.205 104.195 104.19 104.177 104.137 104.102 104.07 104.245 104.175 103.952 104.28 103.85 103.777 103.755 103.775 103.767 103.71 103.762 103.79 103.802 104.545 104.372 104.157 104.282 104.375 104.457 104.53 104.575 104.565 104.512 104.462 104.437 104.345 104.255 104.15 104.087 103.917 103.935 103.9 103.842 103.822 103.842 103.897 103.797 103.7 103.637 103.6 103.64 103.735 103.53 103.387 103.83 103.89 103.937 103.932 104.755 104.737 103.237 103.72 104.337 104.342 104.312 104.185 103.99 103.725 103.155 102.455 102.337 102.347 102.332 102.372 102.417 102.3 102.255 102.182 102.067 102.017 101.997 102.005 101.985 102.005 102.032 102.065 102.052 102.07 102.06 102.035 102.01 101.962 101.93 101.895 101.817 102.607 101.925 101.88 102.672 103.135 101.797 101.75 101.625 101.527 101.305 101.16 101.08 100.962 100.805 100.802 100.685 100.665 100.55 100.747 100.192 99.707 99.157 98.72 98.367 98.327 98.21 98.162 98.05 97.98 97.865 97.815 97.75 97.692 97.72 97.772 97.855 99.095 102.372 102.002 102.315 102.007 101.722 101.43 101.162 100.88 99.415 96.717 96.457 96.825 99.55 100.842 98.91 98.572 98.527 98.592 102.45 99.82 97.185 95.705 97.555 95.105 94.187 94.045 94.532 93.545 93.477 93.335 93.227 93.44 96.765 96.957 96.337 94.417 91.897 91.597 91.075 90.547 90.342 90.197 90.177 90.135 90.01 90.065 89.987 90.047 90.085 89.76 89.252 91.762 88.9 89.172 89.762 90.32 90.882 90.83 90.515 89.717 88.747 87.947 87.78 87.752 87.727 87.67 87.64 87.605 87.552 87.537 87.497 87.465 87.437 87.372 87.357 88.47 94.362 95.08 95.14 95.16 95.1 95.065 92.597 87.107 86.92 86.907 86.89 86.842 86.83 86.812 86.79 86.755 86.715 86.695 86.667 86.63 86.607 86.612 86.595 87.365 88.997 90.057 86.607 86.482 86.507 89.622 92.137 92.76 92.77 92.762 92.782 92.68 89.01 86.552 86.59 86.605 86.927 90.382 90.58 90.647 89.905 88.942 89.127 88.747 88.435 88.075 87.772 87.622 87.547 87.322 87.237 87.245 87.27 87.302 87.327 87.332 87.355 87.35 87.8 87.322 87.14 86.967 86.96 86.942 86.89 86.872 86.835 86.812 86.777 86.75 86.715 86.695 86.65 86.602 86.582 86.537 86.52 86.482 86.412 86.392 86.37 86.305 86.232 86.18 86.132 86.077 86.055 86.02 86.007 86.537 87.787 86.352 85.812 86.215 85.045 83.895 83.597 83.917 84.752 84.815 85.095 84.192 84.23 84.177 84.092 83.99 83.907 83.857 83.84 84.227 84.387 84.755 85.442 85.737 86.05 86.272 86.302 86.282 86.307
105.529 106.939 110.862 110.977 107.897 107.842 107.134 105.929 105.937 107.272 107.409 106.522 106.227 106.277 106.444 108.922 110.807 111.562 108.907 107.069 108.979 108.697 110.174 109.669 109.379 109.509 110.517 115.129 115.712 114.982 114.444 109.559 109.204 108.979 107.759 107.642 107.647 107.677 108.269 108.984 109.877 109.902 109.554 109.587 108.139 106.714 106.684 106.667 106.612 106.489 106.299 106.079 106.034 105.944 105.957 106.772 106.932 106.934 107.117 107.267 107.324 107.244 107.234 106.474 106.327 106.299 106.274 106.272 106.252 106.219 106.189 106.339 106.612 106.354 106.797 106.979 106.574 105.762 105.134 104.459 104.417 104.367 104.327 104.257 104.225 104.215 104.192 104.19 104.165 104.147 104.092 104.102 104.29 104.17 103.795 103.697 104.022 103.955 103.717 103.69 103.725 103.672 103.637 103.667 103.747 103.735 103.672 104.165 104.427 103.91 103.99 104.117 104.23 104.35 104.457 104.46 104.487 104.45 104.392 104.327 104.237 104.165 104.027 103.892 103.83 103.76 103.705 103.745 103.762 103.76 103.58 103.5 103.467 103.487 103.495 103.41 103.245 103.272 103.305 103.29 104.15 103.43 103.73 103.077 102.775 103.635 103.907 103.832 103.785 103.507 103.047 102.427 102.307 102.302 102.315 102.31 102.29 102.365 102.337 102.215 102.175 102.07 102.01 102.005 101.972 101.94 101.975 101.965 102.002 102.012 102.025 101.987 101.97 101.925 101.892 101.855 101.907 102.427 102.527 102.452 102.025 106.247 107.147 103.397 101.717 101.585 101.475 101.32 101.16 100.955 100.88 100.757 100.585 100.557 100.507 100.35 100.375 100.107 99.775 99.335 98.97 98.505 98.422 98.297 98.215 98.09 98.045 97.927 97.827 97.77 97.72 97.665 97.657 97.782 98.037 98.577 101.222 100.707 101.79 101.522 101.232 100.95 100.022 96.815 96.525 96.385 96.147 97.322 97.062 95.207 96.757 97.632 95.272 101.91 103.07 96.757 96.51 95.972 94.125 93.982 93.88 93.76 93.607 93.465 93.25 94.292 100.272 102.5 103.025 99.935 97.87 92.78 92 91.817 90.805 90.315 90.16 90.032 90.05 90.027 89.955 89.855 89.867 89.9 89.992 89.237 88.775 88.812 89.085 89.562 90.117 91.052 91.517 90.87 90.115 89.222 88.192 87.715 87.65 87.577 87.58 87.557 87.51 87.495 87.485 87.43 87.412 87.377 87.32 87.285 87.927 92.232 95.067 95.115 95.172 95.152 95.102 93.877 88.702 86.88 86.832 86.785 86.755 86.75 86.745 86.742 86.685 86.645 86.6 86.6 86.55 87.842 89.355 90.32 92.38 93.97 94.032 89.502 86.415 86.462 88.21 92.785 92.755 92.75 92.732 92.752 92.73 90.255 86.465 86.522 86.552 86.567 89.515 90.64 90.652 89.882 87.757 88.087 88.097 87.965 87.73 87.3 87.162 87.147 87.127 87.14 87.185 87.187 87.18 87.177 87.17 87.155 87.07 87.03 86.967 86.885 86.875 86.857 86.825 86.802 86.727 86.685 86.687 86.65 86.61 86.577 86.552 86.51 86.482 86.435 86.392 86.365 86.33 86.29 86.277 86.235 86.195 86.127 86.065 86.022 86.017 85.985 85.977 85.995 85.65 89.01 85.972 83.932 83.672 83.425 83.902 85.585 86.147 85.52 84.327 83.96 84.06 84.105 84.085 84 83.912 83.827 83.76 83.687 83.695 83.965 84.305 84.757 85.257 85.632 85.792 85.95 85.97 85.995
105.526 105.584 106.206 108.561 107.846 107.801 106.569 106.186 106.496 109.534 109.976 107.344 106.579 106.351 106.471 106.434 107.164 109.086 107.236 108.011 107.806 107.756 109.706 108.796 107.216 106.956 109.314 115.656 116.434 116.311 114.377 114.107 113.469 113.167 108.767 107.567 107.547 107.547 107.564 109.034 110.664 111.852 109.687 107.424 106.579 106.634 106.674 106.627 106.534 106.744 106.267 106.039 105.857 105.832 105.767 105.972 107.152 106.817 106.997 107.242 107.309 107.334 107.272 107.102 106.394 106.892 107.054 107.154 106.309 106.084 106.049 106.104 106.749 106.684 106.647 106.087 105.064 104.512 104.429 104.402 104.332 104.339 104.287 104.249 104.227 104.209 104.169 104.154 104.132 104.082 104.167 104.359 103.939 103.714 103.669 103.634 103.642 104.052 103.717 103.602 103.599 103.557 103.552 103.624 103.694 103.654 103.597 103.604 103.957 104.372 103.849 103.602 103.762 103.899 104.057 104.167 104.244 104.294 104.312 104.284 104.247 104.202 104.114 103.979 103.779 103.644 103.622 103.604 103.597 103.634 103.539 103.442 103.374 103.282 103.349 103.322 103.189 102.934 102.894 102.864 102.984 104.007 103.517 102.889 102.512 102.719 103.297 103.337 103.254 102.837 102.407 102.314 102.297 102.257 102.249 102.257 102.274 102.289 102.302 102.319 102.199 102.142 102.042 101.989 101.979 101.944 101.877 101.917 101.952 101.957 101.934 101.919 101.917 101.887 101.864 101.809 102.214 102.327 102.389 101.979 105.7 108.75 109.035 107.425 104.237 101.35 101.027 101.132 101.115 100.972 100.81 100.65 100.532 100.432 100.335 100.242 100.14 100.047 99.937 99.782 99.535 99.34 99.15 98.572 98.285 98.19 98.112 97.987 97.897 97.827 97.782 97.747 97.705 97.717 97.745 97.725 98.295 98.22 100.117 101.335 101.017 100.705 97.602 96.587 96.452 96.002 95.532 96.97 97.207 96.552 95.96 95.877 100.89 101.54 99.67 95.562 94.457 94.18 94.115 93.967 93.865 94.212 95.635 97.042 100.607 102.112 102.7 103.022 103.82 102.18 100.56 94.805 92.067 91.76 91.217 90.362 90.175 89.962 89.977 89.917 89.86 89.78 89.702 89.77 89.802 89.737 88.827 88.767 88.98 89.382 89.967 90.675 91.182 91.152 90.497 89.68 88.665 87.847 87.607 87.557 87.51 87.487 87.44 87.435 87.387 87.4 87.36 87.317 87.272 87.22 87.512 91.337 95.06 95.085 95.127 95.17 95.115 94.985 91.445 86.817 86.755 86.725 86.67 86.902 86.982 86.617 86.6 86.567 86.707 89.65 90.345 91.797 93.972 93.975 93.95 93.945 93.962 91.632 86.437 86.417 87.19 91.965 92.742 92.697 92.592 92.692 92.712 92.132 86.417 86.452 86.497 86.552 88.13 89.75 89.105 88.417 87.81 87.787 87.565 87.47 87.465 87.055 87.005 87.03 87.045 87.072 87.077 87.065 87.045 87.052 87.022 86.997 86.945 86.9 86.862 86.81 86.77 86.715 86.702 86.675 86.625 86.575 86.537 86.477 86.472 86.44 86.425 86.387 86.362 86.31 86.275 86.225 86.225 86.162 86.145 86.11 86.07 86.027 85.995 85.977 85.78 85.422 85.045 84.215 84.882 88.897 90.19 85.085 84.19 84.075 85.102 84.29 83.917 84.655 83.782 83.885 83.935 83.952 83.94 83.892 83.827 83.745 83.65 83.572 83.515 83.59 83.927 84.262 84.64 85.01 85.38 85.65 85.715 85.77
105.479 105.849 106.774 105.844 107.076 106.584 105.801 106.721 109.124 111.059 111.234 110.344 108.009 107.264 107.426 107.099 106.416 106.501 106.659 106.984 107.656 108.019 108.669 108.421 106.934 106.716 110.486 117.416 118.179 115.396 114.727 113.902 110.832 112.112 111.867 109.099 107.449 107.397 107.357 107.794 111.974 111.989 109.977 106.482 106.539 106.557 106.549 106.542 106.457 106.322 106.152 106.054 105.849 105.702 105.639 105.574 106.182 106.794 106.809 106.977 107.112 107.222 107.322 107.357 107.462 107.642 107.269 107.509 107.544 105.969 105.847 105.729 106.199 106.344 106.282 105.347 104.512 104.407 104.394 104.324 104.257 104.264 104.207 104.239 104.204 104.149 104.149 104.112 104.112 104.254 104.179 103.744 103.684 103.627 103.612 103.562 103.539 103.564 103.624 103.539 103.514 103.489 103.494 103.572 103.584 103.612 104.032 103.552 103.484 103.599 104.254 104.049 103.489 103.427 103.589 103.717 103.839 103.942 104.032 104.069 104.109 104.112 104.057 103.967 103.797 103.667 103.549 103.437 103.434 103.422 103.417 103.299 103.222 103.157 103.204 103.219 103.199 102.862 102.767 102.77 102.742 103.247 102.879 102.617 102.629 102.557 102.684 102.817 102.662 102.364 102.292 102.282 102.249 102.249 102.194 102.244 102.252 102.274 102.262 102.227 102.184 102.207 102.044 101.979 101.967 102.112 101.974 101.914 101.91 101.907 101.877 101.892 101.867 101.867 101.804 101.814 101.802 102.382 102.512 105.257 108.612 109.68 110.107 109.172 107.95 105.045 102.547 100.197 101.002 100.905 100.81 100.615 100.49 100.355 100.277 100.115 99.997 99.927 99.777 99.692 99.61 99.477 99.407 99.14 98.68 98.247 98.177 98.062 97.965 97.95 97.835 97.842 97.78 97.732 97.657 97.647 97.655 97.675 97.87 99.307 99.902 98.707 96.637 96.445 96.092 96.135 95.21 95.76 97.045 98.515 96.97 98.9 96.677 95.71 95.012 94.48 94.297 94.187 94.1 93.852 93.602 96.347 101.322 102.347 102.722 103.332 103.977 103.962 103.822 102.925 101.42 96.34 92.757 91.682 91.525 90.487 90.1 90.002 89.86 89.772 89.78 89.7 89.627 89.64 89.667 90.562 89.707 88.837 88.975 89.31 89.887 90.552 91.227 91.5 90.962 90.09 89.187 88.18 87.632 87.517 87.47 87.4 87.367 87.382 87.382 87.342 87.31 87.29 87.25 87.175 87.225 88.822 94.862 95.07 95.14 95.197 94.587 94.032 92.16 86.772 86.685 86.662 87.557 87.995 86.98 86.662 89.387 91.102 93.255 93.975 93.967 93.995 94.017 93.96 93.955 93.95 93.98 92.457 86.442 86.38 86.612 89.425 92.34 92.69 92.66 92.622 92.67 92.197 86.465 86.342 86.395 86.49 86.535 86.745 87.162 87.822 87.5 87.312 87.167 86.982 86.912 86.925 86.96 86.952 86.965 86.957 86.975 86.955 86.952 86.925 86.89 86.865 86.812 86.77 86.752 86.715 86.67 86.635 86.582 86.53 86.492 86.46 86.432 86.36 86.355 86.352 86.287 86.277 86.252 86.177 86.17 86.127 86.08 86.042 86.035 85.992 85.937 85.847 85.122 84.815 84.092 84.9 86.34 89.66 95.12 99.827 103.92 97.042 84.38 83.482 83.852 85.152 85.72 85.315 84.187 83.782 83.845 83.865 83.842 83.792 83.737 83.637 83.552 83.467 83.415 83.342 83.507 83.895 84.257 84.502 84.872 85.145 85.555 85.625
105.364 106.386 105.806 106.444 106.886 106.089 105.781 107.266 108.174 109.456 110.899 111.221 110.674 111.414 111.444 108.739 107.189 108.801 108.546 106.721 106.456 108.409 106.679 106.669 106.931 107.076 111.279 116.799 118.659 115.126 113.759 111.124 112.129 112.134 112.224 110.154 107.547 107.252 107.164 107.082 107.624 109.567 109.467 108.977 109.554 110.557 106.792 106.949 106.407 106.222 106.099 106.019 105.832 105.614 105.529 105.449 105.429 106.337 106.927 106.702 106.837 107.144 107.522 107.282 107.204 108.299 107.042 106.927 107.392 106.729 105.699 105.517 105.382 105.532 105.702 105.342 104.842 104.354 104.274 104.272 104.259 104.229 104.207 104.192 104.149 104.112 104.104 104.092 104.119 103.969 103.707 103.652 103.629 103.567 103.577 103.519 103.459 103.402 103.697 103.624 103.442 103.422 103.382 103.437 103.509 103.572 103.594 103.619 103.579 103.484 103.379 103.777 104.257 104.154 103.489 103.272 103.362 103.482 103.609 103.719 103.792 103.899 103.914 103.854 103.747 103.659 103.564 103.379 103.334 103.292 103.314 103.237 103.169 103.044 103.042 103.062 103.309 102.929 102.799 102.927 102.644 102.694 102.794 102.779 102.684 102.602 102.487 102.382 102.339 102.334 102.279 102.252 102.224 102.207 102.182 102.227 102.229 102.204 102.242 102.202 102.197 102.444 102.147 102.009 101.994 103.064 102.122 101.909 101.912 101.869 101.877 101.837 101.864 101.794 101.794 101.844 101.874 101.952 104.729 108.497 109.552 110.602 111.072 110.257 109.335 108.422 107.057 103.935 100.075 100.855 100.712 100.622 100.47 100.32 100.19 100.105 99.987 99.852 99.742 99.59 99.492 99.322 99.247 99.212 99.07 98.8 98.672 98.21 98.34 98.15 97.972 97.885 97.837 97.827 97.76 97.697 97.635 97.57 97.615 97.507 97.87 96.962 96.45 96.197 95.797 95.92 95.165 94.982 95.315 95.412 96.152 95.717 94.98 94.862 94.617 94.472 94.342 94.22 94.025 93.97 100.027 101.452 102.89 103.372 103.967 104.15 104.06 104.095 104.337 103.732 102.54 99.775 93.977 91.74 91.592 91.182 90.21 89.96 89.792 89.675 89.682 89.635 89.582 89.512 89.575 89.89 89.995 89.032 89.032 89.247 89.672 90.387 91.23 92.035 91.295 90.452 89.607 88.657 87.822 87.482 87.39 87.4 87.35 87.302 87.302 87.247 87.235 87.192 87.15 87.127 87.09 88.142 91.712 93.65 95.082 95.132 94.602 93.975 94.007 88.04 86.682 86.67 87.122 90.885 91.252 93.14 93.992 93.965 93.952 93.942 93.982 93.965 93.97 93.95 93.932 93.962 93.962 92.982 89.357 86.337 86.37 89.45 92.705 92.67 92.665 92.745 92.742 92.715 90.325 86.265 86.347 86.41 86.452 86.617 86.91 87.117 87.035 86.87 86.79 86.825 86.832 86.862 86.87 86.87 86.867 86.887 86.887 86.827 86.822 86.802 86.757 86.75 86.692 86.647 86.625 86.595 86.527 86.5 86.425 86.402 86.372 86.335 86.327 86.282 86.27 86.217 86.2 86.16 86.13 86.115 86.062 86.037 85.987 85.957 85.93 85.445 84.592 84.137 84.905 87.587 92.02 96.652 99.69 104.54 106.985 108.72 108.807 108.017 83.995 83.942 85.065 85.272 83.847 84.62 84.54 83.687 83.772 83.797 83.797 83.822 83.872 83.62 83.475 83.387 83.295 83.225 83.175 83.457 83.757 84.04 84.355 84.755 85.242 85.552
105.321 105.541 105.789 105.631 107.164 106.201 106.636 110.206 109.736 110.264 110.714 110.769 111.466 112.184 112.361 111.639 111.299 112.231 110.346 107.904 106.399 106.451 106.476 106.519 106.481 106.909 111.709 114.621 117.381 114.024 110.394 108.382 107.519 109.047 109.962 110.969 108.549 107.062 106.974 107.497 109.332 109.504 109.507 110.469 112.464 112.474 109.819 111.067 111.562 106.134 106.032 106.139 105.779 105.564 105.407 105.352 105.264 105.294 106.694 106.484 106.592 106.884 107.279 107.024 108.839 107.974 107.167 106.767 106.837 107.034 105.784 105.374 105.179 104.972 104.857 104.767 104.527 104.254 104.212 104.232 104.234 104.182 104.182 104.154 104.119 104.119 104.239 104.129 103.732 103.694 103.639 103.627 103.577 103.554 103.494 103.467 103.407 103.382 103.429 103.774 103.464 103.354 103.287 103.289 103.382 103.452 103.559 103.669 103.664 103.584 103.454 103.307 103.177 103.189 103.827 103.784 103.429 103.132 103.199 103.322 103.414 103.519 103.617 103.662 103.642 103.599 103.519 103.342 103.274 103.227 103.204 103.109 103.042 102.959 102.887 102.887 102.912 102.829 102.709 102.732 102.627 102.672 102.889 103.472 102.772 102.479 102.424 102.342 102.187 102.292 102.312 102.217 102.187 102.164 102.139 102.167 102.212 102.207 102.194 102.147 102.337 102.749 102.644 102.042 102.262 102.414 101.947 101.914 101.902 101.859 101.842 101.832 101.809 101.804 101.832 101.859 101.959 103.622 108.244 109.329 110.392 111.302 111.977 111.327 110.387 109.46 108.55 107.975 104.232 100.045 100.602 100.42 100.385 100.335 100.19 100.04 99.932 99.787 99.67 99.505 99.412 99.317 99.152 99.042 98.96 98.91 98.925 98.552 98.517 98.187 98.047 97.985 97.927 97.94 97.862 97.752 97.7 97.615 97.627 97.402 96.965 96.615 96.32 95.97 95.627 95.367 95.177 95.02 94.895 94.78 94.915 95.02 94.817 94.747 94.657 94.465 94.45 94.472 93.847 93.45 96.73 103.337 103.907 104.285 104.035 103.47 102.825 102.85 103.692 104.197 103.175 101.215 97.032 93.237 91.5 91.237 90.317 89.93 89.827 89.645 89.59 89.592 89.547 89.472 89.412 89.455 89.972 89.327 89.127 89.177 89.575 90.252 91.19 91.69 91.477 90.735 89.917 89.075 88.087 87.532 87.365 87.332 87.315 87.257 87.252 87.215 87.195 87.16 87.13 87.112 87.037 87.837 90.322 95.107 95.115 95.172 94.455 94.045 94.02 91.862 91.885 92.477 93.247 93.925 93.947 93.98 93.985 93.965 93.975 93.972 93.98 93.985 93.985 93.98 93.94 93.99 93.98 93.965 88.972 86.317 86.32 86.96 92.05 92.697 92.822 92.742 92.777 92.74 91.587 86.372 86.332 86.38 86.442 86.52 86.63 86.727 86.702 86.705 86.755 86.762 86.787 86.792 86.8 86.805 86.78 86.767 86.727 86.752 86.685 86.655 86.642 86.637 86.605 86.557 86.525 86.482 86.412 86.38 86.337 86.312 86.277 86.267 86.212 86.185 86.152 86.1 86.082 86.055 86.037 85.997 86.005 85.7 85.257 84.547 84.24 83.937 83.962 84.812 95.27 100.522 105.035 107.675 108.8 108.82 108.83 108.787 108.78 108.785 90.65 84.03 83.492 83.712 83.992 84.342 84.055 83.592 83.69 83.782 83.852 83.705 83.625 83.567 83.505 83.305 83.2 83.135 83.102 83.062 83.185 83.592 84.065 84.437 84.92 85.805
105.304 105.244 105.114 105.536 105.674 106.249 110.386 110.219 109.319 110.979 111.531 111.266 112.039 113.099 112.249 110.421 109.619 112.889 111.751 106.206 106.266 106.306 106.419 106.664 106.984 109.426 113.771 114.969 115.149 110.884 108.382 108.114 107.957 108.317 109.004 109.269 109.099 108.504 108.357 108.514 109.539 107.997 108.962 108.214 111.209 112.497 112.424 112.522 113.062 111.489 106.069 105.914 105.764 105.599 105.359 105.207 105.169 105.084 105.317 106.329 106.479 106.552 106.732 106.749 106.759 106.814 106.724 106.684 106.542 106.357 106.034 105.377 105.034 104.797 104.582 104.379 104.234 104.182 104.182 104.164 104.234 104.142 104.092 104.099 104.164 104.289 103.949 103.717 103.689 103.674 103.647 103.529 103.512 103.464 103.462 103.392 103.374 103.332 103.252 103.402 103.577 103.299 103.224 103.177 103.234 103.322 103.417 103.514 103.572 103.572 103.517 103.437 103.269 103.129 102.944 103.257 103.447 103.582 103.037 102.922 103.017 103.087 103.172 103.314 103.404 103.447 103.432 103.324 103.197 103.067 103.109 102.984 102.977 102.852 102.842 102.709 102.749 102.824 103.024 102.579 102.527 102.524 102.514 103.319 102.844 102.627 102.577 102.654 102.312 102.145 102.282 102.227 102.207 102.174 102.162 102.162 102.192 102.187 102.147 102.149 102.919 102.444 102.557 104.182 102.974 102.024 101.997 102.199 102.269 101.882 101.857 101.862 101.827 102.292 102.042 101.887 102.522 102.744 107.212 108.867 109.815 110.71 111.632 112.07 111.42 110.502 109.582 108.685 107.642 101.47 99.577 100.152 100.08 99.98 100.017 100.047 99.957 99.785 99.59 99.462 99.335 99.205 99.11 99.032 98.91 98.797 98.687 98.565 98.415 98.175 98.087 98.007 98.042 98.04 97.967 97.837 97.775 97.685 97.627 97.177 96.777 96.315 95.937 95.607 95.47 95.36 95.235 95.122 94.967 94.987 94.93 94.87 94.787 94.742 94.642 94.407 94.392 94.35 93.98 93.812 95.415 103.502 104.022 103.465 102.852 102.207 101.402 100.805 103.035 104.2 103.757 102.715 101.612 96.652 91.812 91.247 90.975 89.932 89.77 89.642 89.517 89.5 89.435 89.395 89.327 89.36 89.415 89.502 89.13 89.172 89.49 90.08 91.06 92.892 91.577 90.982 90.22 89.452 88.507 87.727 87.37 87.277 87.26 87.212 87.182 87.177 87.145 87.122 87.08 87.07 86.977 87.215 88.435 94.445 95.097 95.117 95.182 94.517 94.057 94.077 94.027 93.982 93.94 93.902 93.93 93.952 93.967 93.96 93.935 93.942 93.972 94.042 94.04 93.98 93.965 93.97 94.22 94.112 93.617 86.695 86.232 86.472 90.157 92.732 92.755 91.365 90.415 87.752 86.627 86.76 86.442 86.375 86.425 86.475 86.512 86.567 86.607 86.64 86.712 86.73 86.737 86.712 86.695 86.682 86.68 86.647 86.622 86.602 86.59 86.565 86.555 86.522 86.495 86.46 86.417 86.367 86.34 86.302 86.252 86.21 86.167 86.127 86.105 86.082 86.045 86.037 86.832 86.125 85.922 84.982 84.692 84.027 83.952 83.962 83.977 83.967 91.96 95.905 106.065 108.82 108.815 108.8 108.802 108.782 108.785 108.785 108.792 108.757 102.487 83.955 84.267 84.155 83.25 83.342 83.437 83.55 83.652 83.947 83.797 83.642 83.545 83.46 83.417 83.28 83.1 83.042 82.967 82.942 82.955 83.172 83.747 84.42 84.685 85.687
105.119 105.199 104.424 104.456 106.084 110.389 110.956 110.326 107.739 109.896 111.201 111.961 112.921 112.401 111.286 108.191 108.409 111.314 110.621 106.034 105.999 106.156 106.614 107.361 107.906 109.901 113.921 115.741 114.846 112.904 108.604 107.344 108.154 107.399 107.709 108.594 109.464 109.397 108.347 108.514 107.862 106.397 106.502 106.317 106.882 110.437 112.684 113.094 113.127 112.594 108.102 105.867 105.712 105.457 105.257 105.127 105.022 105.002 104.937 105.492 106.219 106.367 106.482 106.762 108.447 107.072 106.494 106.462 106.404 106.297 106.174 105.597 105.189 104.679 104.442 104.242 104.139 104.124 104.092 104.142 104.174 104.094 104.084 104.222 104.194 103.854 103.692 103.682 103.647 103.597 103.554 103.477 103.447 103.402 103.399 103.354 103.309 103.239 103.182 103.139 103.249 103.274 103.172 103.077 103.047 103.139 103.174 103.169 103.232 103.269 103.359 103.327 103.247 103.222 103.037 102.862 102.732 102.937 103.284 103.829 104.182 103.624 102.814 102.934 103.047 103.184 103.289 103.297 103.207 103.039 102.989 102.892 102.902 102.824 102.687 102.587 102.579 102.604 102.619 102.474 102.384 102.347 102.457 102.542 102.559 103.557 102.974 103.097 102.577 102.172 102.119 102.122 102.217 102.184 102.152 102.177 102.189 102.174 102.212 102.149 102.207 102.404 104.522 105.377 104.982 102.777 102.012 102.142 102.199 101.914 101.882 101.879 101.879 102.112 102.219 102.012 102.257 101.977 102.084 107.402 108.745 109.657 110.585 111.487 112.137 111.58 110.667 109.742 108.817 106.74 102.505 99.652 99.765 99.775 99.837 99.882 99.857 99.727 99.577 99.422 99.3 99.18 99.02 98.932 98.815 98.747 98.657 98.505 98.362 98.2 98.107 98.05 98.132 98.105 98.04 97.95 97.85 97.702 97.445 96.91 96.35 95.772 95.455 95.422 95.395 95.317 95.202 95.147 95.07 95.052 94.985 94.867 94.76 94.792 95.285 97.212 94.79 94.482 94.007 93.645 93.37 97.782 102.857 102.24 99.73 99.217 94.597 98.272 102.245 103.632 104.175 103.285 102.212 97.89 92.735 91.23 90.905 90.157 89.732 89.62 89.452 89.407 89.365 89.305 89.252 89.28 89.34 89.417 89.257 89.227 89.405 89.815 90.757 91.792 91.637 91.205 90.462 89.74 88.922 87.97 87.45 87.245 87.207 87.182 87.117 87.147 87.097 87.09 87.012 86.98 86.92 86.885 88.122 92.335 92.735 92.362 93.792 94.055 94.057 94.065 94.027 93.99 93.965 93.96 93.987 93.97 93.995 93.987 93.945 93.942 93.937 93.96 94.01 94.012 93.98 94.062 94.11 93.997 93.985 89.28 86.215 86.227 89.322 88.127 87.66 86.545 86.277 86.272 86.34 86.452 86.46 86.355 86.395 86.442 86.475 86.517 86.53 86.597 86.692 86.617 86.6 86.625 86.61 86.587 86.58 86.535 86.515 86.515 86.482 86.465 86.445 86.432 86.392 86.345 86.287 86.255 86.24 86.197 86.137 86.112 86.07 86.025 85.985 85.977 85.965 86.667 88.76 84.862 83.942 83.945 83.96 85.432 84.272 84.96 102.972 99.947 107.54 108.812 108.822 108.812 108.797 108.795 108.772 108.772 108.762 108.755 108.76 108.762 108.465 85.02 83.535 83.137 83.195 83.277 83.355 83.51 84.672 86.06 83.695 83.607 83.44 83.347 83.292 83.205 83.042 82.895 82.842 82.84 82.8 82.907 83.315 83.697 85.085 84.637
104.821 104.679 104.364 104.631 110.974 111.366 110.931 110.786 110.429 110.569 111.709 112.594 113.291 111.384 107.021 106.141 106.019 106.199 105.181 105.404 105.641 105.851 106.094 106.774 107.419 108.641 112.924 121.464 119.459 112.321 107.527 106.729 106.534 106.487 106.424 108.082 108.264 108.187 107.669 107.517 106.347 106.297 106.302 106.299 106.257 107.564 111.939 113.054 112.527 109.777 106.389 106.684 105.324 105.172 105.149 105.132 104.949 104.839 104.874 104.722 105.457 106.824 106.192 106.307 107.897 106.382 106.257 106.222 106.167 106.247 106.469 105.372 105.162 104.907 104.419 104.127 104.044 104.032 104.034 104.114 104.162 104.244 104.414 104.014 103.717 103.682 103.637 103.589 103.577 103.529 103.502 103.457 103.392 103.387 103.347 103.312 103.229 103.259 103.142 103.034 103.004 103.244 103.122 103.024 102.934 102.884 103.017 102.942 102.889 102.879 102.937 102.944 102.919 102.939 102.842 102.737 102.649 102.577 102.502 102.584 103.162 104.857 104.597 103.432 102.949 102.924 103.057 103.162 103.172 103.062 102.887 102.849 102.814 102.717 102.607 102.504 102.424 102.477 102.479 102.507 102.234 102.202 102.349 102.457 102.802 103.657 103.332 103.367 102.964 102.912 102.257 102.039 102.157 102.234 102.137 102.149 102.164 102.204 102.257 102.204 102.417 104.357 105.374 105.992 105.769 105.167 103.669 102.129 101.994 101.964 101.952 101.907 101.914 101.91 101.972 102.304 102.089 101.947 103.122 107.917 108.515 109.13 109.805 110.482 111.347 112.032 111.74 110.795 109.87 108.965 107.63 102.502 99.522 99.552 99.662 99.84 99.692 99.612 99.522 99.397 99.307 99.16 99.042 98.937 98.832 98.695 98.567 98.457 98.37 98.195 98.06 98.012 98.045 98.05 98.057 97.93 97.852 97.587 97.095 96.65 95.98 95.572 95.505 95.472 95.38 95.287 95.222 95.182 95.14 95.085 94.96 94.767 96.392 98.827 100.615 101.285 95.785 94.2 94.162 93.472 93.38 96.712 99.512 97.9 93.887 94.322 93.742 96.452 100.937 103.022 104.082 103.752 102.522 99.852 93.94 91.372 90.97 90.715 89.897 89.625 89.442 89.347 89.305 89.285 89.167 89.152 89.175 89.16 89.442 91.627 89.592 89.715 90.272 91.135 93.025 91.397 90.707 89.93 89.205 88.39 87.615 87.262 87.17 87.13 87.102 87.097 87.077 87.032 86.985 86.94 86.922 86.84 87.025 89.127 86.762 87.47 92.542 94.055 94.017 94.022 94.037 94.005 93.97 93.952 93.95 93.972 93.98 93.977 93.977 93.95 93.93 93.987 93.975 93.967 93.955 94.11 94.177 94.025 94.017 90.805 86.317 86.315 86.232 86.26 86.27 86.275 86.275 86.27 86.397 86.42 86.322 86.31 86.32 86.392 86.425 86.46 86.45 86.572 86.602 86.537 86.517 86.535 86.517 86.512 86.482 86.452 86.43 86.435 86.392 86.367 86.362 86.337 86.307 86.247 86.205 86.15 86.102 86.092 86.032 86.002 85.942 85.907 85.835 85.252 84.295 84.225 87.342 88.015 85.535 86.977 86.055 96.475 103.787 105.502 108.83 108.777 108.79 108.77 108.79 108.79 108.772 108.782 108.76 108.782 108.75 108.75 108.757 108.76 108.757 94.842 83.642 83.117 83.165 83.22 83.355 83.47 83.63 86.705 83.632 83.537 83.38 83.205 83.085 82.962 82.815 82.757 82.695 82.67 82.677 82.705 83.12 83.335 83.892 84.225
104.546 104.409 104.349 108.714 112.156 112.051 111.509 111.074 110.876 111.546 112.471 112.011 111.294 107.331 104.954 105.231 104.934 104.806 104.916 105.109 105.336 105.571 105.806 106.046 106.584 110.146 114.606 123.774 122.029 116.299 106.697 106.407 106.347 106.299 106.262 106.272 107.344 108.484 107.809 106.879 106.149 106.104 106.137 106.152 106.079 106.004 108.117 112.119 108.507 105.877 106.087 105.382 105.017 105.037 105.029 105.049 104.902 104.744 104.712 104.637 104.602 105.307 105.987 106.269 106.984 105.954 105.974 105.987 105.892 105.754 105.784 105.294 104.852 104.952 104.412 104.002 103.969 103.964 104.182 104.127 104.174 104.222 103.807 103.679 103.652 103.629 103.569 103.509 103.507 103.472 103.402 103.412 103.379 103.349 103.277 103.269 103.424 103.332 103.027 102.949 102.877 102.917 103.029 102.934 102.832 102.769 102.717 102.654 102.612 102.607 102.562 102.757 102.702 102.527 102.489 102.447 102.407 102.339 102.234 102.124 102.102 102.189 103.122 104.302 104.524 104.327 102.984 102.942 103.022 103.029 102.879 102.777 102.709 102.609 102.567 102.449 102.327 102.282 102.319 102.712 102.269 102.052 102.174 102.184 102.297 102.857 103.582 104.612 102.802 102.962 102.699 102.147 102.007 102.184 102.192 102.129 102.152 102.227 102.167 102.144 102.717 104.657 105.532 106.094 106.337 105.844 105.582 106.509 103.077 102.047 102.052 101.987 101.967 101.972 102.002 102.77 101.957 104.417 107.309 108.407 108.982 109.537 109.932 109.707 110.307 111.24 112.007 111.762 110.895 110.01 108.98 107.327 102.612 99.46 99.565 99.617 100.185 99.972 99.475 99.405 99.32 99.277 99.262 99.112 98.97 98.727 98.517 98.357 98.27 98.152 97.985 97.877 97.942 97.932 98.255 97.85 97.647 97.26 96.81 96.21 95.787 95.672 95.595 95.515 95.377 95.305 95.245 95.192 95.17 95.157 96.69 99.457 100.817 101.532 101.517 101.055 97.067 93.832 94.44 93.522 93.387 93.34 93.26 93.282 93.58 93.792 93.33 94.577 98.24 101.982 103.655 104.285 102.427 95.125 93.242 92.455 91.002 90.84 90.352 89.64 89.532 89.25 89.222 89.22 89.097 89.102 89.045 89.935 90.21 90.64 89.825 89.62 90.03 90.732 92.077 91.5 91.035 90.17 89.437 88.757 87.987 87.357 87.135 87.112 87.08 87.062 87.017 87.017 86.945 86.895 86.892 86.82 86.757 86.735 86.727 87.132 91.212 94.042 94.01 94.03 94.015 94.162 94.132 93.94 93.935 93.965 93.99 94.027 93.957 93.982 94.02 94.155 93.965 93.97 94 93.95 90.577 90.057 86.49 86.362 86.207 86.18 86.185 86.217 86.245 86.255 86.272 86.24 86.275 86.257 86.27 86.28 86.322 86.322 86.355 86.352 86.365 86.435 86.517 86.46 86.432 86.44 86.447 86.46 86.397 86.38 86.36 86.317 86.317 86.29 86.252 86.225 86.187 86.175 86.13 86.06 86.022 85.977 85.965 85.847 85.187 84.337 84.032 83.97 83.965 85.412 89.465 92.022 94.77 106.972 106.592 108.812 108.802 108.8 108.79 108.777 108.765 108.767 108.772 108.765 108.775 108.755 108.745 108.735 108.727 108.74 108.732 108.757 108.757 101.327 83.945 83.157 83.135 83.187 83.317 83.675 84.5 86.34 83.915 83.427 83.212 82.982 82.722 82.627 82.582 82.557 82.53 82.515 82.525 82.54 82.967 84.752 83.42 83.86
104.459 104.319 107.299 111.676 112.539 112.739 112.236 111.574 111.441 112.251 112.799 112.046 110.804 104.976 105.556 105.286 104.934 104.704 104.776 104.901 105.084 105.296 105.546 105.721 105.854 106.491 110.366 116.969 121.681 117.681 108.242 107.354 107.989 106.202 106.047 106.024 105.984 108.462 108.362 107.582 106.007 105.894 105.922 105.969 105.854 105.772 105.692 106.222 105.987 106.369 105.827 104.917 104.942 104.957 104.957 104.972 104.902 104.762 104.587 104.524 104.444 104.487 105.454 105.754 105.652 105.872 105.749 105.729 105.642 105.642 105.574 105.237 104.379 104.139 104.047 103.927 103.867 103.854 104.347 104.162 103.909 103.697 103.664 103.617 103.567 103.549 103.517 103.472 103.444 103.399 103.394 103.367 103.327 103.279 103.299 103.489 103.204 102.914 102.882 102.899 102.752 102.662 102.827 102.939 102.739 102.697 102.647 102.602 102.529 102.487 102.419 102.382 102.344 102.319 102.269 102.234 102.139 102.039 101.914 101.832 101.727 101.712 101.804 101.984 102.982 105.564 104.512 102.892 102.824 102.894 102.889 102.727 102.592 102.544 102.479 102.392 102.249 102.132 102.139 102.244 102.414 101.892 101.869 102.007 102.104 102.219 102.837 103.799 103.802 102.404 102.414 102.264 102.057 102.017 102.112 102.079 102.112 102.127 102.112 102.134 102.177 102.789 104.472 105.512 106.067 106.579 107.767 108.704 107.697 103.777 102.489 102.022 101.982 102.042 102.054 101.997 103.679 107.802 108.362 108.894 109.47 109.877 109.61 109.052 109.262 110.172 111.087 111.697 110.827 109.8 108.775 104.765 99.725 99.48 99.66 99.572 99.497 99.507 99.457 99.395 99.347 99.38 99.602 99.197 99.112 98.807 98.537 98.347 98.147 98.035 97.917 97.822 97.79 97.772 97.792 97.66 99.54 97.275 96.627 96.057 95.872 95.765 95.665 95.56 95.512 95.357 95.15 95.682 98.33 100.1 101.525 102.232 101.735 100.985 98.895 97.177 94.637 93.955 93.662 93.435 93.342 93.222 93.137 93.162 93.902 93.86 93.512 93.3 93.27 99.732 102.65 98.452 95.582 93.262 92.812 92.152 90.992 90.745 91.062 89.785 89.462 89.267 89.137 89.097 89.092 89.06 88.935 88.98 88.995 89.297 89.482 89.577 89.91 90.385 91.12 91.477 91.225 90.522 89.752 89.072 88.365 87.63 87.21 87.092 87.055 87.035 86.992 86.957 86.93 86.905 86.85 86.792 86.76 86.722 86.692 86.765 91.38 93.895 93.997 94.007 94.037 94.065 94.285 93.945 93.917 93.955 93.967 93.982 94 93.967 93.945 93.95 94 92.825 88.142 87.917 86.33 86.31 86.315 86.282 86.22 86.145 86.142 86.172 86.187 86.2 86.225 86.227 86.232 86.237 86.282 86.275 86.28 86.262 86.24 86.272 86.295 86.287 86.35 86.332 86.335 86.35 86.307 86.28 86.31 86.287 86.265 86.245 86.2 86.185 86.16 86.107 86.082 86.05 86.03 85.975 85.62 84.72 84.252 83.972 83.99 83.992 83.972 87.402 90.67 93.24 108.515 108.397 108.812 108.787 108.797 108.775 108.785 108.767 108.77 108.772 108.767 108.757 108.752 108.735 108.872 109.54 108.905 108.72 108.737 108.72 108.747 108.757 108.742 108.772 86.732 83.527 83.307 83.957 83.71 84.797 85.41 83.97 83.712 83.21 82.945 82.677 82.5 82.422 82.407 82.382 82.382 82.355 82.377 82.39 82.437 83.267 83.715 83.617
104.389 104.349 105.186 106.821 111.661 112.461 113.391 112.051 112.116 112.791 112.221 111.351 110.679 109.821 105.546 105.156 105.224 104.646 104.701 104.779 104.859 105.051 105.314 105.504 105.684 105.769 105.714 110.806 118.549 116.254 114.362 110.769 110.294 107.939 105.784 105.837 105.757 105.764 108.032 107.982 106.609 105.834 105.687 105.739 105.694 105.629 105.697 107.497 107.084 107.254 105.162 104.842 104.869 104.899 104.864 104.862 104.807 104.709 104.552 104.434 104.354 104.264 104.454 105.342 105.489 105.504 105.517 105.477 105.482 105.299 105.387 105.184 104.307 103.992 103.939 103.847 103.824 103.754 104.072 103.889 103.657 103.639 103.582 103.532 103.502 103.469 103.444 103.409 103.407 103.379 103.364 103.307 103.269 103.457 103.394 102.989 102.884 102.834 102.804 102.689 102.629 102.589 102.597 102.967 102.677 102.602 102.587 102.507 102.504 102.414 102.374 102.339 102.282 102.237 102.194 102.154 102.024 101.904 101.749 101.617 101.492 101.369 101.387 101.397 101.897 102.207 105.424 104.549 102.637 102.694 102.774 102.739 102.542 102.459 102.382 102.329 102.154 102.104 101.957 102.007 102.072 102.362 101.619 101.704 101.804 101.957 102.212 102.549 102.542 102.364 102.457 102.277 102.112 101.967 102.004 102.017 102.027 102.02 102.054 102.094 102.119 102.142 102.389 104.217 105.787 107.889 108.822 109.699 109.144 108.227 104.91 102.482 102.167 102.082 102.162 102.754 107.507 108.289 108.824 109.387 109.862 109.677 109.137 108.557 108.317 109.105 110.032 110.71 109.955 108.885 106.222 100.65 99.47 99.545 99.89 100.06 99.472 99.462 99.375 99.7 99.82 99.587 100.9 101.267 99.042 98.877 98.582 98.41 98.155 97.927 97.885 97.797 97.645 97.617 97.677 100.297 101.092 99.265 97 96.14 95.995 95.872 95.715 95.617 95.762 95.357 97.91 100.455 101.69 102.382 102.337 101.722 100.29 97.44 94.535 94.52 94.507 94.87 93.52 93.44 93.275 93.247 93.077 93.037 93.35 93.767 93.092 93.165 93.197 96.245 96.187 94.157 93.137 92.655 91.682 91.307 91.067 90.83 90.962 90.29 89.517 89.297 89.13 89.075 89.037 88.99 88.907 88.812 88.885 88.982 89.82 89.517 89.852 90.265 90.962 91.995 91.25 90.845 90.17 89.42 88.715 88.015 87.382 87.082 87.03 87.057 86.985 86.937 86.897 86.9 86.865 86.822 86.792 86.727 86.707 86.7 86.78 91.812 93.97 93.995 93.997 94.005 94 93.972 93.932 93.937 93.977 94 94.007 93.165 90.767 90.13 88.417 86.525 86.385 86.362 86.347 86.337 86.307 86.295 86.22 86.132 86.142 86.155 86.147 86.165 86.19 86.195 86.207 86.222 86.242 86.227 86.242 86.195 86.195 86.177 86.215 86.262 86.245 86.24 86.245 86.225 86.2 86.197 86.19 86.167 86.142 86.125 86.102 86.077 86.04 86.035 85.885 85.622 84.81 84.107 83.97 84.005 83.995 83.985 89.962 92.25 95.682 105.707 108.797 108.805 108.795 108.797 108.78 108.757 108.762 108.777 108.772 108.76 108.76 108.757 108.76 108.76 108.69 108.7 108.957 109.63 109.237 108.725 108.735 108.742 108.777 108.757 108.772 108.765 95.505 83.76 84.11 84.245 83.965 84.695 84.22 83.507 83.252 82.955 82.717 82.532 82.417 82.35 82.307 82.675 82.78 82.22 82.227 82.247 82.312 82.905 84.667 84.865
104.219 104.251 104.309 104.271 107.031 109.546 112.226 112.729 112.809 112.461 111.519 111.056 111.014 110.599 105.686 105.514 106.236 105.036 104.619 104.699 104.761 104.879 105.121 105.419 105.601 105.626 105.569 106.531 111.954 112.029 113.164 112.009 109.434 107.879 106.407 105.584 105.522 105.432 105.707 107.182 107.684 107.182 105.847 105.514 105.514 105.447 105.514 106.699 107.572 107.512 107.067 104.814 104.804 104.977 106.697 105.134 104.679 104.662 104.542 104.324 104.234 104.177 104.129 104.417 105.222 105.267 105.279 105.257 105.154 105.082 105.157 105.194 104.262 103.954 103.879 103.794 103.724 103.639 103.839 103.967 103.594 103.544 103.494 103.462 103.452 103.434 103.389 103.387 103.337 103.309 103.294 103.259 103.457 103.247 102.929 102.842 102.782 102.749 102.697 102.639 102.547 102.492 102.419 102.582 102.849 102.492 102.449 102.447 102.539 102.402 102.342 102.342 102.252 102.304 102.204 102.117 101.959 101.827 101.682 101.542 101.374 101.254 101.152 101.164 101.259 101.597 102.632 105.577 103.782 102.434 102.579 102.662 102.549 102.397 102.267 102.227 102.132 102.017 101.897 101.847 101.832 102.042 101.854 101.264 101.529 101.772 101.812 101.982 102.084 102.187 102.342 102.259 102.152 101.994 102.089 101.997 101.992 101.992 101.987 102.017 102.064 102.082 102.142 102.322 107.337 108.669 109.744 110.667 110.107 109.219 108.217 104.554 102.259 102.774 102.264 106.097 108.194 108.764 109.332 109.852 109.722 109.195 108.645 108.092 104.54 107.155 108.96 109.74 109.035 108.015 102.407 99.475 99.5 99.41 99.432 100.055 99.487 99.377 99.352 100.205 99.63 100.677 106.032 106.73 101.417 99.735 98.77 98.61 98.245 97.937 97.8 97.657 97.547 97.425 97.42 98.967 100.37 98.965 96.63 96.31 96.117 95.942 96.135 96.285 96.165 95.895 99.272 102.345 102.337 101.68 100.25 97.335 96.12 95.337 94.5 94.525 94.53 95.177 93.73 93.475 93.352 93.692 93.002 92.952 93.257 93.35 93.357 93.452 93.15 93.26 93.217 93.122 92.81 92.382 91.495 91.342 91.16 90.912 90.817 92.11 90.045 89.317 89.197 88.997 89.005 88.925 88.867 88.745 88.775 88.822 89.202 89.502 89.777 90.242 90.695 91.782 91.37 90.955 90.395 89.732 89.055 88.415 87.717 87.225 87.065 87.227 87.007 86.937 86.92 86.877 86.852 86.832 86.757 86.737 86.697 86.665 86.872 93.087 93.997 93.997 94.022 94.002 94.035 94.012 93.95 93.977 92.425 92.41 87.922 87.925 86.612 86.41 86.382 86.382 86.387 86.362 86.327 86.315 86.272 86.25 86.202 86.115 86.13 86.135 86.112 86.135 86.135 86.187 86.19 86.205 86.235 86.27 86.212 86.19 86.182 86.125 86.165 86.2 86.155 86.172 86.175 86.18 86.14 86.105 86.132 86.08 86.042 86.01 86 85.99 85.565 85.182 84.24 84.03 83.947 83.967 83.977 87.992 96.09 92.705 103.142 108.787 108.82 108.815 108.78 108.792 108.785 108.795 108.767 108.767 108.725 108.762 108.727 108.715 108.74 108.732 108.73 108.752 108.74 108.737 108.782 108.982 108.88 108.755 108.767 108.777 108.78 108.77 108.792 108.797 104.757 83.817 83.68 83.742 83.565 83.522 83.422 83.24 82.987 82.782 82.632 82.517 82.417 83.11 86.49 87.147 87.46 86.795 84.782 82.052 82.145 82.562 86.067 86.132
104.071 104.219 104.186 104.306 104.334 105.726 109.681 111.969 112.691 112.494 111.636 111.146 111.096 111.379 110.311 106.434 105.304 104.561 104.544 104.611 104.671 104.809 105.031 105.326 107.211 105.491 105.416 105.359 107.754 111.876 111.747 111.969 110.347 109.134 106.427 105.269 105.279 105.304 105.229 105.299 106.532 107.747 107.497 105.664 105.294 105.264 105.452 106.134 107.559 107.547 108.322 108.444 105.297 104.709 108.627 109.939 104.947 104.507 104.497 104.342 104.212 104.114 104.037 104.024 104.362 105.179 105.054 105.062 104.987 104.849 104.799 104.942 104.312 103.934 103.812 103.712 103.634 103.579 103.572 103.787 103.539 103.449 103.419 103.444 103.392 103.384 103.332 103.319 103.289 103.259 103.419 103.347 102.942 102.872 102.814 102.764 102.727 102.657 102.579 102.502 102.462 102.402 102.347 102.282 102.752 102.557 102.359 102.362 102.612 102.339 102.254 102.312 102.277 102.264 102.157 102.119 102.027 101.867 101.697 101.524 101.422 101.137 101.007 100.894 100.852 100.924 101.457 103.834 105.187 103.057 102.337 102.522 102.537 102.414 102.192 102.109 102.037 101.977 101.844 101.732 101.694 101.679 101.929 101.407 101.137 101.414 101.647 101.752 101.884 102.035 102.114 102.124 102.087 102.059 102.029 101.964 101.992 101.969 101.962 101.969 102.024 102.052 102.042 105.584 108.549 109.589 110.639 110.874 109.932 108.974 108.302 107.154 105.539 104.914 106.387 108.134 108.674 109.249 109.807 109.794 109.26 108.71 108.167 105.605 99.425 99.457 103.575 108.752 107.767 100.26 99.447 99.485 99.37 99.357 99.37 99.38 99.355 99.325 99.32 99.357 99.442 106.432 109.432 108.432 106.872 104.93 99.455 98.83 98.48 98.155 97.762 97.52 97.44 97.35 97.287 97.497 97.712 97.477 96.657 96.46 96.36 96.725 96.742 96.412 96.207 96.022 98.257 101.595 100.267 97.737 95.605 94.842 95.472 95.5 94.577 94.815 94.91 94.887 94.227 93.467 93.31 93.597 92.967 92.92 92.815 93.09 93.912 93.287 93.025 93.067 93.89 96.592 95.882 92.775 92.04 91.717 91.607 91 90.802 90.822 90.192 89.415 89.222 89.002 88.9 88.907 88.83 88.747 88.652 88.677 88.757 89.23 89.617 90.172 90.585 90.87 90.947 90.925 90.555 90.05 89.395 88.752 88.077 87.642 87.48 87.702 87.285 86.962 86.932 86.94 86.835 86.825 86.755 86.697 86.715 86.637 86.722 91.947 93.947 93.96 94.017 94.03 94.035 93.415 90.875 89.752 88.737 86.512 86.495 86.482 86.43 86.402 86.375 86.365 86.35 86.345 86.312 86.272 86.23 86.165 86.127 86.097 86.082 86.092 86.11 86.112 86.137 86.175 86.245 86.3 86.262 86.212 86.172 86.187 86.202 86.195 86.17 86.117 86.132 86.095 86.14 86.12 86.105 86.072 86.052 86.042 85.967 85.82 85.175 84.592 84.247 83.99 84 83.997 84.03 98.802 96.235 99.88 108.817 108.82 108.807 108.797 108.765 108.792 108.77 108.755 108.747 108.745 108.742 108.75 108.875 108.71 108.687 108.705 108.69 108.722 108.715 108.737 108.73 108.745 108.757 108.782 108.765 108.787 108.8 108.815 108.785 105.32 105.127 91.895 90.19 84.805 83.445 83.437 84.472 83.87 83.27 83.057 82.892 82.767 82.657 83.145 84.492 87.112 87.577 87.6 87.597 87.605 87.61 83.745 82 82.232 84.107 83.595
104.384 104.001 104.094 104.071 104.149 104.229 105.221 107.619 111.721 112.509 112.624 111.861 111.399 112.144 112.116 110.659 105.839 104.406 104.414 104.471 104.571 104.726 105.014 105.326 106.426 105.306 105.249 105.829 107.834 108.864 107.857 109.107 108.234 107.004 106.202 105.134 105.052 105.097 105.094 105.047 105.514 105.537 105.842 108.349 106.447 105.762 104.932 105.472 106.499 106.902 109.227 110.539 108.582 108.757 110.727 111.262 111.214 105.124 104.379 104.342 104.177 104.022 103.944 103.907 103.869 104.294 105.094 104.834 104.779 104.659 104.617 104.834 104.317 103.897 103.777 103.674 103.547 103.499 103.454 103.429 103.384 103.424 103.402 103.337 103.362 103.322 103.294 103.254 103.232 103.459 103.164 102.897 102.849 102.809 102.734 102.669 102.629 102.552 102.457 102.417 102.397 102.307 102.247 102.144 102.264 102.584 102.364 102.164 102.157 102.112 102.144 102.107 102.129 102.129 102.092 102.064 101.982 101.824 101.712 101.562 101.354 101.237 100.932 100.787 100.667 100.574 100.684 101.122 103.849 103.297 102.154 102.229 102.394 102.399 102.224 102.069 101.967 101.884 101.752 101.607 101.522 101.504 101.477 101.574 101.234 100.977 101.609 101.669 101.727 101.904 101.959 101.979 101.984 102.072 101.969 101.967 101.969 101.999 101.979 101.962 101.932 101.857 103.457 108.374 109.344 110.364 110.879 110.147 109.724 109.277 108.799 108.322 107.797 106.929 108.052 108.622 109.177 109.714 109.844 109.297 108.755 108.192 106.565 99.362 99.372 99.38 99.385 102.742 100.935 99.42 99.462 99.865 99.36 99.355 99.337 99.315 99.272 99.265 99.292 100.107 103.985 109.417 110.017 109.412 108.63 107.65 101.337 98.865 98.627 98.295 97.885 97.522 97.33 97.252 97.19 97.14 97.055 96.935 96.765 96.612 96.767 98.125 98.985 96.525 96.31 96.102 96.147 97.602 95.832 95.315 95.06 94.697 95.015 95.435 95.167 94.25 94.485 94.262 94.015 93.57 93.11 92.977 92.882 92.832 92.71 92.66 93.127 93.425 92.88 95.242 98.812 99.645 98.23 93.072 93.192 94.04 93.102 91.027 90.89 90.632 90.5 89.782 89.197 89.017 88.855 88.827 88.78 88.715 88.617 88.592 88.667 89.545 89.47 89.852 90.432 90.687 90.787 90.777 90.667 90.262 89.71 89.067 88.43 87.987 87.615 87.527 87.68 87.417 87.152 87.045 86.812 86.785 86.77 86.72 86.692 86.645 86.662 88.74 94.017 93.982 91.8 91.987 88.195 87.47 86.765 86.545 86.507 86.505 86.5 86.48 86.427 86.375 86.332 86.34 86.312 86.287 86.24 86.207 86.177 86.117 86.07 86.075 86.082 86.102 86.085 86.132 86.14 86.195 86.2 86.162 86.135 86.12 86.14 86.14 86.195 86.212 86.222 86.15 86.05 86.035 86.057 86.622 86.407 86.02 85.972 86.24 85.892 85.257 84.452 84.245 84.12 90.772 99.365 100.2 102.905 108.83 108.822 108.81 108.805 108.797 108.78 108.785 108.762 108.755 108.762 108.737 108.73 108.735 108.752 108.872 109.522 108.707 108.697 108.705 108.732 108.74 108.77 108.75 108.742 108.772 108.772 108.79 108.8 108.79 107.665 102.622 92.285 86.265 84.105 84.01 83.97 83.895 83.65 83.517 83.447 83.302 83.145 83.02 82.907 82.772 83.237 86.377 87.572 87.587 87.572 87.62 87.592 87.602 87.602 86.072 81.855 81.977 82.242 82.59
105.014 103.919 103.901 103.934 104.019 104.591 105.411 104.451 105.766 110.379 112.314 113.276 112.299 112.686 111.956 109.324 104.941 104.706 105.371 104.604 104.406 104.556 104.874 105.234 107.259 105.626 105.039 105.999 108.401 108.871 109.699 112.667 108.979 109.234 109.812 108.282 104.892 104.842 104.867 104.914 104.839 105.417 105.857 107.352 106.524 106.082 104.864 104.952 105.259 104.599 105.122 108.627 110.509 110.734 111.349 111.284 110.774 108.549 104.547 104.237 104.144 103.994 103.837 103.774 103.762 103.749 104.337 104.807 104.684 104.444 104.344 104.567 104.417 104.022 103.739 103.639 103.504 103.452 103.414 103.369 103.357 103.374 103.349 103.347 103.309 103.269 103.224 103.367 103.427 103.052 102.857 102.819 102.757 102.689 102.639 102.564 102.537 102.454 102.409 102.359 102.282 102.189 102.164 102.242 102.347 102.204 102.119 102.019 102.007 101.964 101.962 101.944 101.962 102.044 102.034 102.002 101.922 101.792 101.644 101.552 101.512 101.249 101.112 100.707 100.549 100.437 100.399 100.464 101.939 103.227 102.702 102.482 102.174 102.339 102.254 102.067 101.844 101.739 101.692 101.547 101.472 101.349 101.327 101.322 101.619 101.047 100.929 101.422 101.744 101.747 101.797 101.839 101.989 101.957 101.944 101.939 101.982 101.934 101.942 101.917 101.809 101.774 102.572 107.459 108.782 109.682 110.092 109.459 109.809 109.819 109.354 108.874 108.41 108.109 108.542 109.104 109.657 109.902 109.377 108.822 108.272 106.332 100.79 99.365 99.34 99.332 99.365 99.485 99.387 99.347 99.255 99.607 100.015 99.26 99.24 99.235 99.187 99.247 99.312 99.842 106.05 108.452 109.457 110.085 109.425 108.447 106.362 101.065 98.715 98.502 98.095 97.6 97.255 97.14 97.085 97.015 97.027 97.11 96.787 98.515 101.085 103.132 102.295 97.622 96.267 96.13 95.975 94.972 94.762 95.072 95.362 94.585 94.44 95.235 94.352 93.595 94.037 93.822 93.275 93.055 92.942 92.895 92.84 92.78 92.665 92.555 92.667 92.712 95.12 99.355 100.005 99.497 97.84 93.732 96.06 97.077 93.59 91.03 90.885 90.665 90.505 90.64 89.32 89.03 88.92 88.722 88.692 88.66 88.615 88.53 88.545 88.622 89.212 89.42 90.095 90.45 90.572 90.577 90.517 90.272 89.927 89.385 88.827 88.365 88.012 87.64 87.46 87.205 87.087 87.752 87.347 86.757 86.747 86.685 86.695 86.677 86.637 87.802 91.86 89.897 87.77 86.642 86.627 86.592 86.57 86.532 86.505 86.487 86.472 86.44 86.392 86.34 86.307 86.247 86.252 86.227 86.177 86.147 86.102 86.07 86.03 86.04 86.062 86.077 86.117 86.16 86.112 86.087 86.087 86.092 86.072 86.092 86.077 86.055 86.027 86.09 86.047 85.9 86.88 89.117 89.25 90.835 89.445 86.542 87.337 87.055 85.87 85.617 93.175 99.05 99.932 100.42 108.807 108.797 108.805 108.812 108.802 108.772 108.772 108.78 108.775 108.765 108.745 108.747 108.735 108.715 108.712 108.73 108.732 108.732 109.555 108.787 108.727 108.747 108.76 108.752 108.78 108.765 108.792 108.8 108.442 108.69 102.23 103.827 108.185 94.757 84.177 83.95 83.91 83.987 83.875 83.84 83.732 83.51 83.4 83.225 83.11 83.012 82.95 84 86.982 87.565 87.565 87.565 87.58 87.575 87.582 87.607 87.6 87.445 81.765 81.787 82.022 82.382
104.929 104.919 104.061 103.834 103.919 105.159 104.424 104.149 104.431 105.789 108.934 111.981 112.751 112.296 111.339 105.874 104.469 104.201 104.276 104.586 104.306 104.361 104.539 105.014 107.156 105.101 104.844 105.844 109.904 110.621 111.077 111.334 111.819 111.847 109.837 110.017 106.512 104.964 104.579 104.662 104.754 105.277 104.872 106.764 104.774 104.992 105.534 104.712 104.642 104.562 104.474 105.617 109.727 111.347 111.194 110.669 108.134 105.292 104.929 104.079 104.007 103.912 103.792 103.677 103.649 103.619 103.644 104.249 104.657 104.412 104.152 104.237 104.417 104.262 103.779 103.604 103.487 103.372 103.337 103.284 103.312 103.339 103.399 103.277 103.219 103.217 103.437 103.217 102.932 102.864 102.792 102.734 102.659 102.577 102.549 102.487 102.417 102.379 102.322 102.269 102.194 102.159 102.374 102.112 101.857 101.977 101.972 101.857 101.862 101.829 101.787 101.802 101.852 101.949 102.027 101.964 101.872 101.737 101.812 102.017 101.627 101.167 101.109 100.824 100.409 100.289 100.182 100.189 100.262 102.042 103.077 102.865 101.864 102.16 102.219 102.072 101.869 101.717 101.589 101.507 101.387 101.264 101.107 101.112 101.169 101.517 100.834 100.742 100.932 101.312 101.562 101.712 101.772 101.829 101.879 101.899 101.927 101.919 101.869 101.764 101.639 101.514 101.309 101.257 105.242 108.654 109.154 108.837 109.312 109.722 109.829 109.429 108.949 108.604 109.022 109.592 109.909 109.457 108.899 108.362 107.28 99.962 99.38 99.315 99.297 99.297 99.332 99.345 99.4 99.257 99.187 99.197 99.23 99.157 99.165 99.135 99.155 99.15 99.24 99.372 100.357 105.94 108.422 109.432 110.02 109.41 108.415 106.985 101.785 98.605 98.295 97.727 97.29 97.042 96.955 96.887 96.845 97.092 98.325 102.797 103.727 103.852 102.897 99.142 96.117 96.107 95.92 95.975 94.67 94.637 94.7 94.415 94.245 94.21 93.927 93.572 93.402 93.257 93.117 92.985 92.932 92.845 92.777 92.702 92.592 92.42 92.425 92.5 96.08 99.732 98.65 96.51 93.775 93.19 94.477 93.46 91.462 91.127 90.96 90.702 90.505 90.537 89.787 89.052 88.892 88.7 88.662 88.595 88.545 88.507 88.385 88.517 89.212 89.275 89.557 90.08 90.332 90.362 90.275 90.17 89.92 89.607 89.175 88.722 88.335 87.93 87.61 87.137 86.94 87.142 87.692 86.827 86.722 86.692 86.685 86.635 86.617 86.652 86.935 86.662 86.652 86.667 86.622 86.572 86.547 86.507 86.477 86.452 86.47 86.395 86.367 86.302 86.29 86.28 86.24 86.165 86.125 86.07 86.027 86.027 86.027 86.032 86.027 86.06 86.13 86.097 86.055 86.07 86.052 86.025 85.9 85.86 85.657 85.522 85.455 85.655 85.525 85.73 88.182 90.845 90.782 90.802 90.795 88.507 87.812 96.775 99.462 98.357 106.032 108.827 108.807 108.81 108.805 108.782 108.762 108.78 108.76 108.752 108.745 108.752 108.73 108.732 108.745 108.742 108.717 108.725 108.737 108.76 108.74 108.735 108.76 108.777 108.762 108.765 108.777 108.782 108.802 108.787 107.67 98.627 94.552 86.44 83.85 92.272 107.512 104.06 90.955 85.162 83.825 83.982 83.875 83.805 83.705 83.455 83.337 83.235 83.142 83.337 86.007 87.575 87.582 87.565 87.537 87.59 87.6 87.607 87.617 87.597 87.62 87.032 81.647 81.655 81.852 82.197
104.811 105.439 103.994 104.016 104.454 104.424 103.866 103.961 104.089 104.136 104.836 107.709 111.791 110.826 108.604 104.336 104.429 104.134 104.129 104.189 104.219 104.264 104.349 104.449 104.749 105.711 104.791 104.989 107.519 109.091 111.199 111.884 112.132 111.589 108.134 108.422 107.912 106.539 106.687 104.667 109.267 105.207 104.464 104.442 104.382 104.677 105.597 105.194 105.074 104.784 104.399 104.282 106.312 110.974 110.237 107.814 104.057 104.064 104.637 104.202 103.832 103.677 103.662 103.584 103.544 103.524 103.494 103.572 104.247 104.327 104.119 103.984 104.042 104.227 103.902 103.579 103.462 103.344 103.272 103.219 103.227 103.332 103.607 103.279 103.277 103.417 103.069 102.869 102.832 102.764 102.724 102.657 102.589 102.529 102.477 102.424 102.357 102.302 102.234 102.132 102.264 102.242 101.869 101.634 101.644 101.759 101.752 101.744 101.732 101.684 101.644 101.727 102.177 103.009 103.227 102.077 101.892 101.934 102.207 101.519 100.874 100.657 100.427 100.799 100.704 100.144 100.032 99.944 99.889 100.249 102.819 102.579 103.022 101.729 102.017 102.057 101.932 101.664 101.554 101.437 101.319 101.179 101.032 100.962 100.929 100.927 101.162 100.729 100.497 100.699 100.937 101.147 101.429 101.604 101.692 101.777 101.842 101.842 101.759 101.63 101.457 101.194 101.082 100.987 101.384 104.752 108.184 108.249 108.727 109.197 109.679 109.902 109.512 109.127 109.524 109.889 109.522 108.987 108.424 107.884 101.602 99.457 99.34 99.272 99.26 99.24 99.265 99.245 99.267 99.785 99.257 99.13 99.107 99.08 99.06 99.072 99.08 99.115 99.155 99.282 99.322 101.69 107.457 108.44 109.447 109.96 109.31 108.232 107.35 102.06 98.455 97.937 97.337 96.947 96.807 96.772 96.72 96.792 98.15 103.402 103.292 103.28 102.042 97.337 96.092 96.06 95.77 95.715 94.957 94.577 94.372 94.22 94.037 94.177 93.68 93.477 93.365 93.195 93.097 93.02 93.23 93.115 92.695 92.56 92.46 92.352 92.275 92.317 92.952 94.605 93.862 92.747 92.522 92.17 91.672 91.39 91.352 91.19 91.02 90.74 90.5 90.387 90.21 89.232 88.91 88.797 88.595 88.557 88.51 88.455 88.35 88.367 88.447 89.795 89.242 89.707 90.082 90.137 90.122 89.97 89.802 89.525 89.247 88.892 89.115 88.205 87.867 87.387 87.052 87.04 87.032 86.952 86.835 86.71 86.68 86.627 86.59 86.587 86.662 86.647 86.615 86.592 86.55 86.51 86.475 86.46 86.425 86.397 86.402 86.347 86.31 86.28 86.262 86.202 86.14 86.077 86.025 85.99 85.992 85.982 85.995 86.01 86.002 86.087 86.035 86.017 86.027 86.487 86.067 85.78 85.565 85.265 84.907 84.672 84.745 84.887 84.78 84.702 87.73 90.822 90.8 90.81 92.35 99.965 101.527 108.09 108.827 108.805 108.797 108.815 108.8 108.787 108.777 108.775 108.75 108.745 108.732 108.737 108.75 108.72 108.745 108.732 109.077 110.505 108.73 108.937 109.422 108.75 108.78 108.757 108.76 108.775 108.79 108.805 108.795 105.79 98.767 94.797 84.637 83.812 83.807 83.815 83.81 86.957 104.61 108.845 107.2 85.657 84.545 83.715 83.762 83.707 83.565 83.495 83.385 83.237 84.48 87.08 87.575 87.572 87.59 87.575 87.577 87.58 87.577 87.575 87.592 87.59 87.595 86.347 81.357 81.515 81.665 82.007
