ncols 435
nrows 31
xllcorner    427094
yllcorner    542648
cellsize     2
NODATA_value -9999
51.234 51.809 50.629 50.399 50.322 50.022 49.872 49.724 49.594 49.452 49.327 49.162 49.017 48.832 48.764 54.712 59.389 61.324 60.974 58.714 50.202 48.229 46.029 45.517 44.224 44.149 44.139 44.169 44.209 44.172 44.194 44.132 44.039 44.099 44.157 43.354 42.234 39.954 39.902 39.769 39.622 39.644 37.874 37.969 38.337 39.017 39.592 39.804 37.982 33.589 33.592 33.637 33.237 40.271 43.229 43.044 42.839 42.741 42.911 43.091 43.271 32.009 31.951 34.714 33.414 32.861 31.129 31.116 31.114 31.109 31.416 31.936 31.741 34.484 33.535 32.785 32.139 31.811 31.743 31.753 31.546 31.137 31.018 30.889 30.795 30.762 30.738 30.958 30.743 29.96 29.517 29.52 -9999 -9999 -9999 27.71 27.833 27.77 27.51 27.519 27.719 27.615 27.4 27.33 27.232 27.264 27.314 27.361 27.356 27.393 27.739 28.207 30.288 31.325 30.963 30.888 30.93 32.157 34.522 35.337 34.388 33.655 32.687 31.761 31.729 31.826 31.904 32.109 32.059 31.834 31.741 31.661 31.751 31.871 32.546 32.574 36.594 38.184 39.424 39.221 39.234 39.236 39.254 39.276 40.084 45.229 45.226 45.181 45.174 45.159 43.601 41.556 41.411 43.341 43.636 45.356 45.394 45.291 45.171 44.621 43.084 41.579 41.724 41.544 41.411 41.401 41.454 41.441 41.459 41.439 41.496 48.086 52.129 53.954 56.451 56.416 56.391 56.189 56.351 56.316 56.324 55.936 46.979 39.124 38.401 39.231 39.804 39.989 40.296 40.739 41.126 42.216 42.974 43.956 44.324 45.014 44.489 44.494 44.546 44.576 44.564 44.616 44.646 44.613 44.601 44.593 44.563 44.466 44.496 44.561 44.666 44.623 44.663 45.426 45.183 45.008 44.986 44.978 47.996 50.371 52.616 55.516 55.728 55.983 46.593 45.031 45.028 47.116 47.216 47.681 48.443 46.426 46.253 46.606 47.796 50.641 53.398 55.801 51.208 47.238 47.148 47.143 52.876 57.726 59.546 60.638 59.656 55.808 47.833 48.023 48.271 48.361 48.521 48.628 48.766 57.046 59.336 59.643 54.746 54.671 54.656 54.658 55.863 53.738 54.491 56.533 60.481 61.913 60.288 55.683 60.003 64.348 63.766 62.431 62.788 63.311 63.846 65.456 66.318 66.418 65.848 63.646 60.821 56.983 57.003 57.316 57.938 57.733 58.276 58.103 57.996 58.106 58.258 58.446 58.596 58.783 58.921 59.118 59.256 59.406 59.583 59.766 59.903 60.05 60.238 60.368 60.57 60.75 60.958 61.208 61.77 62.06 62.728 63.718 63.923 64.603 63.73 63.55 65.725 70.393 70.45 70.688 70.578 69.7 70.968 71.113 74.023 73.288 73.588 74.128 74.108 74.735 76.085 76.055 70.43 73.843 73.77 74.175 74.203 74.243 74.013 73.293 73.99 73.32 68.788 67.46 69.788 70.75 72.123 75.248 75.253 75.433 75.805 75.77 76.193 76.21 71.583 69.52 69.033 69.185 77 77.905 77.733 77.87 77.923 78.073 77.86 77.895 78.388 78.473 78.168 77.718 77.835 78.725 78.973 79.538 80.058 80.05 80.478 79.998 79.948 80.955 81.625 81.683 81.7 81.733 79.883 79.285 79.33 79.345 79.23 79.173 78.34 78.445 78.363 78.33 70.223 69.138 68.988 70.093 72.11 70.695 71.76 70.715 70.28 70.993 69.423 69.203 68.848 69.63 71.555 74.815 74.783 74.668 74.508 74.455 74.025 75.208 75.503 75.775 74.22 75.613 74.985 74.995 74.64 77.145 77.153 77.388 75.945 76.543 75.618 75.733 74.725 75.788 75.85
51.817 51.912 51.442 50.794 50.852 50.714 50.224 50.297 49.554 49.407 49.257 49.104 48.957 48.777 49.204 56.182 59.587 61.532 60.777 58.827 49.149 47.514 45.967 45.552 44.089 44.019 44.039 44.097 44.102 44.129 44.067 44.012 43.934 43.947 44.014 43.344 42.144 39.684 39.684 39.429 39.344 39.392 37.159 36.474 36.479 35.202 34.572 33.589 33.739 33.607 33.614 33.794 33.302 41.531 43.191 43.049 42.809 42.781 42.951 43.134 43.331 31.499 32.714 34.834 32.376 32.854 31.121 31.094 31.116 31.071 31.766 31.841 32.239 35.966 36.017 36.073 35.854 34.82 34.295 31.744 31.555 31.11 30.989 30.855 30.788 30.733 30.749 30.995 30.793 29.598 29.426 -9999 -9999 -9999 28.079 28.045 28.117 27.98 27.955 28.05 28.206 28.035 27.821 27.364 27.251 27.284 27.318 27.348 27.443 27.822 29.808 31.666 32.478 31.328 31.269 30.927 31.023 32.566 35.012 35.123 34.835 35.913 34.282 32.539 31.729 31.826 31.929 32.071 31.944 31.801 31.729 31.681 31.784 31.994 32.984 35.151 37.326 39.229 39.204 39.236 39.264 39.369 39.851 40.169 40.604 44.931 45.244 45.209 45.199 45.144 44.961 42.826 41.429 41.624 41.551 43.986 45.241 44.876 44.089 41.994 41.769 41.696 41.434 41.389 41.421 41.449 41.444 41.471 41.506 42.016 51.244 53.139 55.666 56.431 56.414 56.399 56.376 56.354 56.361 56.324 56.314 56.281 53.116 40.854 39.369 40.044 40.459 40.656 40.989 41.169 41.274 41.596 42.726 43.714 44.441 44.466 44.446 44.546 44.571 44.631 44.661 44.659 44.671 44.668 44.678 44.638 44.583 44.488 44.491 44.643 44.641 44.658 44.658 44.776 45.848 45.336 47.483 55.251 55.586 55.778 56.016 56.263 56.473 56.693 53.791 46.563 45.073 46.893 47.168 47.148 48.201 48.166 50.386 53.786 55.716 57.056 57.406 57.773 54.261 47.283 47.238 47.341 49.683 56.491 59.503 60.611 59.913 57.578 48.421 48.168 48.513 48.716 48.796 48.923 48.986 52.308 60.126 60.718 56.688 55.103 57.143 61.018 63.041 60.721 59.783 60.586 59.928 61.408 61.633 59.033 58.343 62.716 64.271 63.248 63.828 63.813 63.303 64.131 65.568 63.358 59.213 56.431 56.546 57.261 57.308 57.836 57.671 57.416 57.578 57.721 57.901 58.061 58.208 58.398 58.541 58.726 58.891 59.096 59.228 59.388 59.561 59.733 59.933 60.165 60.328 60.433 60.595 60.838 62.633 66.015 68.083 68.58 65.438 65.893 66.478 66.19 62.79 62.733 67.155 72.478 72.42 72.463 72.365 72.315 72.818 73.313 75.615 75.578 75.6 75.675 75.723 76.58 77.133 76.678 71.245 73.693 74.835 74.88 74.81 74.93 75.15 75.043 74.948 74.47 71.335 67.398 70.165 71.623 72.645 76.715 76.453 76.525 76.365 76.46 76.398 75.993 72.458 69.678 68.768 68.92 76.393 76.453 77.63 76.123 76.678 77.78 77.225 77.528 76.823 77.945 77.48 74.86 76.12 78.633 79.003 78.425 78.525 78.79 80.095 78.95 79.04 79.005 78.18 78.653 79.793 79.095 75.42 75.418 78.918 79.055 79.268 79.273 78.04 78.053 78.04 78.04 71.81 69.348 68.48 68.54 75.288 76.183 76.108 76.01 75.95 75.885 73.913 71.268 71.388 72.238 72.808 74.903 75.058 75.823 75.715 75.7 76.823 76.64 76.803 76.735 76.478 76.703 76.58 76.503 76.553 78.315 78.358 79.08 78.54 78.46 77.015 76.48 76.468 76.65 76.673
53.362 50.887 50.624 50.452 50.589 50.109 49.809 49.909 49.804 49.937 49.807 49.264 48.937 48.712 48.577 53.712 58.664 61.564 60.784 57.059 48.632 47.217 46.019 45.334 43.964 43.904 43.982 43.947 44.029 44.044 43.989 43.904 43.844 43.844 43.909 43.174 41.939 39.632 40.102 39.112 39.094 39.162 36.684 36.212 36.204 34.702 33.939 33.762 34.037 33.572 33.577 33.849 33.779 37.626 38.399 38.789 42.134 42.699 42.916 43.159 38.999 31.671 33.551 34.704 32.944 32.574 31.259 31.171 31.134 31.109 31.396 31.874 33.694 35.964 36.012 36.058 36.037 35.946 34.194 31.846 31.411 31.068 30.982 30.826 30.772 30.728 30.756 30.915 30.513 28.989 29.314 -9999 -9999 -9999 28.07 28.076 28.092 28.021 28.036 28.14 28.217 28.137 28.014 -9999 -9999 -9999 -9999 -9999 28.425 29.149 29.019 32.075 32.892 32.261 31.775 31.176 31.042 33.554 35.327 34.756 35.235 36.232 35.801 33.721 31.784 31.866 31.951 32.021 31.881 31.794 31.694 31.684 32.224 32.481 34.341 36.569 39.359 39.199 39.241 39.234 39.289 39.319 40.591 40.371 40.374 43.496 45.259 45.226 45.201 45.201 45.224 44.806 42.286 41.489 41.509 41.529 44.189 43.214 41.619 41.751 41.484 41.431 41.416 41.414 41.451 41.466 41.504 42.551 50.144 55.464 54.164 55.704 56.394 56.404 56.381 56.359 56.616 58.261 56.791 56.274 56.264 56.254 55.774 44.171 40.491 40.614 40.909 41.219 41.261 41.626 42.629 42.871 42.986 44.009 44.466 44.534 44.576 44.566 44.619 44.681 44.709 44.714 44.746 44.753 45.023 46.028 46.838 44.518 44.508 44.576 44.643 44.651 44.676 44.716 45.951 45.553 47.761 55.653 56.333 56.518 56.753 57.153 57.333 58.203 54.031 48.573 45.456 46.563 47.168 47.133 47.283 50.346 57.141 57.471 57.843 58.241 58.623 58.986 58.496 49.768 47.313 47.571 58.086 61.463 60.483 61.048 61.438 60.131 55.138 48.341 48.658 48.918 49.021 49.173 49.228 49.588 57.281 61.026 60.236 60.056 61.481 62.638 63.456 62.431 60.298 60.713 59.963 60.438 61.858 61.478 61.936 62.971 64.256 64.326 64.706 62.633 62.061 59.866 60.508 57.901 56.471 56.881 56.628 57.146 56.996 57.008 57.158 57.361 57.526 57.678 57.881 57.993 58.123 58.306 58.506 58.666 58.893 59.051 59.241 59.416 61.586 62.143 65.036 64.415 61.363 60.533 60.633 60.84 65.005 68.873 69.47 69.705 67.065 65.83 65.958 64.885 62.903 62.743 65.948 70.958 71.02 70.908 70.645 71.028 71.918 75.003 77.358 77.058 77.043 77.11 77.065 77.24 77.27 76.915 71.543 71.128 74.218 73.633 73.193 73.553 75.16 74.358 73.253 73.103 69.543 67.943 69.745 71.478 72.523 75.288 75.383 75.163 75.418 75.76 75.52 75.658 72.015 68.91 68.455 68.613 73.745 75.955 74.828 74.258 75.465 76.645 77.015 77.638 76.528 77.778 77.473 74.43 73.57 78.403 78.99 78.238 77.338 77.86 76.178 76.603 78.808 75.723 70.288 70.685 71.978 71.943 70.81 69.9 77.943 78.213 77.903 77.448 77.02 77.055 76.28 76.718 70.43 68.56 68.07 68.39 75.643 77.508 77.463 77.398 77.255 77.258 75.86 71.598 71.413 72.4 71.55 71.543 72.083 74.443 74.82 74.915 76.575 76.038 75.89 75.21 77.043 77.408 78.275 77.455 77.25 77.488 77.688 77.518 77.768 77.82 76.953 75.99 75.953 75.74 75.735
60.614 57.997 56.512 52.944 50.969 49.544 49.604 49.664 49.859 49.427 49.922 49.222 49.039 48.829 48.734 50.237 56.637 58.629 58.947 54.852 48.284 47.514 46.099 45.304 43.892 43.794 43.869 43.847 43.947 43.924 43.889 43.819 43.752 43.752 43.797 43.007 41.897 39.659 39.402 38.922 38.822 38.987 36.677 35.987 35.924 35.089 33.609 33.682 34.254 33.534 33.564 33.547 34.094 39.469 39.216 38.019 38.001 41.304 35.866 37.059 36.101 32.096 35.244 33.971 32.936 32.674 31.839 31.664 31.504 31.416 31.756 31.929 34.614 35.953 36.015 36.052 35.971 35.912 32.919 31.69 31.303 31.081 30.961 30.803 30.728 30.699 32.145 32.075 30.576 29.869 29.543 -9999 -9999 28.086 28.073 28.046 28.074 28.056 28.085 28.198 28.232 28.207 -9999 28.175 -9999 -9999 -9999 -9999 28.823 29.056 29.63 32.86 32.234 32.893 31.834 31.687 31.141 34.51 35.305 35.104 36.226 36.367 35.646 32.679 31.836 31.954 32.074 32.019 31.829 31.776 31.709 31.824 33.196 33.259 34.459 39.511 39.241 39.234 39.269 39.306 39.346 39.566 40.516 40.351 40.336 40.706 45.261 45.216 43.951 42.871 45.176 45.006 43.114 41.486 41.531 41.519 41.481 41.734 41.886 41.429 41.384 41.406 41.441 41.419 41.466 41.486 43.669 50.681 52.941 54.309 56.426 56.396 56.361 56.361 56.349 56.789 59.504 60.274 59.189 56.339 56.236 56.204 56.174 54.476 43.574 41.729 44.704 41.659 41.889 43.521 42.864 41.506 42.601 44.131 44.516 44.536 44.559 44.814 44.741 44.764 44.799 44.854 44.854 45.568 49.333 51.163 49.226 46.203 44.548 44.588 44.633 44.711 44.708 44.751 45.686 46.283 45.763 54.143 57.068 57.551 57.983 58.701 58.641 58.693 55.481 50.441 46.403 46.201 47.253 47.173 47.128 48.336 56.733 58.643 59.028 59.416 59.558 59.446 58.903 51.678 47.696 47.566 53.896 61.281 60.888 61.541 62.511 61.961 56.863 48.561 48.846 49.193 49.293 49.418 49.523 49.616 54.643 61.633 61.448 61.721 61.671 61.768 63.141 63.116 61.231 60.036 60.771 60.388 62.813 63.718 64.508 64.561 64.526 64.563 63.136 60.051 56.573 55.748 55.676 55.816 56.421 56.421 56.423 56.573 56.761 56.921 57.131 57.296 57.451 57.613 57.758 57.948 58.151 58.326 58.591 60.141 61.513 62.513 60.228 65.726 67.913 68.148 68.223 67.848 61.995 60.563 60.653 60.755 62.8 68.655 69.188 68.715 67.315 63.175 62.318 63.023 62.825 62.84 64.345 69.595 70.088 69.355 69.513 70.27 71.738 73.938 75.833 75.605 75.51 75.478 75.413 75.61 76.873 77.16 73.29 68.845 74.02 73.795 71.628 72.768 74.85 74.673 72.97 72.365 71.458 70.868 71.095 71.528 72.228 74.553 75.368 74.48 72.438 75.525 76.813 75.868 71.763 68.185 68.133 68.083 74.15 75.965 74.448 71.418 72.5 70.963 74.82 76.898 75.743 77.66 77.598 73.52 72.133 78.215 78.925 78.905 75.325 75.728 72.57 75.225 77.783 74.158 69.615 69.585 69.548 69.63 69.845 68.818 71.803 74.37 71.188 72.793 70.605 70.688 68.935 69.555 68.393 67.625 67.698 68.445 75.778 77.28 77.313 77.398 77.393 77.405 77.033 71.075 70.655 71.535 68.928 67.898 68.553 71.533 74.883 74.845 74.723 75.95 75.765 75.25 76.413 76.105 76.168 76.673 76.06 76.495 77.585 76.64 76.238 76.268 75.633 74.97 74.98 75.353 75.34
62.294 60.832 60.384 59.692 56.769 54.544 52.802 51.319 50.584 49.337 49.239 49.079 48.972 48.874 48.974 53.379 57.754 60.024 58.504 54.717 48.254 48.107 46.349 45.119 43.792 43.717 43.827 43.849 43.854 43.827 43.802 43.742 43.689 43.644 43.669 42.944 41.714 39.727 39.599 38.722 38.567 38.554 37.099 35.729 35.669 35.384 34.052 34.344 34.527 33.544 33.547 33.579 35.647 48.794 50.096 48.791 47.074 45.286 40.551 37.624 35.606 34.116 35.369 33.591 32.709 32.554 32.456 32.266 32.099 31.999 32.194 32.096 35.159 35.971 36.004 36.047 35.966 35.941 32.228 31.687 31.228 31.09 30.947 30.789 30.751 30.727 30.798 32.606 31.444 30.903 30.502 -9999 -9999 -9999 28.081 28.087 28.121 28.071 28.111 28.217 28.269 28.218 28.184 28.159 28.144 -9999 28.107 28.193 28.32 28.358 29.042 31.382 32.682 30.375 29.756 31.406 31.628 34.388 35.348 35.831 37.062 36.896 35.45 31.836 31.926 32.004 32.179 31.974 31.839 31.759 31.746 32.051 32.534 33.016 39.241 39.201 39.211 39.254 39.276 39.281 39.489 40.106 40.371 40.391 40.359 40.386 41.916 45.224 45.039 44.856 45.176 44.834 42.654 41.519 41.506 41.494 41.444 41.499 41.406 41.426 41.404 41.416 41.461 41.479 41.504 46.474 50.614 53.214 55.941 56.419 56.404 56.401 56.361 56.331 58.006 60.269 60.121 59.914 59.716 57.416 56.179 56.171 56.161 55.666 45.879 47.336 47.271 45.666 42.056 41.931 41.369 42.646 45.176 44.554 44.664 44.631 44.879 45.401 45.004 44.909 44.986 44.966 48.741 51.026 52.313 51.596 50.796 47.156 44.623 44.613 44.611 44.696 44.768 44.813 44.896 46.708 45.471 53.241 57.678 58.638 58.661 58.693 58.671 58.638 58.601 57.916 47.566 46.258 47.748 47.151 47.106 47.246 54.213 59.621 59.458 59.111 58.738 58.401 58.028 53.793 48.078 48.353 51.086 61.083 61.593 61.641 62.411 62.151 56.766 48.951 48.958 49.408 49.533 49.641 49.793 49.876 52.343 57.196 61.823 61.231 59.863 59.938 61.938 63.451 61.948 59.778 60.833 61.561 64.736 65.131 64.721 64.071 62.626 61.476 56.228 55.038 55.146 55.348 55.566 55.743 55.918 56.141 56.306 56.546 56.713 56.846 57.031 57.153 57.366 57.573 57.811 58.148 58.648 59.478 63.936 67.791 68.396 66.376 61.871 66.036 68.428 68.503 68.418 68.12 63.998 60.635 60.643 60.72 62.065 67.383 69.178 68.255 67.273 63.15 62.203 63.418 63.708 63.923 64.888 67.11 67.085 67.1 68.638 68.493 68.86 71.485 73.295 73.798 73.24 74.165 72.95 74.208 76.638 77.178 74.753 67.453 73.57 74.148 71.223 71.013 74.5 74.968 73.133 71.623 71.618 71.513 71.31 70.93 71.025 74.19 75.37 73.51 69.193 75.76 76.878 75.935 71.63 67.838 67.763 67.735 73.383 75.965 74.618 68.683 69.975 70.368 71.92 73.693 72.59 75.915 74.42 70.63 70.2 78.198 78.878 78.508 69.838 69.743 70.418 71.098 71.335 70.358 69.603 69.463 69.33 69.315 68.993 67.375 67.303 67.13 67.158 67.385 67.293 67.01 66.98 67.015 67.46 67.153 67.683 68.66 75.195 75.87 75.908 75.975 76.048 76.17 73.573 68.348 68.175 68.138 68.275 67.635 67.693 67.498 71.133 72.84 72.875 74.618 73.773 72.97 74.105 72.97 74.2 74.025 73.418 76.12 77.528 76.593 74.38 75.205 74.715 73.978 70.16 74.478 74.518
63.217 62.292 61.989 61.544 60.891 59.896 59.359 58.294 56.666 55.141 53.591 51.469 50.269 49.591 50.129 56.424 58.826 60.034 58.511 52.619 48.121 48.049 46.934 44.859 43.716 43.656 43.674 43.741 43.771 43.771 43.754 43.661 43.581 43.554 43.576 43.031 41.836 39.684 39.699 38.501 38.309 38.226 37.129 35.474 35.389 35.774 34.146 34.641 34.111 33.499 33.514 33.541 36.724 50.631 51.434 51.489 52.699 52.556 51.734 50.031 48.231 45.934 43.419 40.126 37.326 35.286 33.806 32.494 32.219 32.089 32.011 32.161 35.809 35.985 36.031 36.034 35.954 35.324 31.856 31.622 31.192 31.07 30.918 30.803 30.735 31.811 32.607 33.751 31.33 30.856 -9999 -9999 -9999 -9999 28.112 28.111 28.12 28.101 28.104 28.159 28.193 28.203 28.18 28.154 28.146 28.12 28.104 28.128 28.168 28.607 28.966 29.646 31.068 29.47 29.691 28.629 32.875 34.829 35.226 35.539 36.012 36.4 34.117 31.869 31.954 32.069 32.076 31.906 31.814 31.761 31.814 32.356 32.471 36.216 39.229 41.769 39.979 39.216 39.249 39.271 39.309 39.676 40.269 40.449 40.464 40.736 41.196 42.744 43.706 43.401 41.981 41.809 41.656 41.501 41.471 41.436 41.429 41.406 41.411 41.439 41.399 41.469 41.494 44.071 50.859 56.046 56.281 56.219 56.409 56.404 56.399 56.351 56.314 58.619 60.381 60.139 59.826 59.574 59.344 58.706 56.271 56.154 56.136 56.094 54.761 47.406 46.676 46.561 43.004 41.674 46.659 47.191 47.619 46.204 44.609 44.996 45.119 45.744 45.031 44.971 45.366 51.544 53.159 53.433 52.761 52.011 51.356 50.591 47.258 44.641 44.691 44.768 44.823 44.881 44.921 45.903 45.938 50.146 57.616 58.633 58.661 58.706 58.673 58.641 58.591 58.621 52.723 46.111 47.373 47.266 47.198 47.296 51.573 58.626 58.318 57.976 57.626 57.213 56.308 54.238 49.958 49.643 51.213 58.778 59.576 61.133 62.263 62.311 59.841 50.226 49.076 49.638 49.853 49.878 50.028 50.101 51.353 56.618 61.268 54.721 51.698 53.688 59.491 63.181 63.036 62.133 62.758 63.243 64.031 63.808 61.383 57.656 55.468 54.761 54.701 54.863 55.078 55.296 55.508 55.698 55.888 56.066 56.243 56.436 56.596 56.753 56.953 57.183 57.386 59.086 61.156 63.933 67.621 68.273 68.878 68.986 69.038 68.438 66.211 66.763 67.468 67.356 68.096 68.36 64.958 60.72 60.638 60.7 60.883 66.27 69.193 68.76 68.15 66.36 63.703 63.69 64.85 64.38 64.408 64.305 64.48 64.91 66.8 67.73 67.67 68.095 68.508 68.765 68.803 67.27 65.28 72.623 76.273 76.768 75.888 68.78 71.833 73.725 71.86 69.185 74.523 76.303 74.208 71.935 72.23 71.62 68.405 68.118 69.555 70.978 72.91 71.225 69.025 75.715 76.665 75.95 72.68 67.49 67.403 67.363 73.305 76.065 74.078 70.075 69.09 69.783 69.798 69.96 70.673 70.463 68.605 68.56 69.14 73.813 78.033 77.325 69.57 69.228 69.485 70.018 70.24 69.848 69.265 69.18 69.16 69.153 69.248 67.358 66.98 66.983 66.97 67.233 66.72 66.715 66.68 66.725 66.823 66.265 67.118 68.013 71.13 73.143 73.445 72.263 73.635 74.088 70.045 67.883 68.135 68.028 68.46 67.53 66.625 66.03 65.873 66.578 68.165 68.57 68.418 67.455 66.78 66.133 66.35 66.015 66.435 69.695 74.44 74.24 67.395 67.028 70.183 70.39 67.058 67.938 67.778
61.022 61.514 61.949 62.421 62.061 61.339 61.079 60.666 59.244 58.426 58.091 56.154 55.461 54.819 56.084 57.844 58.891 59.819 58.144 54.851 48.221 47.939 47.069 44.911 43.646 43.594 43.591 43.661 43.709 43.659 43.666 43.624 43.526 43.431 43.499 43.091 41.989 40.164 39.806 38.509 38.094 37.989 37.096 35.314 35.136 35.116 33.659 33.886 34.156 33.494 33.509 33.551 36.714 51.614 51.514 51.634 53.264 53.344 53.341 53.246 51.634 51.414 51.381 50.891 49.469 47.939 45.366 42.551 39.734 36.884 34.779 33.564 35.956 35.986 36.052 36.019 35.986 34.83 31.739 31.514 31.138 31.039 30.864 30.776 30.742 31.633 32.455 32.638 29.774 29.833 -9999 -9999 -9999 28.12 28.134 28.101 28.129 28.122 28.1 28.11 28.144 -9999 28.154 28.148 28.142 -9999 28.119 28.111 28.172 28.676 28.985 28.832 30.836 32.42 31.184 29.805 30.437 33.202 34.037 34.163 34.751 34.978 32.345 31.946 32.031 32.096 32.039 31.881 31.859 31.844 31.894 31.964 35.286 39.051 43.179 50.514 41.954 39.544 39.196 39.229 39.296 39.299 39.719 39.901 40.566 41.326 41.414 41.416 41.566 42.116 41.714 41.621 42.131 41.459 41.469 41.406 41.411 41.426 41.426 41.451 41.496 41.619 47.324 54.171 56.434 56.421 56.401 56.401 56.391 56.379 56.334 57.311 59.614 60.351 60.039 59.766 59.474 59.224 59.004 58.644 56.981 56.116 56.096 56.066 55.574 48.071 47.131 45.909 44.786 44.226 46.806 47.421 46.531 44.984 43.861 44.634 45.544 45.116 45.871 49.546 53.234 54.026 54.486 53.868 53.151 52.478 51.753 51.121 49.358 44.911 44.786 44.826 44.908 44.966 44.991 45.518 45.873 50.436 58.501 58.623 58.656 58.711 58.683 58.673 58.631 58.578 58.078 48.203 46.806 47.356 47.366 47.438 49.466 56.923 57.201 56.811 55.426 52.476 50.561 49.196 49.308 50.071 49.393 50.323 57.638 61.038 62.083 62.511 60.288 53.653 49.251 49.621 50.103 50.101 50.238 50.356 50.423 53.568 53.216 51.631 51.608 51.926 55.521 61.441 63.533 63.488 63.136 62.411 60.673 56.968 54.026 54.598 55.026 54.406 54.631 54.866 55.043 55.236 55.423 55.618 55.811 55.983 56.153 56.366 56.603 56.961 58.316 60.693 64.293 64.526 66.046 66.598 68.571 69.043 68.388 68.518 69.091 68.061 63.631 61.268 64.586 66.848 67.863 68.49 66.735 60.993 60.675 60.725 60.84 64.653 69.38 70.148 69.138 67.808 63.983 62.948 63.158 65.868 65.42 64.413 64.473 64.743 65.89 67.718 67.705 67.645 67.755 67.865 67.655 68.088 67.51 69.995 74.24 73.86 72.538 68.363 69.303 70.533 68.393 67.708 75.213 77.12 75.785 72.458 72.843 70.948 67.565 67.35 69.063 70.263 69.785 69.248 68.37 72.023 73.885 71.105 69.658 67.068 67.005 66.975 73.44 75.13 74.238 70.463 69.148 69.155 69.165 69.08 70.308 70.218 68.323 69.343 69.055 69.395 70.763 70.733 69.64 69.17 69.158 69.12 69.1 69.135 68.138 68.513 67.878 68.735 69.573 67.255 66.753 66.753 66.733 66.798 66.543 66.488 66.515 66.515 66.453 65.733 66.928 67.498 67.743 66.95 67.503 67.683 68.305 68.615 67.708 67.58 67.875 67.83 67.485 65.943 65.41 65.373 65.61 65.628 66.84 67.75 65.983 66.105 65.205 65.663 65.825 65.565 65.685 65.01 66.098 66.993 65.798 64.728 65.623 64.653 65.145 64.51 64.225
57.919 59.894 60.332 60.579 60.446 60.834 61.149 61.991 60.216 59.951 59.529 57.104 56.986 57.619 60.306 59.626 59.714 59.889 59.154 57.294 49.724 47.839 46.951 44.236 43.551 43.499 43.501 43.596 43.604 43.594 43.629 43.526 43.426 43.319 43.391 43.166 42.166 40.509 39.731 38.274 37.836 37.734 37.721 35.369 34.961 34.836 34.561 34.226 33.939 33.539 33.554 33.544 44.039 51.776 51.559 51.919 53.324 53.354 53.331 53.171 51.504 51.489 51.459 51.444 51.424 51.409 51.384 51.331 50.694 49.249 47.664 45.169 43.014 40.327 38.242 37.152 36.142 33.532 31.78 31.427 31.111 30.986 30.851 30.807 30.734 30.767 30.86 30.757 29.447 29.286 -9999 -9999 -9999 28.096 28.137 28.177 28.159 28.144 28.115 28.094 28.084 28.084 -9999 28.126 -9999 -9999 28.336 28.291 28.5 28.823 28.897 30.712 33.218 33.556 33.43 30.989 29.865 30.162 32.416 30.948 31.205 31.93 31.919 32.001 32.119 32.211 32.019 31.884 31.836 31.831 31.914 32.261 37.876 41.016 49.331 50.431 50.181 48.031 40.441 39.209 39.229 39.236 39.361 39.566 39.384 41.334 41.431 41.451 41.644 41.686 41.691 41.581 41.819 41.454 41.426 41.429 41.399 41.431 41.441 41.466 41.706 45.296 49.954 54.604 56.406 56.379 56.381 56.379 56.351 56.331 58.564 60.379 60.141 59.961 59.609 59.351 59.111 58.899 58.674 58.421 58.091 56.126 56.046 56.094 56.149 55.334 45.589 44.194 44.026 44.001 45.186 45.464 44.114 43.584 43.536 43.789 45.716 47.276 50.354 52.231 52.944 53.574 54.264 54.321 53.593 52.898 52.248 51.556 50.891 48.668 45.388 44.933 45.003 45.056 45.063 45.216 46.006 51.318 58.693 58.591 58.641 58.688 58.698 58.641 58.623 58.588 58.448 51.481 46.206 47.631 47.626 47.633 48.428 57.158 59.256 57.231 53.956 50.156 49.131 50.411 50.266 50.763 49.853 51.628 57.158 61.396 62.313 62.706 62.378 57.261 49.798 49.701 50.328 50.351 50.443 50.571 50.648 50.806 51.141 51.528 51.686 52.006 52.328 58.273 63.266 62.893 58.068 56.466 55.043 53.876 54.693 54.238 54.288 54.351 54.591 54.788 54.956 55.173 55.346 55.526 55.743 55.956 56.156 56.466 59.388 60.231 65.678 66.993 67.356 66.951 66.696 66.398 66.208 67.016 67.266 68.208 69.086 68.346 64.203 61.991 63.051 66.616 68.048 68.838 67.933 61.48 60.708 60.728 60.805 62.84 68.773 69.97 70.17 69.103 63.098 61.883 62.705 67.868 68.538 64.43 64.428 65.435 66.285 67.64 67.68 67.755 67.68 67.758 67.718 68.225 67.795 65.878 69.288 69.003 69.058 68.948 67.433 69.838 68.18 68.563 74.958 77.008 76.25 73.138 72.73 72.15 68.975 68.028 70.738 71.075 69.993 68.455 68.348 68.365 67.755 67.788 67.62 66.665 66.603 66.585 69.478 71.368 71.293 70.155 68.878 68.29 68.043 68.018 69.463 69.885 68.255 70.313 69.803 67.893 67.775 68.068 69.605 69.063 69.04 68.963 68.945 69.065 67.345 67.12 67.163 67.618 67.848 67.09 66.52 66.488 66.465 67.083 66.478 66.403 66.293 66.525 66 65.143 65.835 65.378 64.91 64.583 64.67 65.205 65.965 66.468 67 66.688 65.13 66.01 66.385 65.215 65 64.98 65.203 65.623 65.815 65.723 65.678 65.733 65.218 65.775 65.388 64.523 64.718 64.713 64.605 65.365 65.13 64.548 65.315 64.65 65.508 64.79 64.165
50.659 50.509 52.259 55.254 58.134 59.056 59.734 59.706 59.191 59.679 57.566 55.231 55.906 56.364 59.321 59.351 59.476 59.699 60.011 59.821 48.891 47.746 45.916 43.654 43.434 43.409 43.454 43.481 43.536 43.519 43.496 43.414 43.329 43.229 43.264 43.174 42.321 41.169 39.529 38.349 37.786 37.496 37.374 35.711 34.704 34.594 34.596 33.956 34.314 33.556 33.531 33.534 42.964 51.601 51.539 52.244 53.299 53.344 53.344 52.861 51.606 51.591 51.564 51.521 51.484 51.491 51.454 51.449 51.434 51.431 51.414 51.404 51.411 50.455 49.647 48.344 47.185 43.28 38.945 31.324 31.072 30.962 30.835 30.814 30.743 30.84 30.859 30.557 29.335 29.595 -9999 28.086 28.078 28.068 28.104 28.17 28.167 28.15 28.107 28.094 28.041 28.059 28.1 28.127 28.125 -9999 28.474 28.56 28.743 28.915 28.929 30.406 32.652 33.503 32.294 31.178 29.637 29.003 30.477 30.092 31.162 31.459 32.018 32.084 32.204 32.179 31.979 31.899 31.874 31.924 31.984 36.819 39.236 48.296 50.341 49.966 50.541 44.749 42.971 39.229 39.199 39.246 39.266 39.279 39.299 39.546 41.411 41.509 41.491 41.676 41.709 41.749 41.574 41.436 41.394 41.424 41.421 41.441 41.494 41.946 43.779 44.151 45.204 49.414 54.346 56.374 56.339 56.329 56.311 58.651 60.284 60.021 59.734 59.506 59.266 59.014 58.801 58.559 58.281 58.059 57.861 56.809 56.086 56.051 56.079 54.961 49.966 44.854 43.981 43.959 43.919 44.166 44.706 43.589 43.579 43.674 44.854 49.691 51.106 51.761 52.474 53.204 53.859 54.468 54.058 53.341 52.691 51.998 51.333 49.828 46.068 45.023 45.068 45.093 45.133 45.218 45.688 48.873 58.593 58.586 58.631 58.671 58.681 58.683 58.643 58.601 58.573 53.526 46.278 48.056 49.156 55.578 59.083 61.391 60.696 58.273 55.276 50.763 48.821 49.286 50.453 54.438 58.166 58.136 59.656 62.566 62.558 62.568 62.473 62.283 49.496 49.856 50.423 50.508 50.616 50.736 50.821 50.983 51.313 51.966 52.016 52.083 52.276 54.266 57.036 54.418 53.043 53.213 53.398 53.976 53.793 53.963 54.158 54.326 54.513 54.703 54.898 55.066 55.253 55.501 56.531 58.721 61.201 63.313 64.256 64.708 66.676 67.398 67.006 66.366 65.863 65.528 65.206 65.166 66.711 67.928 68.961 68.631 66.226 64.271 64.998 69.293 69.643 69.313 68.225 63.788 60.78 60.738 60.775 61.363 67.89 69.745 70.61 69.113 65.005 62.385 61.97 65.833 66.385 64.415 64.6 66.253 67.833 67.828 67.828 68.108 68.13 68.153 68.115 68.128 67.773 65.875 67.59 66.685 66.675 67.91 67.243 69.895 68.518 68.588 73.408 76.458 76.298 74.255 71.733 70.738 69.06 68.735 71.915 71.208 70.003 68.44 68.225 68.703 67.895 67.768 67.48 66.403 66.208 66.205 68.103 69.818 69.823 69.5 68.1 67.773 67.43 67.388 68.545 67.813 67.68 69.03 69.31 67.9 67.618 67.96 69.193 68.938 68.865 68.84 68.748 68.663 67.12 66.473 66.705 66.695 67.685 67.275 66.09 66.475 65.548 65.943 65.475 67.288 67.403 67.48 65.985 64.613 64.993 64.425 64.323 64.355 64.285 64.235 64.318 65.308 66.043 66.358 64.565 64.293 65.593 64.87 64.765 64.663 64.768 65.358 65.353 64.305 65.235 65.175 64.455 64.338 65.168 63.768 64.065 64.373 64.408 64.615 64.708 64.293 66.223 64.863 64.84 64.183 63.615
50.592 50.547 50.482 50.284 51.084 51.449 53.221 56.211 55.906 57.906 51.681 48.554 48.991 50.431 51.654 53.214 54.519 54.361 55.276 55.799 48.889 47.269 45.539 43.414 43.291 43.361 43.389 43.514 43.586 43.489 43.429 43.364 43.269 43.111 43.086 42.996 42.484 41.531 39.581 38.584 37.941 37.256 37.151 36.334 34.889 34.376 34.226 34.114 35.289 33.706 33.581 33.571 44.136 51.471 51.441 52.536 53.356 53.354 53.336 52.474 51.556 51.586 51.586 51.591 51.579 51.579 51.544 51.584 51.531 51.516 51.509 51.466 51.455 51.446 51.422 51.421 51.423 50.737 41.06 31.5 31.08 30.95 30.845 30.776 30.763 30.859 30.874 30.128 29.638 29.407 -9999 28.103 28.08 28.029 28.048 28.117 -9999 28.136 28.11 28.11 28.086 28.102 28.141 28.144 28.127 28.159 28.482 28.366 28.928 28.845 29.477 29.039 31.283 32.137 32.116 29.356 29.006 29.279 30.023 29.775 30.973 31.334 32.506 32.141 32.441 32.094 31.944 31.901 31.919 31.969 33.391 38.754 43.491 50.026 50.319 50.531 47.354 44.149 44.856 45.934 42.039 39.216 39.214 39.236 39.281 39.301 39.614 41.099 41.434 41.454 41.634 41.441 41.406 41.411 41.439 41.471 41.479 41.504 43.011 44.231 43.974 44.016 44.009 49.149 55.021 56.324 56.319 56.309 56.306 56.939 59.301 59.709 59.426 59.186 58.951 58.704 58.449 58.216 57.966 57.744 57.521 57.066 56.096 55.979 55.979 55.976 55.224 44.414 43.929 43.866 43.839 44.394 43.906 43.624 43.649 44.514 44.356 45.941 50.691 51.341 52.014 52.771 53.444 54.163 54.481 53.833 53.126 52.403 51.773 51.081 49.341 45.568 45.206 45.216 45.243 45.381 46.238 48.553 58.163 58.583 58.643 58.648 58.696 58.713 58.646 58.626 58.616 57.406 49.868 47.921 50.818 55.201 58.148 60.596 61.206 59.048 56.131 53.491 49.433 48.851 49.383 54.528 58.081 58.628 58.863 62.568 62.583 62.591 62.581 62.768 51.783 49.998 50.541 50.708 50.706 50.881 50.968 51.086 51.261 51.596 52.301 52.646 52.323 52.441 52.606 52.788 52.958 53.146 53.351 53.546 53.718 53.926 54.063 54.256 54.426 54.643 54.893 55.103 55.293 55.496 59.258 62.573 63.096 64.488 64.181 63.851 64.596 66.288 65.861 65.471 65.018 64.661 64.243 63.868 65.968 67.648 68.716 68.963 67.641 64.993 65.318 68.083 69.648 69.485 68.528 66.093 60.8 60.77 60.763 61.188 67.06 69.525 70.3 69.34 66.545 62.3 62.713 61.81 65.103 64.95 66.19 68.778 67.465 67.438 67.388 67.2 66.525 66.418 66.533 66.595 66.568 66.178 66.553 66.08 65.883 67.048 67.71 68.553 67.718 67.908 71.238 74.73 72.955 70.613 68.17 67.733 67.818 68.468 69.308 68.35 68.735 68.083 68.043 68.44 67.665 67.603 67.643 66.273 65.82 65.778 66.463 67.665 67.758 67.535 68.058 67.52 67.273 67.363 68.998 68.008 67.443 67.575 68.343 67.615 67.585 69.003 68.305 68.358 67.458 66.945 67.413 67.65 66.268 65.84 65.855 65.828 66.913 66.09 64.71 65.14 64.453 65.353 64.948 67.3 67.398 66.523 65.82 64.34 64.21 64.303 63.993 63.858 64.023 64.075 63.925 64.55 64.205 64.333 63.828 63.895 65.223 64.005 63.865 63.303 63.978 64.308 63.973 63.403 64.653 63.833 63.195 63.445 63.968 63.363 63.755 64.325 64.503 64.09 64.103 63.8 64.48 64.113 64.803 64.103 63.94
50.787 50.634 50.364 50.049 49.561 49.329 49.324 49.581 50.774 52.084 49.539 48.246 48.184 48.111 47.961 47.839 47.751 47.691 47.696 47.574 47.476 46.679 44.199 43.319 43.219 43.291 43.349 43.434 43.579 43.359 43.339 43.249 43.161 43.021 42.891 42.894 42.574 41.751 40.721 39.191 37.881 37.126 36.926 36.741 35.274 34.289 34.031 33.919 33.726 33.594 33.556 33.576 42.391 51.166 51.501 52.744 53.166 53.269 53.311 52.131 51.451 51.461 51.494 51.509 51.514 51.561 51.559 51.599 51.574 51.596 51.599 51.566 51.576 51.538 51.491 51.484 51.469 49.688 39.896 31.523 31.048 30.894 30.826 30.776 30.752 30.779 30.797 29.722 29.006 29.08 28.111 28.11 28.118 28.098 28.09 -9999 -9999 28.11 28.113 28.123 28.135 28.176 28.168 28.111 28.119 28.11 28.233 28.58 28.701 28.844 29.102 28.983 29.089 30.825 30.04 29.187 29.019 30.009 30.101 29.797 31.161 31.344 32.279 32.231 32.231 32.059 31.976 31.924 31.979 32.029 39.099 40.369 48.531 49.976 49.964 50.014 45.234 44.191 44.131 45.436 44.756 39.561 39.209 39.226 39.249 39.256 39.314 39.714 41.619 41.419 41.399 41.389 41.386 41.436 41.469 41.476 41.504 43.241 44.044 44.014 44.001 44.031 50.191 54.406 54.834 56.114 56.304 56.291 56.261 56.216 56.389 59.056 59.106 58.836 58.584 58.361 58.096 57.866 57.621 57.394 57.174 56.931 56.339 56.376 57.104 55.944 55.924 51.714 44.644 43.746 43.759 43.834 43.776 43.724 43.741 44.166 44.944 44.504 48.141 50.951 51.609 52.304 53.026 53.691 54.403 54.253 53.568 52.898 52.146 51.473 50.816 47.258 45.463 45.271 45.321 47.143 48.418 48.326 54.223 58.566 58.618 58.641 58.676 58.753 58.776 58.876 59.026 58.823 50.576 47.211 49.081 53.776 57.071 59.796 61.558 59.893 57.376 54.213 51.263 48.606 49.358 51.986 56.678 58.616 58.698 61.663 62.586 62.576 62.403 59.118 52.601 50.106 50.621 50.843 50.823 50.956 51.078 51.228 51.353 51.511 51.733 51.983 52.176 52.356 52.573 52.746 52.941 53.131 53.286 53.496 53.626 53.768 54.013 54.216 54.426 54.798 55.673 55.153 55.358 55.621 56.988 62.621 62.923 62.501 63.268 64.103 63.521 64.641 64.793 63.511 63.321 63.296 62.703 62.973 64.176 66.536 68.413 68.351 66.711 62.651 61.401 64.968 69.503 69.775 69.035 66.938 60.948 60.773 60.798 60.853 65.105 69.05 70.368 69.858 68.255 64.293 63.655 62.365 64.055 65.598 66.675 67.918 66.15 65.375 65.405 64.93 64.875 64.853 64.858 64.923 64.938 65.248 66.153 65.963 65.905 66.038 67.808 67.078 67.548 68.513 67.868 68.95 67.715 67.545 67.33 67.205 67.213 67.23 67.59 70.41 68.598 68.228 67.98 68.263 67.635 67.475 67.618 65.998 65.418 65.408 66.795 67.648 67.08 67.035 67.375 67.58 67.158 67.17 68.708 67.585 67.278 67.265 68.968 67.685 67.498 69.878 67.53 66.39 66.2 66.123 66.16 66.045 65.515 65.158 65.428 65.245 65.718 64.843 64.008 63.768 63.81 64.175 64.575 65.088 64.553 63.863 64.695 63.823 63.443 63.128 62.965 63.23 62.838 63.545 63.755 63.648 63.093 63.793 63.738 63.478 63.585 62.603 62.468 62.418 63.063 63.698 63.783 63.333 63.708 63.355 63.183 63.465 63.268 63.268 63.173 63.708 63.285 64.598 64.918 63.488 64.423 63.55 64.658 63.333 63.85
50.482 50.372 50.267 49.886 49.521 49.334 49.076 48.856 48.741 48.529 48.361 48.216 48.149 48.139 47.969 47.796 47.759 47.229 47.211 47.579 47.179 45.876 43.366 43.294 43.166 43.221 43.301 43.401 43.446 43.276 43.241 43.179 43.094 42.974 42.854 42.781 42.714 42.101 41.271 39.494 38.499 37.209 36.694 36.554 36.311 34.571 33.854 33.674 33.604 33.591 33.566 33.569 34.351 35.704 36.966 48.429 50.029 51.239 52.239 51.699 51.444 51.429 51.459 51.446 51.446 51.466 51.466 51.504 51.526 51.549 51.576 51.569 51.596 51.568 51.585 51.591 49.959 48.813 35.083 31.138 31.038 30.864 30.788 30.766 30.761 30.83 30.779 29.815 29.245 -9999 28.101 28.097 28.127 28.157 28.144 28.141 -9999 28.104 28.1 28.107 28.144 28.167 28.19 28.163 28.117 28.106 28.144 28.282 28.571 28.864 28.979 28.928 28.934 28.966 28.998 29.006 29.363 30.204 30.023 30.47 32.428 31.611 32.031 32.274 32.179 32.019 31.984 31.919 32.111 35.951 41.754 45.141 50.006 50.001 50.001 50.009 49.041 47.624 44.459 44.259 44.796 48.291 42.879 39.204 39.216 39.239 39.276 39.616 41.566 41.521 41.401 41.426 41.459 41.454 41.481 41.471 41.486 42.166 44.551 44.004 43.996 46.094 51.131 54.474 53.644 52.954 55.356 56.246 56.219 56.186 56.201 56.639 58.791 58.501 58.249 57.996 57.771 57.511 57.269 57.046 56.816 56.626 58.641 60.881 62.289 56.189 55.939 55.116 44.686 43.631 43.689 43.734 43.746 43.756 43.791 43.941 43.966 44.076 45.261 49.719 51.234 51.891 52.641 53.341 54.026 54.546 54.006 53.311 52.623 51.916 51.248 49.228 45.468 45.406 45.418 46.673 48.111 48.588 52.196 58.583 58.671 58.761 58.943 59.068 59.283 59.488 59.701 59.903 55.771 46.641 47.983 52.686 55.888 58.946 61.276 60.751 58.331 55.011 51.218 49.883 49.766 54.448 56.626 58.608 58.596 61.496 62.573 62.583 62.591 62.601 54.138 50.213 50.816 50.868 50.853 50.966 51.166 51.308 51.421 51.656 51.801 51.966 52.168 52.366 52.538 52.693 52.881 53.058 53.228 53.366 53.551 53.773 54.253 54.208 54.708 60.631 63.311 57.946 55.461 55.648 56.103 59.073 62.823 62.908 62.508 63.996 63.308 61.363 61.283 58.326 59.966 61.348 60.831 62.676 63.378 64.608 65.328 63.146 63.298 63.541 63.633 65.898 68.153 69.193 69.118 67.775 62.848 60.79 60.805 60.83 63.098 68.74 69.91 70.04 68.863 66.06 63.77 63.408 62.93 63.693 64.148 64.455 65.225 65.81 65.7 65.06 65.018 64.933 64.943 64.935 64.938 65.028 65.52 65.653 65.418 65.675 66.3 66.993 68.445 67.59 67.635 68.19 67.615 67.215 67.2 67.175 67.12 67.07 67.203 68.258 69.943 71.81 68.95 68.248 67.558 67.263 67.683 67.065 65.003 65.015 65.878 65.995 65.845 66.395 67.428 67.428 66.905 66.77 66.928 67.085 67.07 67.14 68.593 67.55 67.275 68.845 67.335 66.495 65.99 66.018 65.765 65.675 65.05 64.265 64.075 64.173 64.528 63.988 63.208 63.063 63.125 63.245 63.353 63.25 62.948 63.048 63.675 63.765 62.415 62.265 62.253 62.233 62.58 62.825 61.995 62.12 61.93 61.92 62.078 62.86 63.953 62.123 61.92 61.855 61.868 62.165 62.833 62.585 62.93 63.253 63.605 63.87 63.53 63.153 62.81 63.195 62.763 63.69 63.988 63.003 64.545 64.05 64.318 63.22 63.223
49.559 49.502 49.344 49.101 49.141 49.186 48.976 48.806 49.016 48.486 48.319 48.231 48.196 47.849 47.464 46.976 47.009 46.124 45.766 45.669 45.599 44.304 43.274 43.151 43.161 43.194 43.246 43.539 43.339 43.246 43.156 43.121 43.019 42.929 42.799 42.694 42.686 42.366 41.559 40.464 39.399 37.199 36.706 36.336 36.186 35.931 34.426 33.584 33.574 33.576 33.581 33.569 33.609 40.261 42.476 47.201 47.626 47.596 43.061 35.926 41.184 42.394 47.569 51.549 51.516 51.099 51.411 51.439 51.431 51.446 51.449 51.476 51.468 51.49 51.518 51.553 51.565 49.172 33.15 31.115 31.033 30.859 30.793 30.804 30.794 30.993 30.804 29.337 29.239 -9999 28.168 28.076 28.073 28.144 28.161 28.161 28.142 28.113 28.102 28.089 28.126 28.151 28.172 28.176 28.135 28.112 28.146 28.269 28.669 28.871 28.928 28.904 28.644 28.717 28.772 28.933 29.743 30.177 30.204 30.166 31.564 31.439 31.696 32.571 32.134 32.031 31.984 31.976 33.489 39.659 45.169 49.966 50.011 50.029 50.036 50.009 49.969 50.026 47.684 45.519 44.356 44.146 44.434 39.214 39.194 39.206 39.229 39.314 41.186 41.004 41.581 41.474 41.464 41.476 41.509 41.489 41.539 45.754 46.741 44.281 43.951 43.944 45.646 45.661 45.944 49.549 52.834 56.084 56.211 56.136 55.926 56.126 56.434 58.046 57.936 57.684 57.431 57.206 56.964 56.721 56.554 60.259 62.889 62.829 62.826 60.686 54.991 53.151 50.201 43.939 43.649 43.674 43.744 43.799 43.854 43.899 44.019 44.124 44.224 47.191 50.821 51.476 52.159 52.908 53.541 54.236 54.426 53.736 53.068 52.343 51.683 50.256 47.148 45.461 45.521 45.963 48.638 48.846 50.391 58.288 59.143 59.336 59.501 59.716 59.903 60.071 60.218 60.021 58.401 49.276 48.096 51.463 54.766 58.151 60.536 61.293 59.118 56.038 53.988 58.931 58.296 56.533 56.971 59.953 62.553 62.556 62.603 62.588 62.568 62.583 58.868 50.403 50.808 50.841 50.868 50.998 51.141 51.286 51.468 51.646 51.811 51.996 52.166 52.281 52.443 52.573 52.801 52.973 53.141 53.341 54.516 54.228 59.876 61.028 62.781 64.543 65.013 60.516 55.883 55.723 55.898 57.588 62.126 62.996 62.323 62.496 62.113 61.223 61.223 60.206 61.073 61.018 60.453 61.643 62.221 62.586 63.208 62.973 64.048 63.863 62.696 66.231 67.503 68.89 69.348 68.298 65.06 60.803 60.775 60.825 62.118 67.49 69.728 70.353 69.53 68.65 63.225 62.368 62.36 63 63.878 64.383 64.725 65.593 65.938 65.545 64.93 64.943 64.938 64.938 64.928 65.093 66.31 65.67 65.43 65.425 65.763 66.808 67.903 67.34 67.663 68.445 67.805 67.195 67.175 67.133 67.063 67.05 67.055 67.37 68.425 70.175 68.283 68.113 67.43 67.24 67.548 66.145 64.61 64.6 64.798 65.733 65.57 66.025 66.055 66.713 66.52 66.088 66.498 66.973 67.128 68.043 67.17 67.195 67.183 67.59 66.935 66.423 66.005 65.805 65.453 65.045 65.163 63.65 63.43 64.038 64.073 63.223 62.843 62.923 62.618 62.855 62.498 62.2 61.933 62.183 62.945 62.575 61.725 61.938 61.603 61.553 61.838 61.433 61.515 61.54 61.45 61.465 62.293 65.6 64.288 61.433 61.403 61.368 61.525 61.86 62.413 62.043 62.11 63.615 62.895 62.853 62.613 62.315 62.085 63.358 62.478 63.308 63.703 62.735 65.26 64.583 63.593 63.33 62.88
48.614 48.519 48.344 48.479 48.231 48.439 48.561 48.534 48.439 48.339 48.199 48.059 47.756 47.321 46.629 45.969 45.426 44.936 44.579 44.544 45.006 43.234 43.241 43.086 43.091 43.174 43.224 43.461 43.296 43.151 43.076 42.996 42.951 42.856 42.736 42.589 42.589 42.526 42.096 41.184 39.801 39.099 36.954 36.254 35.996 35.816 35.506 34.064 33.589 33.571 33.546 33.596 33.601 42.684 48.534 48.579 48.486 48.256 45.926 37.209 33.449 33.444 33.644 33.079 33.359 40.356 41.086 44.781 48.699 50.606 51.166 51.424 51.412 51.439 51.456 51.45 51.457 44.825 31.672 31.104 31.006 30.809 30.745 30.945 30.789 30.922 30.767 29.244 29.348 -9999 -9999 28.09 28.095 28.131 28.162 28.162 28.155 28.124 28.111 28.086 28.131 28.151 28.181 28.177 28.154 28.143 28.147 28.271 28.584 28.708 28.686 28.558 28.404 28.527 28.638 29.1 30.575 30.676 30.214 30.556 31.951 31.314 31.931 32.304 32.099 32.049 31.994 32.066 36.554 42.014 49.019 50.016 50.066 50.041 50.061 50.039 49.976 49.969 49.949 47.934 45.136 44.366 44.214 42.816 40.189 39.186 40.001 40.306 39.441 39.966 40.721 41.489 41.479 41.486 41.494 41.559 42.066 44.141 46.029 44.046 43.984 43.946 43.929 43.914 44.219 47.571 49.401 52.799 55.581 56.141 56.149 56.111 56.106 56.714 57.474 57.346 57.099 56.884 56.649 57.051 61.201 62.884 62.814 62.811 62.796 62.789 54.634 51.941 51.556 45.599 43.584 43.694 43.776 43.859 43.906 43.926 44.039 44.179 44.464 44.866 49.704 51.039 51.711 52.413 53.153 53.823 54.526 54.201 53.478 52.793 52.088 51.471 46.963 45.583 45.593 45.628 48.278 48.628 48.258 56.238 59.768 59.988 60.101 60.111 60.098 59.783 59.673 59.161 56.881 47.943 47.191 49.293 54.038 56.993 59.743 61.563 59.971 57.391 54.986 57.966 59.201 57.761 58.363 60.831 62.551 62.611 62.593 62.571 62.593 62.718 57.583 50.473 50.686 50.726 50.791 50.936 51.086 51.276 51.453 51.573 51.798 51.961 52.046 52.206 52.398 52.561 52.773 53.013 56.251 57.738 59.963 62.736 63.173 64.513 65.161 65.446 65.521 64.816 56.708 55.846 56.018 56.346 60.553 62.231 62.013 61.938 62.196 61.911 60.666 61.978 61.021 61.208 62.703 61.463 62.228 62.613 63.401 63.366 63.058 63.136 61.851 62.071 65.528 68.633 69.683 68.685 65.265 60.898 60.81 60.785 61.165 66.68 68.94 70.223 69.633 68.7 63.813 61.39 62.35 63.128 64.253 64.21 64.44 65.04 65.318 66.318 64.925 64.938 64.938 64.928 64.933 64.953 65.235 65.633 65.408 65.385 65.595 67.053 66.85 67.195 68.815 68.895 68.918 67.635 67.108 67.063 67.035 67.018 67.155 67.065 67.218 67.918 67.76 68.068 67.56 67.038 67.298 66.553 64.228 64.213 64.465 65.945 64.873 64.82 64.998 67.415 66.073 65.318 65.98 67.54 68.595 69.15 66.9 67.698 67.208 67.648 66.788 65.38 65.268 65.17 64.678 64.498 64.278 63.18 63.205 63.253 63.235 63.823 62.08 61.998 61.87 61.853 61.768 61.57 61.425 61.403 62.228 61.363 61.095 62.913 61.4 61.07 60.91 60.76 60.943 61.205 60.87 60.78 65.65 68.338 66.815 62.055 60.928 60.953 60.95 61.303 62.17 61.805 61.94 62.863 62.84 62.063 61.83 61.65 61.775 63.213 61.948 63 63.49 62.153 63.835 63.468 63.055 63.053 63.165
47.634 47.579 47.434 47.291 47.286 47.361 47.521 47.614 47.574 47.376 47.466 47.466 47.369 47.021 46.609 45.969 45.451 44.749 43.931 43.386 43.239 43.194 43.079 43.059 43.076 43.126 43.134 43.256 43.126 43.049 42.984 42.901 42.884 42.771 42.676 42.549 42.494 42.526 42.349 41.699 40.489 39.371 37.936 36.744 35.809 35.631 35.464 35.281 34.299 33.726 33.546 33.576 33.604 43.651 48.491 48.599 48.659 48.599 48.519 42.479 33.394 33.094 33.411 33.321 32.499 32.361 32.216 32.754 32.691 33.564 37.936 40.664 46.9 47.999 48.81 51.224 50.984 42.261 31.529 31.064 30.956 30.807 30.78 30.802 30.889 30.937 30.362 29.835 29.619 -9999 -9999 -9999 28.101 28.115 28.159 28.164 28.176 28.16 28.125 28.109 28.171 28.183 28.188 28.185 28.164 28.161 28.173 28.395 28.483 28.453 28.471 28.306 28.365 28.584 28.916 29.867 31.376 30.669 30.523 30.501 31.379 31.404 32.194 32.226 32.121 32.049 31.986 32.859 39.336 46.746 49.999 50.026 52.041 50.574 50.164 50.064 50.041 50.024 49.986 50.006 49.476 47.114 44.379 44.126 42.991 40.844 41.454 42.041 40.219 39.214 39.379 40.261 41.474 41.461 41.566 42.119 42.614 43.029 43.746 44.079 43.949 43.894 43.919 43.909 43.946 43.984 49.226 52.381 53.706 55.534 56.089 56.094 56.051 56.019 56.411 56.964 56.786 56.564 58.949 62.821 62.846 62.831 62.831 62.801 62.751 62.746 61.441 56.539 51.971 49.846 43.451 43.691 43.806 43.886 43.961 44.024 44.126 44.301 45.481 45.146 46.044 50.534 51.304 51.988 52.741 53.388 54.096 54.503 53.951 53.321 52.538 51.868 49.901 45.633 45.658 45.716 46.931 48.643 48.736 54.541 60.131 59.943 59.733 59.631 58.826 57.751 56.671 55.861 55.888 52.661 46.973 47.973 52.658 56.103 58.873 61.218 60.788 58.398 55.006 56.828 60.121 58.731 59.568 60.798 62.438 62.591 62.648 62.971 56.548 52.828 51.568 50.461 50.563 50.701 50.841 50.946 51.088 51.241 51.411 51.566 51.741 51.888 52.071 52.538 55.088 53.976 55.353 60.318 61.418 62.846 63.323 63.771 63.961 64.681 65.441 65.031 64.553 63.931 57.826 55.911 56.171 56.703 59.453 61.793 61.878 61.721 62.053 62.078 61.561 61.528 62.496 62.678 63.236 63.181 62.461 63.403 63.638 63.298 63.186 63.313 62.633 62.248 66.128 68.358 69.563 68.853 66.83 61.03 60.783 60.785 60.968 65.863 68.978 70.118 69.9 68.928 64.86 61.45 62.738 63.395 63.353 63.815 64.265 64.663 65.445 65.723 64.955 64.935 64.95 64.94 64.94 64.943 65.18 65.715 65.6 65.345 65.675 66.428 66.08 67.295 67.445 67.705 68.523 67.363 67.025 67.02 67.23 68.238 69.333 67.288 67.128 67.8 68.32 67.868 69.05 65.458 66.255 66.62 63.863 63.808 63.813 65.8 64.575 64.483 64.473 65.88 64.4 64.38 65.963 69.723 70.363 69.498 67.15 67.91 66.493 65.72 66.43 65.45 64.27 64.04 63.953 63.748 63.205 62.678 62.71 62.303 62.603 62.933 61.6 61.488 61.398 61.34 61.183 61.173 61.16 61.06 61.668 61.315 60.405 60.478 59.513 59.758 59.755 59.985 59.805 59.85 59.935 59.953 62.738 67.163 66.693 61.28 60.535 60.545 60.55 60.885 61.788 61.555 61.65 61.9 61.808 61.838 61.78 61.463 61.625 62.515 61.635 62.823 63.475 63.233 63.633 63.345 63.038 62.63 63.49
46.562 46.567 46.517 46.399 46.314 46.319 46.436 46.394 46.569 45.989 46.016 46.184 46.384 46.041 45.721 45.694 44.926 44.154 43.464 43.319 43.266 43.104 43.036 43.069 43.104 43.111 43.109 43.119 43.014 42.961 42.924 42.851 42.791 42.726 42.634 42.569 42.354 42.389 42.351 42.106 41.279 40.089 39.249 38.379 36.496 35.626 35.344 35.126 34.884 34.804 33.946 33.671 35.316 46.231 48.524 48.639 48.671 48.596 48.529 37.694 32.996 32.989 32.974 32.944 32.416 32.274 32.156 32.354 33.016 31.874 35.259 35.969 36.086 36.141 37.842 40.802 37.771 36.406 31.528 31.083 30.929 30.809 30.79 30.719 30.985 30.871 29.945 29.547 29.557 -9999 -9999 -9999 28.118 28.094 28.165 28.179 28.217 28.22 28.139 28.145 28.136 28.14 28.173 28.149 28.161 28.204 28.218 28.332 28.286 28.272 28.265 28.218 28.43 28.77 29.352 31.091 31.52 31.196 30.809 31.001 31.081 31.844 32.449 32.186 32.109 32.064 32.094 35.021 41.876 49.319 50.001 50.944 53.816 53.416 51.521 50.376 50.069 50.024 50.009 49.964 50.001 49.074 46.129 44.334 44.284 44.314 42.896 41.629 41.749 40.631 39.389 39.434 43.016 41.939 42.194 42.674 43.069 43.731 44.011 43.986 43.909 43.836 43.861 43.866 43.926 43.934 45.446 51.839 52.394 53.986 55.576 56.029 56.011 55.994 55.971 56.289 56.621 60.779 62.856 62.834 62.819 62.799 62.771 62.766 62.726 62.714 62.714 58.976 52.464 51.511 45.441 43.574 43.799 43.941 44.044 44.136 44.254 44.326 44.726 45.526 44.839 47.856 50.959 51.546 52.293 53.008 53.718 54.428 54.343 53.698 52.986 52.301 50.426 47.113 45.756 45.763 45.946 49.033 50.876 54.233 59.248 58.313 57.643 56.253 55.308 55.691 55.621 55.636 55.633 52.666 48.141 48.016 50.436 54.738 58.053 60.486 61.468 59.278 58.731 61.496 59.791 60.113 60.498 60.256 60.058 60.651 51.936 50.221 50.296 50.206 50.308 50.401 50.546 50.688 50.843 50.943 51.051 51.201 51.353 51.538 51.806 55.476 58.216 58.848 61.358 62.096 62.361 62.803 63.278 63.806 63.921 63.448 62.361 62.201 64.421 63.956 63.203 62.721 55.788 56.021 56.343 56.703 58.306 61.373 61.803 60.751 60.663 62.566 62.866 61.831 63.446 63.426 63.591 63.963 63.151 63.218 63.318 63.428 63.293 63.881 65.343 66.578 66.651 68.1 69.15 69.158 67.893 62.438 60.768 60.745 60.81 62.863 68.718 69.968 70.415 69.163 66.5 61.113 61.668 62.62 63.303 63.63 64.068 64.863 65.865 66.325 65.128 64.92 64.948 64.943 64.958 64.963 65.003 65.91 65.938 65.375 65.623 66.155 66.058 67.125 67.093 67.16 68.75 67.703 67.135 67.085 67.01 68.308 67.893 67.015 67.028 67.968 69.1 68.193 68.29 64.89 65.455 66.485 63.508 63.44 63.363 63.943 64.298 64.178 64.01 64.993 63.848 64.26 65.585 67.09 70.63 69.575 64.858 64.48 64.215 64.5 65.553 65.283 63.288 63.26 63.055 62.758 62.523 62.06 61.738 61.563 61.838 61.683 61.863 61.023 60.905 60.848 60.82 60.823 60.783 60.683 61.553 61.115 59.768 59.018 58.775 58.743 58.755 58.923 59.045 59.128 58.83 58.658 59.285 64.67 64.233 60.135 60.135 60.083 60.053 60.59 61.31 61.423 61.403 61.605 61.488 61.788 61.638 61.353 61.3 61.948 61.543 63.025 62.703 62.528 62.333 61.95 61.63 62.275 62.17
45.799 45.737 45.654 45.599 45.489 45.396 45.509 45.609 45.441 44.866 44.711 45.026 45.701 44.844 44.716 44.841 43.911 43.544 43.326 43.234 43.119 43.074 43.079 43.109 43.126 43.104 43.074 43.084 42.961 42.871 42.776 42.726 42.716 42.671 42.546 42.444 42.284 42.236 42.271 42.209 41.821 40.826 39.864 39.036 38.401 36.506 35.546 34.984 34.789 34.544 34.294 34.146 37.036 48.619 48.554 48.634 48.686 48.554 48.491 33.906 33.001 32.834 32.676 32.529 32.374 32.244 32.114 32.116 33.514 32.404 32.016 32.896 33.841 34.521 35.538 35.316 31.968 31.547 31.155 31.039 30.903 30.81 30.761 30.705 30.972 30.89 29.778 29.591 -9999 -9999 -9999 28.151 28.138 28.138 28.166 28.215 28.224 28.207 28.129 28.144 28.162 28.189 28.182 28.111 28.148 28.168 28.127 28.195 28.188 28.175 28.186 28.203 28.512 29.079 30.463 30.769 31.171 30.813 30.797 30.927 31.416 32.126 32.319 32.136 32.106 32.094 32.511 37.936 43.581 50.006 50.014 52.104 53.716 53.476 53.244 52.251 51.119 50.511 50.024 50.014 49.991 49.999 50.214 48.456 45.169 44.169 45.144 45.611 41.914 40.976 39.449 41.214 44.216 43.751 42.769 43.114 43.716 44.014 44.006 43.936 43.839 43.831 43.819 43.851 43.891 43.909 43.934 44.591 48.166 52.366 53.589 56.026 56.006 56.004 55.949 58.259 61.379 62.826 62.826 62.809 62.784 62.776 62.756 62.721 62.721 62.696 62.741 57.399 52.481 43.526 43.606 43.799 43.959 44.079 44.166 44.261 44.341 44.426 44.546 44.626 44.864 45.506 49.909 51.193 51.861 52.556 53.248 53.963 54.563 54.116 53.388 52.758 51.656 49.203 47.626 50.476 49.788 55.473 55.763 54.728 55.923 55.463 55.161 55.363 55.253 55.836 55.643 55.686 55.676 55.641 48.211 47.681 48.993 53.668 56.788 59.598 61.516 60.786 71.311 74.368 62.646 59.848 59.276 56.143 52.948 49.748 49.898 49.968 50.026 50.148 50.223 50.373 50.518 50.646 50.783 50.921 51.056 51.181 51.403 51.841 61.091 61.841 62.466 62.838 63.221 63.356 63.258 63.506 62.933 62.186 62.118 61.691 61.023 60.231 60.113 58.308 58.441 56.801 55.973 56.271 56.543 56.841 58.813 61.318 61.011 60.096 60.028 62.131 63.448 62.848 63.011 65.181 64.826 63.638 64.391 63.946 63.473 63.538 63.426 64.083 65.068 61.596 62.148 67.528 68.913 69.425 68.365 64.655 60.825 60.725 60.71 61.645 67.845 69.558 70.188 69.378 68.255 63.735 61.928 63.678 64.015 64.618 65.225 66.478 65.96 65.995 65.555 64.903 64.945 64.945 64.928 64.933 64.948 65.568 65.828 65.423 65.305 65.6 66.328 67.065 67.813 67.1 67.893 67.293 67.168 66.843 66.62 66.285 65.58 65.498 65.228 65.288 66.898 65.6 65.728 64.5 64.425 66.538 64.293 62.983 62.96 63.93 64.418 64.128 63.625 64.86 64.193 64.263 63.968 65.318 65.408 65.158 63.838 63.82 63.445 63.293 64.19 64.423 62.723 62.315 62.145 61.98 61.928 61.55 60.983 60.895 61.198 60.89 60.925 60.588 60.498 60.398 60.458 60.37 60.18 61.28 61.5 60.463 59.098 58.7 58.665 58.668 58.68 58.83 58.803 58.605 58.608 58.623 58.668 61.265 62.68 59.72 59.69 59.67 59.653 60.13 60.808 61.113 61.733 62.238 61.598 61.815 61.34 61.048 60.84 61.663 62.028 62.22 61.5 61.553 61.335 61.2 61.168 60.353 60.015
45.592 45.487 45.369 45.259 45.134 44.979 44.869 44.781 44.609 44.444 44.309 44.221 44.136 44.109 43.949 43.791 43.499 43.356 43.231 43.154 43.086 43.076 43.081 43.084 43.124 43.116 43.044 43.014 42.894 42.824 42.749 42.704 42.661 42.546 42.484 42.381 42.279 42.181 42.111 42.146 42.044 41.331 40.516 39.446 39.021 38.831 36.951 35.806 34.694 34.481 34.271 34.054 39.824 48.231 48.566 48.681 48.661 48.544 43.426 33.191 32.979 32.824 32.666 32.504 32.336 32.191 32.124 31.916 31.826 31.759 31.691 31.637 31.641 31.669 32.013 32.193 31.757 31.475 31.158 31.046 30.884 30.805 30.802 30.78 30.982 30.816 29.145 28.911 -9999 -9999 -9999 -9999 28.185 28.196 28.203 28.182 28.215 28.204 28.156 28.165 28.176 28.187 28.137 28.101 28.127 28.1 28.114 28.169 28.16 28.192 28.139 28.334 28.761 29.776 30.891 30.656 30.524 30.777 30.778 31.304 31.654 32.426 32.266 32.209 32.096 32.109 34.309 39.746 48.526 50.001 50.059 53.479 53.639 53.379 53.174 52.911 52.776 51.736 51.244 50.036 50.039 50.009 49.986 49.896 47.521 44.966 44.816 44.474 43.699 39.884 41.171 43.481 44.164 44.151 43.976 43.826 44.014 44.044 44.019 43.896 43.814 43.799 43.801 43.846 43.889 43.901 43.884 44.199 49.424 52.339 52.499 53.896 55.971 55.941 55.929 59.759 62.841 62.831 62.816 62.776 62.751 62.754 62.741 62.731 62.684 61.374 56.249 48.321 43.536 43.666 43.806 43.941 44.071 44.181 44.281 44.381 44.469 44.544 44.641 44.726 44.986 45.066 47.341 50.398 51.446 52.101 52.793 53.481 54.238 54.508 53.846 53.188 52.891 54.448 54.556 55.766 55.748 55.763 55.851 55.216 54.103 55.153 55.311 56.096 55.693 56.041 55.676 55.678 55.713 55.501 52.598 47.803 48.796 52.443 55.758 58.846 59.871 58.846 68.463 68.803 59.603 53.596 49.796 49.468 49.518 49.623 49.738 49.818 49.961 50.108 50.233 50.343 50.473 50.598 50.791 50.938 52.913 54.713 51.721 53.038 59.921 63.238 63.838 64.196 63.908 63.946 62.643 61.858 61.421 61.018 60.753 59.783 58.708 57.823 57.131 56.543 55.866 56.003 56.238 56.523 56.788 57.051 60.586 61.298 62.716 60.931 60.386 61.473 62.986 63.491 62.961 63.533 63.458 63.913 65.306 65.693 64.243 63.583 63.538 63.641 64.481 63.888 62.593 67.495 69.035 69.485 68.623 66.26 61.82 60.66 60.61 60.968 66.858 69.263 70.175 69.645 68.708 64.235 63.235 64.99 63.773 63.263 64.525 66.123 66.44 65.65 66.185 65.04 64.878 64.89 64.89 64.913 64.923 64.953 65.645 65.308 65.253 65.59 65.5 66.965 66.813 66.813 66.95 65.745 65.073 64.56 64.568 64.443 64.373 64.38 64.163 64.225 64.423 64.08 64.02 63.993 63.963 65.175 63.545 62.595 62.53 62.78 63.193 63.143 63.445 64.453 63.405 63.403 63.358 64.18 63.408 62.858 62.813 62.833 62.793 62.72 63.625 63.575 62.188 61.925 61.583 61.273 61.208 60.913 60.575 60.54 60.56 60.518 60.305 60.22 60.133 60.045 60.015 60.173 61.253 60.045 60.135 60.115 58.933 58.685 58.618 58.618 58.675 59.238 59.42 58.62 58.613 58.63 58.675 59.083 60.728 59.363 59.268 59.27 59.298 59.87 60.22 60.67 61.205 61.148 60.885 60.928 60.848 61.05 61.298 61.328 60.958 61.06 60.778 61.15 61.595 59.54 59.09 58.578 58.493
45.447 45.377 45.237 45.114 45.024 44.846 44.691 44.609 44.461 44.334 44.179 44.041 43.886 43.786 43.684 43.574 43.384 43.279 43.221 43.166 43.136 43.081 43.056 43.064 43.071 43.051 42.991 42.924 42.836 42.756 42.721 42.639 42.544 42.479 42.414 42.311 42.286 42.131 42.061 41.954 41.956 41.864 41.614 41.386 43.071 42.511 38.924 38.106 36.686 35.876 34.794 34.031 43.346 48.516 48.566 48.671 48.636 48.546 43.846 33.309 32.944 32.799 32.629 32.456 32.294 32.199 32.294 31.871 31.726 31.654 31.596 31.525 31.465 31.41 31.373 31.486 31.402 31.251 31.058 30.981 30.857 30.795 31.093 31.228 30.97 30.78 29.208 28.969 28.757 28.298 28.195 28.199 28.231 28.255 28.229 28.125 28.186 28.209 28.192 28.185 28.191 28.198 28.154 28.167 28.122 28.124 28.138 28.11 28.183 28.171 28.196 28.513 29.139 33.136 33.533 31.076 30.566 30.688 31.267 31.519 31.756 32.41 32.241 32.206 32.099 32.181 35.876 40.509 48.041 49.996 50.501 53.784 53.546 53.309 53.081 52.851 52.451 52.336 52.141 52.846 50.301 50.036 50.001 49.996 50.121 49.059 46.864 44.521 45.434 44.649 43.799 44.151 44.264 44.209 44.109 44.249 44.016 44.004 43.964 43.881 43.824 43.796 43.801 43.831 43.856 43.874 43.901 43.919 45.646 48.889 52.124 52.314 54.166 55.924 55.941 56.526 61.239 62.784 62.769 62.754 62.754 62.739 62.709 61.961 60.904 53.829 44.981 43.434 43.706 43.829 43.954 44.049 44.181 44.289 44.384 44.489 44.581 44.671 44.746 44.854 45.249 45.734 45.531 49.496 50.981 51.691 52.376 53.101 53.801 54.478 54.311 54.466 55.578 55.773 55.778 55.821 55.976 56.211 56.503 56.783 55.116 56.126 56.496 56.588 55.861 56.031 55.738 55.773 55.813 55.891 54.243 48.351 48.571 50.801 54.241 50.843 48.946 49.678 54.328 51.786 49.058 49.171 49.261 49.383 49.506 49.568 49.718 49.858 49.976 50.081 50.193 50.371 50.978 51.363 54.226 59.811 60.478 61.053 53.648 52.433 57.973 63.941 63.801 63.773 63.111 62.696 61.736 60.866 59.798 57.896 56.388 57.038 56.003 55.648 56.371 57.753 56.063 56.173 56.471 56.913 57.066 57.393 60.103 62.541 62.196 63.101 62.201 62.693 63.138 63.543 63.318 63.636 63.688 64.003 65.203 69.553 69.186 64.456 63.816 65.148 65.458 65.856 64.133 66.528 68.953 69.835 69.005 67.775 62.788 60.573 60.543 60.768 65.038 69.003 70.455 70.033 69.088 66 63.465 62.325 62.975 63.118 64.533 65.728 66.428 66 65.978 65.758 64.875 64.893 64.92 64.933 64.923 64.978 65.408 65.255 65.195 66.143 65.773 65.813 66.415 66.12 65.793 64.353 64.293 64.255 64.28 64.733 64.18 64.12 64.053 63.815 64.4 64.47 63.845 63.698 63.56 64.9 63.545 62.195 62.12 62.263 62.845 62.748 62.618 64.02 62.955 63.253 62.925 63.19 64.445 63.278 62.418 62.39 62.353 63.448 63.695 62.82 61.86 61.958 60.818 60.743 60.548 60.558 60.315 60.328 60.198 60.11 60.223 59.943 59.823 59.94 60.22 59.88 60.295 59.685 59.788 59.898 58.835 58.648 58.595 58.573 58.59 58.653 58.735 58.59 58.583 58.585 58.585 59.8 60.833 59.113 58.895 58.898 58.898 59.03 60.028 60.258 60.41 60.913 60.65 60.218 60.753 61.523 60.73 60.345 60.313 60.128 59.823 59.308 58.695 58.565 60.58 58.258 58.363
45.417 45.357 45.207 45.064 44.939 44.771 44.644 44.531 44.394 44.239 44.114 43.949 43.831 43.694 43.534 43.444 43.334 43.234 43.191 43.206 43.121 43.096 43.039 43.014 43.071 42.986 42.939 42.851 42.776 42.684 42.614 42.504 42.489 42.419 42.324 42.251 42.224 42.116 41.994 41.914 41.809 41.786 41.691 41.656 45.286 39.616 39.141 40.144 38.864 37.896 36.806 36.256 44.861 48.534 48.601 48.689 48.604 48.521 42.184 33.024 32.944 32.774 32.854 32.569 32.354 32.174 31.984 31.859 31.766 31.636 31.549 31.48 31.386 31.316 31.289 31.227 31.156 31.099 30.992 30.903 30.827 30.803 30.761 31.004 30.917 30.173 29.658 29.26 28.523 28.2 28.188 28.213 28.197 28.261 28.184 28.127 28.15 28.2 28.179 28.123 28.147 28.182 28.157 28.18 28.192 28.129 28.159 28.175 28.156 28.183 28.283 28.692 30.329 36.219 36.917 33.696 30.947 32.302 32.625 32.868 32.473 32.511 32.241 32.203 32.134 32.256 39.046 43.359 49.981 50.036 52.546 53.726 53.469 53.226 52.996 52.776 53.301 53.144 52.016 53.629 53.334 51.856 50.301 50.024 50.001 50.006 48.541 45.306 44.274 44.334 44.619 44.666 45.479 44.596 44.206 44.106 44.004 43.994 43.961 43.899 43.871 43.831 43.766 43.784 43.824 43.861 43.881 43.884 43.926 45.421 50.654 52.366 52.346 54.506 55.786 55.921 57.941 62.596 62.751 62.731 62.724 62.694 62.731 57.789 48.614 44.284 43.529 43.666 43.779 43.909 44.001 44.149 44.254 44.381 44.534 44.591 44.666 44.811 45.056 45.281 45.496 45.339 45.331 46.446 50.638 51.296 51.971 52.661 53.346 53.788 55.721 55.781 55.821 55.973 56.196 56.458 56.703 56.991 57.258 57.548 57.291 57.833 58.156 57.678 55.863 55.863 55.916 55.883 55.893 55.876 55.851 49.333 48.606 49.403 51.021 49.641 48.786 48.956 48.991 49.161 49.248 49.131 49.266 49.376 49.493 49.603 49.728 49.818 49.968 50.166 50.566 52.613 55.391 57.486 62.403 62.906 63.436 63.838 57.683 52.048 52.116 61.533 62.731 62.346 61.446 60.601 59.301 57.113 55.876 55.313 55.201 55.846 55.911 56.526 55.993 57.053 55.988 56.283 56.903 58.053 57.551 58.488 61.598 61.266 62.343 64.533 63.326 63.473 63.491 63.566 63.908 63.831 63.363 63.736 67.636 70.043 70.238 68.621 68.091 68.683 66.466 64.336 65.571 62.908 69.31 69.478 69.148 68.088 62.028 60.533 60.4 60.543 62.795 68.768 69.865 70.02 69.255 66.968 63.683 63.01 63.13 63.703 65.34 65.47 66.01 66.233 65.7 66.295 65.065 64.86 64.908 64.92 64.915 64.91 65.49 65.413 65.213 66.08 65.913 65.288 65.603 69.413 67.155 64.633 63.965 63.893 63.82 63.813 63.71 63.635 63.458 63.36 64.175 64.068 63.508 63.373 63.198 64.715 63.215 61.818 61.723 62.2 62.51 62.388 62.325 63.843 62.738 62.538 62.585 63.045 62.075 61.933 62.023 62.248 62.013 63.133 62.335 62.488 60.85 60.315 60.205 60.138 59.898 59.74 59.94 59.998 59.63 59.638 60.16 59.92 59.605 59.728 60.45 59.495 59.67 59.535 59.528 59.64 58.77 58.635 58.58 58.558 58.54 58.528 58.498 58.5 58.533 58.488 58.443 59.278 59.883 58.875 58.55 58.563 58.573 58.945 59.843 60.365 59.908 60.77 60.588 60.05 60.143 60.105 61.515 60.798 59.373 58.08 57.98 57.798 58.25 57.963 59.088 59.713 58.278
45.397 45.307 45.147 45.019 44.926 44.756 44.616 44.509 44.366 44.239 44.116 43.994 43.834 43.686 43.581 43.464 43.376 43.314 43.221 43.149 43.096 43.069 43.061 43.021 42.964 42.904 42.854 42.776 42.734 42.654 42.551 42.461 42.421 42.319 42.294 42.199 42.181 42.074 41.986 41.866 41.729 41.599 41.619 41.536 41.389 41.191 41.921 43.804 38.926 38.921 38.716 39.879 48.216 48.524 48.631 48.674 48.609 48.514 41.539 34.526 34.826 34.391 34.326 33.874 33.446 33.044 32.574 32.261 32.154 31.899 31.636 31.425 31.376 31.297 31.265 31.21 31.118 31.056 30.941 30.878 30.818 30.763 31.426 31.113 30.811 30.177 29.468 29.075 28.389 28.209 28.195 28.223 28.168 28.19 28.151 28.188 28.22 28.206 28.186 28.105 28.151 28.21 28.231 28.216 28.157 28.172 28.156 28.169 28.17 28.173 28.465 29.38 34.529 38.944 37.212 35.5 31.041 34.156 34.493 33.99 33.586 32.911 32.281 32.206 32.226 33.839 39.384 44.766 49.991 50.054 53.214 53.631 53.404 53.139 52.949 53.116 52.834 52.174 52.944 53.729 53.489 53.219 52.739 52.184 50.336 50.014 49.964 49.881 47.701 44.344 44.174 45.836 50.314 49.774 46.261 44.396 44.044 43.989 44.014 43.906 43.889 43.834 43.791 43.766 43.811 43.841 43.821 43.856 43.894 43.881 45.966 50.111 52.334 52.309 52.899 54.826 52.684 58.259 62.731 62.686 62.704 61.816 54.614 46.844 43.646 43.564 43.649 43.669 43.816 44.011 44.189 44.509 45.351 44.519 44.626 44.734 44.904 45.081 45.106 45.221 46.721 46.769 45.594 45.676 48.511 50.891 51.536 52.863 54.763 55.556 55.723 56.193 56.443 56.733 56.953 57.211 57.483 57.751 58.036 58.293 58.588 58.898 59.243 58.183 55.813 55.808 55.898 55.913 55.948 55.973 53.758 48.353 48.486 48.616 48.713 48.726 48.708 48.943 48.968 48.951 49.031 49.126 49.228 49.351 49.486 49.613 49.738 49.911 50.083 52.773 55.456 57.541 57.871 57.516 62.473 62.021 63.581 63.206 60.323 53.571 52.076 55.641 58.338 56.401 56.818 59.771 59.461 57.381 55.551 55.303 55.286 56.161 56.126 56.466 56.136 56.111 56.363 56.663 57.821 58.546 57.948 57.543 60.076 61.533 62.151 62.643 62.993 63.718 63.836 63.826 64.706 63.973 63.436 63.596 65.678 68.713 70.121 70.141 69.113 66.998 64.526 68.111 69.863 65.108 68.09 69.045 69.46 68.35 64.635 60.78 60.285 60.3 61.675 68.005 69.28 69.238 68.953 67.708 64.165 63.84 64.983 65.408 65.818 65.965 65.983 66.383 65.498 65.368 65.613 64.855 64.865 64.918 64.888 64.873 65.185 65.725 65.88 65.435 65.388 64.788 65.178 72.655 70.83 64.538 63.68 64.023 63.678 63.423 63.34 63.258 63.303 63.078 63.71 63.183 63.078 62.943 62.813 65.168 63.353 61.423 61.333 61.908 62.203 62.07 62.093 62.46 63.49 63.26 62.37 62.628 61.958 61.818 61.74 61.81 61.588 61.583 61.57 61.768 60.488 59.728 59.668 59.615 59.383 59.263 60.593 61.27 59.533 59.233 59.705 61.43 62.01 61.163 60.308 59.278 59.3 59.513 59.875 59.068 58.91 58.493 58.495 58.468 58.46 58.36 58.373 58.258 58.115 58.233 58.158 58.86 58.585 58.625 58.218 58.243 58.245 60.07 59.89 59.62 60.41 61.418 59.583 60.345 60.03 59.865 59.118 58.16 60.738 57.475 57.583 57.713 60.395 57.895 58.018 58.128 58.18
45.384 45.242 45.107 44.994 44.834 44.684 44.554 44.494 44.299 44.221 44.096 43.961 43.841 43.714 43.591 43.449 43.394 43.296 43.211 43.136 43.101 43.024 42.941 42.891 42.856 42.851 42.781 42.739 42.749 42.684 42.599 42.489 42.384 42.246 42.231 42.184 42.136 42.056 41.941 41.844 41.726 41.541 41.386 41.371 41.301 41.291 40.969 40.521 41.431 39.554 39.091 39.831 48.609 48.521 48.621 48.664 48.554 48.529 37.629 36.769 36.159 35.531 35.064 34.714 34.339 33.981 33.649 33.319 33.031 32.856 32.654 31.843 31.428 31.343 31.28 31.205 31.134 31.058 30.961 30.879 30.867 30.819 31.548 30.886 30.77 29.522 29.362 28.768 28.298 28.221 28.18 28.134 28.123 28.162 28.155 28.229 28.254 28.211 28.166 28.176 28.178 28.146 28.161 28.184 28.163 28.156 28.172 28.143 28.139 28.217 28.802 29.94 34.629 37.945 37.987 35.357 33.64 35.22 35.181 35.078 34.468 32.806 32.265 32.229 32.325 35.886 39.344 47.291 49.999 51.076 53.779 53.551 53.331 53.051 52.916 53.349 53.394 53.236 53.061 53.644 53.416 53.191 52.931 52.696 52.011 50.401 50.019 50.004 48.209 47.909 47.129 50.241 49.996 49.981 50.056 49.811 46.171 44.011 44.019 43.971 43.899 43.824 43.839 43.794 43.774 43.816 43.796 43.821 43.844 43.836 44.914 48.386 51.499 52.344 52.486 52.284 52.299 51.526 60.314 62.659 59.549 50.324 47.501 43.589 43.531 43.606 43.629 43.709 43.846 45.081 45.001 45.051 45.211 44.681 44.716 44.851 45.011 45.311 46.901 48.756 49.204 49.481 47.274 45.726 46.878 50.461 53.216 55.011 56.206 56.433 56.681 56.966 57.186 57.483 57.741 58.046 58.296 58.558 58.818 58.923 59.158 59.163 58.706 57.933 55.881 55.861 54.278 52.626 52.198 48.176 48.203 48.248 48.326 48.413 48.506 48.636 48.656 48.751 48.798 48.873 49.016 49.111 49.236 49.358 49.581 50.388 51.938 53.588 56.536 57.476 58.171 58.243 58.296 56.836 59.483 63.046 62.286 61.483 60.601 53.258 52.156 52.373 52.991 54.618 56.068 57.963 56.383 56.281 57.246 56.206 55.806 57.571 59.068 58.008 56.381 56.811 57.333 57.433 58.353 58.886 57.988 57.851 60.173 61.108 63.646 64.093 63.343 63.646 64.371 66.088 65.051 63.701 63.586 63.528 64.218 64.821 68.223 68.768 65.021 63.848 63.693 64.413 65.243 66.253 67.333 68.673 70.005 68.62 65.078 60.92 60.223 60.155 60.893 67.015 68.288 68.093 67.798 66.828 65.733 65.915 66.383 66.253 65.628 65.27 65.173 66.003 66.44 65.46 66.103 64.978 64.855 64.808 64.823 64.82 65.003 65.515 66.325 65.768 65.303 65.085 64.1 68.485 67.633 63.925 63.433 64.233 63.428 63.073 62.995 62.898 62.855 62.748 63.225 63.07 62.908 63.31 62.553 64.288 62.925 60.978 60.945 61.17 62.118 62.16 62.058 62.238 62.145 61.518 61.78 61.063 60.66 61.6 62.545 60.033 59.57 59.445 60.72 62.37 59.878 58.985 59.215 59.155 59.005 59.055 59.505 59.943 59.348 58.93 59.663 61.563 62.03 64.33 59.738 59.52 59.338 60.845 60.015 58.803 58.55 58.103 58.905 57.99 57.713 57.578 57.638 57.39 57.393 57.303 57.295 57.51 57.995 58.313 57.948 57.968 57.975 58.625 59.168 58.875 59.47 59.225 58.965 60.203 58.745 57.508 57.348 57.21 59.363 57.35 57.44 57.613 57.668 57.808 57.9 57.988 58.11
45.292 45.152 45.019 44.896 44.814 44.639 44.526 44.419 44.269 44.149 44.009 43.919 43.799 43.634 43.561 43.439 43.376 43.256 43.176 43.084 43.024 42.951 42.881 42.869 42.786 42.759 42.664 42.609 42.536 42.444 42.481 42.456 42.399 42.221 42.154 42.121 42.074 41.991 41.899 41.821 41.699 41.541 41.369 41.239 41.204 41.161 41.059 41.061 40.909 40.621 40.191 41.464 48.299 48.531 48.639 48.621 48.536 48.614 38.701 38.609 38.451 37.986 37.409 36.744 35.909 35.249 34.571 34.121 33.674 33.299 33.009 32.733 31.731 31.52 31.461 31.44 31.271 31.207 30.982 30.896 30.846 30.787 31.104 30.932 30.782 29.395 28.84 28.733 28.368 28.205 28.168 28.148 28.184 28.202 28.159 28.189 28.261 28.225 28.167 28.171 28.152 28.168 28.167 28.152 28.156 28.151 28.166 28.157 28.175 28.349 30.077 31.225 33.232 36.042 39.178 37.507 35.936 35.959 35.794 35.802 34.372 33.463 32.322 32.261 32.611 37.719 39.971 47.881 50.026 51.804 53.709 53.459 53.231 52.986 52.901 52.769 52.816 53.174 53.826 53.574 53.336 53.114 52.874 52.486 52.616 52.799 51.931 50.744 49.986 50.056 50.281 49.971 50.011 49.974 49.936 49.954 49.166 44.536 44.034 43.994 43.931 43.861 43.824 43.819 43.814 43.784 43.811 43.899 43.889 43.814 43.874 46.434 50.459 52.369 52.324 52.301 52.251 51.616 52.046 54.139 51.079 49.584 48.049 43.561 43.564 43.569 43.646 43.769 43.899 44.541 46.221 46.281 45.974 46.424 48.374 46.041 45.111 45.411 49.491 49.739 49.454 49.464 48.841 46.198 46.528 52.683 56.236 56.658 56.973 57.233 57.431 57.728 58.006 58.271 58.521 58.818 58.973 58.913 58.586 58.123 57.736 57.928 57.521 56.101 51.101 50.846 48.656 48.038 48.078 48.093 48.173 48.196 48.323 48.446 48.488 48.588 48.636 48.768 48.808 48.931 49.006 49.186 49.326 49.608 52.193 54.508 56.621 57.668 58.403 59.103 58.216 57.911 57.573 55.348 54.538 60.106 58.776 57.916 58.536 57.253 52.706 52.798 53.586 54.841 55.463 55.241 55.658 55.938 57.831 58.448 58.751 59.876 60.071 59.833 61.178 57.286 57.128 57.601 58.426 59.123 57.991 57.983 60.403 66.241 69.426 69.128 69.351 63.788 65.266 67.953 65.703 64.656 66.611 65.663 64.078 63.686 63.828 64.223 63.663 63.773 63.821 64.226 64.656 64.99 66.35 68.31 68.623 68.235 67.35 61.06 60.275 60.01 62.518 66.315 67.635 67.818 68.175 67.655 66.073 65.455 64.913 64.225 63.4 62.923 63.368 65.513 66.44 66.093 65.635 65.378 64.865 64.815 64.798 64.808 64.835 65.245 65.245 65.408 65.115 64.638 63.8 63.99 63.358 63.893 63.29 64.483 62.81 62.718 62.643 62.575 62.478 62.38 63.465 64.155 62.765 62.405 62.105 62.948 63.43 60.595 60.54 62.57 63.768 63.76 65.16 61.713 59.65 59.588 59.518 59.403 60.015 63.46 65.573 59.783 60.135 60.085 62.175 65.633 62.678 60.478 61.645 58.485 58.365 58.413 58.528 58.913 59.008 58.828 59.485 58.72 59.328 59.08 58.15 58.21 59.195 59.093 58.885 58.695 58.138 58.173 57.283 57.128 57.11 57.065 56.94 56.875 56.775 56.648 56.523 56.583 57.353 58.35 57.63 58.335 57.725 58.465 58.985 58.645 58.478 58.498 57.825 57.253 56.755 57.295 58.28 59.415 59.385 57.318 57.335 57.503 57.585 57.68 57.81 57.918 58.015
45.214 45.084 44.984 44.844 44.771 44.606 44.426 44.291 44.214 44.074 43.974 43.856 43.716 43.606 43.451 43.369 43.294 43.194 43.116 43.044 42.934 42.846 42.849 42.786 42.751 42.694 42.646 42.514 42.391 42.296 42.281 42.336 42.304 42.209 42.066 42.041 42.046 41.951 41.881 41.816 41.709 41.571 41.411 41.274 41.176 41.046 41.106 40.951 40.881 40.839 40.754 42.951 48.349 48.721 48.346 48.611 48.531 47.261 39.206 38.386 37.906 37.881 37.754 37.706 37.624 37.411 36.931 36.356 35.676 34.841 34.026 32.932 31.789 31.562 32.171 32.393 32.044 31.675 31.012 30.881 30.807 30.748 30.772 30.949 30.738 29.106 28.764 -9999 -9999 28.187 28.172 28.148 28.146 28.163 28.139 28.137 28.219 28.286 28.254 28.23 28.177 28.133 28.189 28.162 28.166 28.199 28.174 28.153 28.239 28.648 30 31.942 34.067 40.128 40.679 36.644 33.021 35.665 36.223 35.466 34.704 32.389 32.338 32.298 32.99 38.722 41.331 49.716 50.011 53.139 53.629 53.379 53.156 52.941 53.649 53.364 53.039 52.766 53.699 53.499 53.254 53.031 52.806 52.231 53.096 52.481 52.464 53.659 52.571 50.406 50.166 50.051 50.011 49.961 49.974 50.176 46.089 44.054 44.021 44.011 43.964 43.896 43.856 43.826 43.799 43.729 43.844 43.836 43.806 43.824 43.874 43.921 47.081 52.089 52.334 52.326 52.316 52.259 52.219 52.236 50.561 48.829 45.749 44.086 43.541 43.576 43.676 43.766 43.824 50.529 57.211 53.479 48.489 49.789 49.729 48.776 45.241 45.709 47.749 49.994 49.596 49.546 49.909 52.626 53.061 51.388 57.018 57.336 57.551 58.016 58.236 58.483 58.756 58.941 58.893 58.611 58.136 57.663 57.208 56.801 55.476 52.033 48.711 48.801 47.871 47.886 47.916 47.946 48.001 48.093 48.226 48.281 48.368 48.403 48.463 48.596 49.256 48.743 48.811 49.001 50.286 50.061 55.128 55.908 56.683 57.176 57.618 58.456 58.341 57.513 56.696 54.316 53.968 54.426 54.738 55.646 57.776 57.776 57.923 58.078 54.393 55.078 55.028 54.941 55.268 55.583 55.736 55.926 56.753 57.546 57.541 59.336 61.288 62.346 62.916 60.056 57.646 57.736 58.453 60.466 58.188 58.196 62.013 68.386 69.913 69.948 69.526 66.571 63.913 64.706 64.258 66.056 69.401 66.556 64.218 64.063 63.848 63.821 63.826 63.891 65.306 64.866 64.146 63.2 64.338 66.733 65.155 62.763 62.023 61.663 60.9 59.893 61.845 67.585 68.415 69.005 68.313 67.73 64.843 62.053 61.635 61.54 61.773 62.343 62.313 64.845 65.998 66.478 65.545 66.063 64.833 64.758 64.785 64.788 64.858 65.255 65.345 65.588 65.103 63.728 64.545 71.235 67.41 63.355 62.668 62.978 62.53 62.365 62.323 62.268 62.21 62.148 62.808 64.235 63.255 65.5 65.988 67.248 64.395 60.25 60.2 65.338 66.835 67.675 66.415 61.658 59.343 59.293 59.485 59.61 59.898 61.133 62.343 59.01 59.613 58.978 60.665 64.503 61.2 59.325 60.133 58.27 58.29 58.24 58.165 58.605 58.67 58.875 58.685 58.298 57.593 57.543 57.845 58.043 57.9 57.798 58.33 58.27 57.583 56.915 56.588 56.455 56.365 56.375 56.278 56.26 56.275 56.243 56.24 56.218 57.515 58.315 57.543 57.553 57.555 58.25 58.103 58 57.665 56.885 56.535 56.57 56.613 56.728 57.573 57.48 57.753 57.163 57.293 57.403 57.48 57.558 57.708 57.77 57.923
45.329 45.159 44.974 44.844 44.651 44.511 44.376 44.221 44.144 44.026 43.919 43.764 43.661 43.681 43.461 43.524 43.256 43.114 43.076 42.961 42.861 42.796 42.706 42.686 42.624 42.581 42.519 42.424 42.329 42.241 42.169 42.149 42.209 42.176 41.986 41.961 41.994 41.911 41.859 41.814 41.704 41.599 41.471 41.284 41.164 41.039 40.949 40.851 40.756 40.739 40.751 40.721 41.469 42.021 41.514 44.261 45.696 44.839 40.209 39.134 38.896 38.661 38.394 38.126 37.841 37.474 37.191 36.776 36.396 36.241 36.334 35.797 34.912 34.26 35.398 32.893 32.189 31.558 31.031 30.885 30.804 30.756 30.821 30.83 30.518 28.575 28.705 -9999 28.181 28.19 28.192 28.174 28.106 28.11 28.137 28.142 28.149 28.16 28.248 28.282 28.246 28.204 28.187 28.172 28.138 28.16 28.149 28.146 28.374 28.811 32.509 35.76 34.567 39.982 39.253 35.787 31.672 34.919 36.11 36.149 34.063 32.533 32.377 32.349 33.943 39.323 42.836 50.011 50.719 53.791 53.556 53.299 53.104 52.856 52.679 52.561 52.199 53.084 53.639 53.404 53.161 52.924 52.704 52.566 53.281 52.696 53.569 53.684 53.424 53.026 51.951 50.259 50.004 49.971 49.964 49.829 44.774 44.026 44.004 43.991 43.959 43.914 43.874 43.849 43.779 43.854 43.896 43.759 43.786 43.799 43.816 43.864 43.914 46.421 50.361 52.346 52.316 52.281 52.246 52.236 51.549 49.759 48.154 45.116 43.591 43.636 43.719 47.739 55.939 60.474 60.386 56.946 51.316 49.741 49.766 49.389 47.219 45.519 46.371 49.576 50.761 53.594 55.674 55.861 54.141 52.041 54.898 58.093 57.976 58.756 59.031 58.878 58.608 58.196 57.746 57.276 55.843 53.978 52.353 47.426 47.573 47.638 47.681 47.706 47.748 47.778 47.841 47.971 48.001 48.088 48.128 48.248 48.846 49.353 48.541 48.516 48.636 50.113 53.376 54.343 58.931 59.551 58.003 57.321 57.696 58.161 57.253 57.001 56.513 54.773 52.713 51.778 54.018 56.218 57.583 55.846 56.936 57.746 57.761 57.781 57.661 55.861 55.691 55.541 55.556 55.698 55.861 56.141 56.646 58.063 58.361 61.198 62.621 62.878 62.248 61.271 58.198 58.396 61.003 61.931 58.293 58.478 62.951 69.278 69.943 69.936 69.448 65.511 63.513 64.641 68.871 72.373 71.978 65.481 64.343 64.293 64.021 63.846 63.871 63.886 64.806 63.638 62.891 62.265 62.693 62.843 61.953 62.028 62.035 62.65 61.908 60.638 59.973 66.07 67.795 67.93 67.558 64.023 61.883 61.368 61.375 61.398 61.48 63.72 64.503 65.2 65.74 66.438 66.093 65.338 64.943 64.783 65.043 64.768 64.905 65.058 66.198 66.518 63.993 63.77 64.985 70.975 67.245 63.265 62.86 62.27 62.25 62.173 62.078 61.96 61.923 61.928 62.408 62.475 60.925 64.015 66.765 67.203 64.73 59.923 59.72 61.593 63.7 66.018 62.648 59.193 58.965 58.828 59.563 58.958 58.83 59.27 58.26 57.965 58.05 57.878 57.77 58.265 58.53 58.548 57.943 57.683 57.63 57.443 58.165 60.165 60.363 60.46 60.563 58.895 57.388 57.578 59.52 58.025 60.365 58.973 58.36 57.758 57.273 56.618 56.283 56.26 56.235 56.26 56.233 56.24 56.245 56.26 56.215 56.178 56.61 58.123 57.593 57.708 57.265 57.52 57.513 56.69 56.225 56.288 56.343 56.46 56.538 56.683 56.763 56.878 56.97 57.053 57.218 57.38 57.415 57.513 57.633 57.778 57.94
45.954 45.509 45.207 44.994 44.786 44.596 44.439 44.226 44.081 43.941 43.796 43.669 43.529 43.499 43.354 43.316 43.299 43.149 43.089 42.876 42.746 42.674 42.636 42.569 42.471 42.506 42.461 42.331 42.256 42.184 42.139 42.014 42.044 42.049 41.934 41.914 41.896 41.889 41.846 41.801 41.854 41.696 41.531 41.354 41.261 41.101 41.004 40.884 40.836 40.721 40.631 40.586 40.604 40.606 40.619 40.604 40.499 40.476 40.426 40.254 40.071 39.819 39.564 39.334 39.171 38.829 37.654 36.501 35.471 34.419 33.391 33.432 35.987 36.068 36.119 32.392 31.963 31.283 30.987 30.879 30.844 31.253 30.82 30.789 30.119 28.756 28.488 28.206 28.174 28.194 28.2 28.171 28.17 28.184 28.209 28.187 28.156 28.109 28.193 28.221 28.186 28.212 28.199 28.159 28.185 28.127 28.185 28.149 28.539 28.92 36.47 38.101 38.063 40.87 35.116 34.672 32.372 34.15 34.497 34.319 32.589 32.443 32.4 32.374 35.163 39.477 46.047 49.986 52.279 53.696 53.474 53.241 53.036 52.786 52.829 52.749 52.441 53.829 53.549 53.316 53.079 53.099 52.536 52.746 52.341 52.239 53.856 53.596 53.359 53.121 52.996 50.701 50.309 50.016 50.014 49.359 47.009 48.379 43.986 43.969 43.934 43.939 43.859 43.841 43.804 43.864 43.791 43.751 43.759 43.779 43.826 43.816 43.869 44.131 47.219 51.474 52.331 52.309 52.281 52.249 52.256 51.661 48.364 44.311 43.836 43.711 49.269 57.786 60.551 60.704 60.461 59.471 54.939 49.909 49.806 49.809 49.016 45.854 45.731 49.499 55.866 56.936 55.809 56.003 55.281 54.283 57.243 58.773 58.973 58.748 58.296 57.851 57.403 56.261 53.618 51.998 47.271 47.603 47.733 47.373 47.423 47.533 47.573 47.651 47.733 47.793 47.828 47.988 47.976 48.026 48.058 48.138 48.671 49.313 48.973 51.228 56.773 57.716 59.791 60.008 60.318 60.123 58.988 57.301 56.943 56.498 55.498 53.831 52.193 52.288 53.013 52.336 55.551 57.951 58.398 56.851 55.706 57.721 57.696 57.673 57.736 57.203 56.486 56.428 56.031 55.893 56.068 56.903 58.448 60.413 62.098 62.888 62.598 61.763 61.238 61.118 60.426 58.616 60.388 58.623 58.451 58.818 60.698 67.966 69.203 69.336 69.243 64.598 63.521 64.223 70.298 77.256 76.778 69.243 64.466 64.403 64.321 64.163 64.121 64.126 63.776 63.568 63.323 63.163 63.59 63.35 62.583 62.57 62.605 64.665 65.198 59.973 59.753 62.39 64.543 66.795 66.29 63.183 62.358 61.238 61.273 61.338 61.703 65.34 65.943 66.158 66.228 66.18 66.443 64.128 65.215 64.895 64.835 64.795 66.338 67.125 67.24 63.843 63.623 63.42 62.563 62.52 62.943 62.973 63.258 62.478 61.963 61.91 61.883 61.765 61.69 61.648 61.835 61.865 66.913 68.048 68.97 68.325 67.83 59.503 59.31 59.203 60.843 61.253 59.188 59.55 59.03 59.503 58.755 57.645 57.538 57.638 57.443 57.333 57.25 57.14 57.828 58.36 58.705 57.735 57.213 57.168 57.158 57.123 57.17 60.765 60.718 60.64 60.578 61.403 62.32 62.54 63.085 63.085 63.215 61.893 57.315 57.375 57.148 56.57 56.223 56.243 56.233 56.248 56.24 56.238 56.28 56.498 56.253 56.28 56.495 57.45 57.793 56.825 56.918 56.445 56.058 55.95 56.03 56.165 56.31 56.35 56.438 56.573 56.648 56.783 56.893 56.99 57.098 57.268 57.403 57.555 57.73 57.885 58.005
46.812 46.302 45.864 45.516 45.156 44.839 44.584 44.519 44.136 43.954 43.756 43.579 43.469 43.346 43.244 43.164 43.156 43.099 43.001 42.824 42.686 42.599 42.579 42.496 42.429 42.419 42.446 42.316 42.174 42.101 42.029 41.991 41.879 41.939 41.884 41.874 41.901 41.889 41.799 41.786 41.854 41.761 41.641 41.459 41.364 41.206 41.054 40.979 40.854 40.771 40.656 40.609 40.549 40.496 40.456 40.414 40.341 40.346 40.346 40.376 40.336 40.324 40.361 40.326 40.369 40.869 40.686 39.869 38.494 36.586 34.859 33.726 36.011 35.067 34.307 31.68 31.516 31.177 30.954 30.877 30.87 31.283 30.853 30.78 29.956 28.722 28.195 28.157 28.176 28.188 28.201 28.172 28.105 28.144 28.165 28.183 28.157 28.154 28.199 28.2 28.185 28.173 28.172 28.145 28.157 28.177 28.181 28.226 28.744 29.553 36.321 38.897 38.988 39.709 36.289 37.988 35.422 33.099 32.89 32.768 32.549 32.42 32.405 33.001 36.895 39.656 48.529 50.019 53.864 53.596 53.379 53.156 53.501 53.186 53.149 52.486 52.796 53.716 53.466 53.209 52.999 53.436 53.164 52.636 52.034 52.174 53.774 53.531 53.309 53.051 52.809 50.664 50.049 50.301 50.024 48.436 48.414 49.416 46.089 44.069 43.909 43.891 43.874 43.849 43.824 43.809 43.791 43.774 43.766 43.759 43.804 43.834 43.871 43.924 45.859 50.361 52.359 52.326 52.314 52.281 52.231 52.219 47.624 45.146 44.074 43.751 49.239 60.101 60.501 60.724 60.671 60.241 58.246 53.451 49.801 49.796 50.676 54.939 46.091 45.979 52.121 56.876 56.486 55.726 56.648 57.518 58.403 58.911 58.213 57.633 57.093 54.993 51.451 50.786 47.696 47.173 47.221 47.368 47.618 47.386 47.446 47.526 47.553 47.638 47.753 47.768 48.396 48.806 47.931 48.023 48.121 51.956 53.488 57.181 59.116 59.978 60.298 60.231 60.116 59.591 58.821 58.156 57.366 56.223 52.963 52.173 51.913 51.278 53.293 54.351 53.868 52.833 53.451 57.466 58.951 58.136 56.083 57.288 57.636 57.836 57.796 57.906 57.861 56.481 56.788 56.621 57.991 58.003 60.481 62.643 62.876 62.283 60.731 59.513 60.976 61.138 60.701 58.546 58.563 58.663 58.676 59.493 60.293 60.963 64.736 65.716 66.716 63.096 63.386 63.903 65.216 68.983 73.398 65.101 64.473 64.491 64.396 64.686 64.163 63.931 63.846 63.738 63.618 63.475 65.605 63.758 63.113 62.755 63.025 63.855 62.713 60.578 59.63 59.668 60.193 62.315 61.278 61.103 61.633 61.098 61.158 61.263 61.963 64.868 65.97 65.68 65.31 64.913 62.855 62.53 65.773 66.793 66.27 64.783 65.235 66.948 67.383 62.98 63.215 62.653 62.375 62.455 63.9 62.335 63.89 63.275 61.713 61.66 61.993 62.023 62.818 62.098 61.528 60.923 67.848 69.195 69.243 69.163 68.558 60.133 58.945 58.778 58.71 58.593 59.47 58.95 61.983 58.41 59.828 56.905 56.855 56.943 56.863 56.733 56.65 56.52 56.345 57.023 58.298 57.133 56.935 56.928 56.943 56.998 57.118 59.76 59.623 59.378 59.343 60.823 63.518 63.585 63.578 63.603 63.623 62.143 57.423 58.103 57.268 56.515 56.23 56.233 56.238 56.253 56.833 56.413 57.883 57.723 56.385 56.605 56.485 56.613 56.43 56.148 55.75 55.675 55.708 55.77 55.915 56.028 56.185 56.278 56.36 56.508 56.58 56.683 56.838 56.955 57.103 57.255 57.388 57.553 57.74 57.82 57.905
47.309 46.909 46.544 46.239 45.994 45.659 45.394 45.286 44.964 44.619 44.171 43.689 43.374 43.259 43.091 43.004 42.919 42.894 42.941 42.831 42.674 42.554 42.494 42.444 42.344 42.301 42.346 42.249 42.146 42.024 41.939 41.891 41.821 41.786 41.794 41.844 41.859 41.821 41.771 41.744 41.729 41.629 41.481 41.381 41.336 41.204 41.094 40.966 40.886 40.834 40.739 40.661 40.609 40.581 40.496 40.461 40.394 40.321 40.269 40.241 40.219 40.164 40.229 40.226 40.209 40.271 40.289 40.321 40.329 40.396 40.304 39.744 39.154 37.143 35.923 33.535 32.528 32.893 31.905 31.221 30.857 30.83 30.883 30.79 29.22 28.601 28.448 28.14 28.174 28.167 28.154 28.181 28.17 28.131 28.151 28.166 28.175 28.194 28.228 28.186 28.151 28.174 28.139 28.182 28.157 28.158 28.146 28.438 28.861 30.323 37.614 38.359 40.305 39.556 36.322 36.758 34.349 32.934 32.781 32.686 32.555 32.461 32.455 32.399 35.459 41.042 47.017 50.479 53.791 53.534 53.291 53.144 53.299 53.201 53.124 52.774 52.909 53.646 53.389 53.131 52.911 53.556 52.144 52.984 52.966 53.121 53.686 53.429 53.219 52.986 52.269 50.224 50.021 50.009 50.501 46.319 53.609 55.161 54.966 52.351 45.781 43.906 43.896 43.866 43.844 43.841 43.826 43.799 43.774 43.761 43.796 43.809 43.849 43.886 43.929 48.984 51.849 52.354 52.311 52.264 52.266 52.226 52.156 46.591 44.286 47.231 48.834 55.906 60.369 60.566 60.756 60.574 56.106 54.189 50.551 53.566 59.266 60.446 48.669 46.124 47.969 55.144 57.059 57.263 58.348 59.018 59.018 58.098 56.918 56.103 49.566 48.093 47.153 47.151 47.113 47.108 47.158 47.233 47.321 47.408 47.466 47.558 47.571 47.596 47.621 47.773 48.018 49.091 50.846 55.856 56.701 59.211 59.613 59.926 60.071 60.298 59.423 58.783 58.778 59.183 57.113 57.238 56.661 53.083 50.611 50.633 50.758 51.711 53.858 52.516 52.291 52.206 51.948 54.241 57.563 58.591 57.476 56.433 58.153 58.593 57.493 55.901 56.801 56.821 57.556 57.858 58.226 58.311 58.788 62.098 61.916 59.521 59.081 59.723 60.098 60.006 58.576 58.583 58.663 59.191 58.896 58.931 59.331 59.528 59.663 59.706 61.221 65.066 64.971 63.233 63.683 64.036 65.238 65.028 64.518 64.553 64.623 64.571 63.986 63.936 63.898 63.848 63.768 63.615 64.773 63.678 65.345 62.953 62.573 62.705 62.663 61.968 59.438 59.378 59.613 60.085 60.443 60.773 60.903 61.015 61.125 61.185 61.323 62.208 64.12 62.785 62.74 62.72 64.903 63.698 63.83 66.488 67.195 64.723 65.183 64.913 64.428 62.995 62.865 62.223 62.135 62 61.88 61.645 62.825 61.763 61.47 61.608 62.7 65.318 66.005 60.32 58.813 62.535 67.328 68.11 69.093 68.438 67.725 60.513 58.503 58.36 58.303 58.205 59.178 57.968 59.198 57.568 57.273 55.895 55.773 55.863 55.575 55.398 55.365 55.38 55.48 56.305 57.258 56.715 56.648 56.688 56.743 56.92 57.05 57.368 57.415 57.28 58.94 59.998 63.438 63.415 63.338 63.26 63.2 63.005 57.35 56.738 56.8 56.453 56.215 56.243 56.4 56.808 57.175 56.703 59.435 58.055 57.323 56.02 55.723 55.865 55.45 55.383 55.413 55.533 55.625 55.695 55.773 55.945 56.06 56.233 56.275 56.365 56.49 56.585 56.72 56.878 57.038 57.143 57.248 57.435 57.603 57.718 59.068
47.664 47.282 46.984 46.716 46.446 46.216 45.954 45.759 45.491 45.314 45.181 44.726 43.879 43.471 43.111 42.906 42.826 42.699 42.664 42.594 42.559 42.474 42.414 42.351 42.271 42.166 42.211 42.179 42.121 42.034 41.929 41.824 41.781 41.791 41.781 41.784 41.801 41.786 41.729 41.649 41.591 41.424 41.389 41.251 41.171 41.064 41.026 40.899 40.854 40.814 40.749 40.679 40.586 40.576 40.546 40.489 40.426 40.381 40.311 40.311 40.284 40.224 40.209 40.186 40.179 40.194 40.174 40.206 40.216 40.389 40.391 40.343 40.332 40.327 40.21 40.199 39.791 38.949 39.864 37.273 35.12 34.275 32.587 31.086 28.928 32.82 33.97 31.395 29.489 28.287 29.69 28.992 28.186 28.193 28.159 28.17 28.175 28.185 28.184 28.175 28.179 28.202 28.146 28.151 28.142 28.179 28.186 28.572 29.037 30.992 38.293 40.122 39.698 37.429 36.714 34.543 34.668 35.089 33.277 32.663 32.582 32.492 32.443 32.424 36.288 39.277 48.14 51.906 53.634 53.459 53.316 53.384 53.241 52.951 52.786 52.651 53.511 53.564 53.316 53.086 52.991 52.826 52.296 52.784 52.791 53.699 53.599 53.349 53.116 52.926 51.924 51.059 50.134 49.994 48.961 46.434 55.174 55.059 54.844 52.036 48.206 44.706 43.909 43.909 43.876 43.839 43.836 43.836 43.826 43.821 43.769 43.806 43.836 43.886 43.901 43.949 47.221 52.366 52.334 52.306 52.301 52.254 52.221 50.291 47.994 48.591 49.109 50.986 59.384 60.426 60.666 60.669 60.471 59.561 58.759 60.166 59.439 61.679 59.641 46.829 46.214 50.816 58.156 59.113 58.853 58.008 57.151 51.836 49.318 48.391 46.918 46.928 46.981 46.978 47.028 47.111 47.191 47.241 47.321 47.363 47.423 47.461 47.478 47.581 47.676 51.158 52.511 57.446 58.351 59.216 60.231 60.093 59.861 60.163 59.823 58.228 51.881 53.413 58.043 57.441 56.093 56.831 57.016 54.276 50.968 50.846 50.926 51.078 51.548 52.013 52.008 51.993 52.166 53.606 57.228 58.511 58.188 56.086 57.283 58.836 57.761 55.031 54.426 57.451 57.373 58.246 58.348 60.353 59.833 58.831 59.853 59.493 59.498 59.026 58.871 58.671 58.631 58.606 59.663 59.896 59.046 59.108 59.371 59.551 59.988 59.786 59.856 62.891 66.003 64.163 63.106 63.518 64.023 64.621 65.636 66.266 64.503 64.076 64.016 63.988 63.918 63.943 63.841 64.668 64.843 63.713 63.003 62.9 62.645 63.1 64.665 62.885 59.255 59.335 64.015 62.783 60.995 60.645 60.928 61.24 61.185 61.15 61.203 61.32 61.425 62.358 63.073 62.478 64.1 62.833 62.288 65.975 66.07 64.78 64.943 65.53 62.99 62.878 62.353 61.835 61.823 61.628 61.533 63.355 62.845 61.51 61.573 61.235 59.43 60.35 60.823 58.77 59.098 62.498 64.923 67.63 69.07 68.493 66.968 60.368 58.073 57.895 57.893 57.788 59.395 65.983 68.443 56.628 55.173 56.508 57.67 57.885 58.218 59.4 58.065 57.293 55.735 55.97 56.803 56.38 56.345 56.463 56.77 56.778 56.848 57.178 57.293 57.27 57.345 59.103 62.748 62.013 60.893 62.62 62.645 61.863 57.393 56.713 56.818 56.438 56.318 56.22 56.408 56.24 56.193 56.178 57.578 58.578 55.438 55.26 55.125 55.063 55.153 55.23 55.31 55.398 55.52 55.65 55.748 55.833 55.958 56.048 56.2 56.265 56.308 56.403 56.583 56.69 56.795 56.973 57.085 57.323 57.333 59.618 65.775
48.034 47.714 47.392 47.184 46.934 46.631 46.366 46.066 45.836 45.971 45.519 45.516 44.994 44.759 44.021 43.046 42.719 42.579 42.544 42.509 42.424 42.389 42.339 42.294 42.224 42.141 42.099 42.074 42.066 42.004 41.969 41.791 41.789 41.804 41.809 41.831 41.741 41.741 41.676 41.581 41.464 41.384 41.311 41.241 41.121 41.049 40.979 40.861 40.789 40.779 40.686 40.666 40.556 40.531 40.531 40.459 40.421 40.389 40.304 40.241 40.276 40.229 40.254 40.244 40.221 40.199 40.231 40.274 40.189 40.239 40.214 40.214 40.249 40.227 40.169 40.256 40.286 40.25 40.337 40.486 40.368 40.403 40.56 40.104 36.946 40.25 39.129 36.022 38.476 36.69 38.753 38.429 28.93 28.218 28.169 28.198 28.181 28.164 28.357 28.21 28.136 28.195 28.203 28.173 28.144 28.157 28.254 28.697 29.274 33.995 37.36 41.223 41.872 40.991 32.13 32.908 33.241 32.963 32.714 32.685 32.586 32.518 32.486 32.456 37.304 41.135 49.792 51.714 52.014 52.251 52.751 53.014 53.441 52.719 52.074 52.886 53.659 53.476 53.216 53.019 53.486 52.369 52.114 52.696 53.254 53.761 53.524 53.266 53.064 52.519 50.399 50.606 51.671 50.479 47.454 50.254 55.046 54.979 54.751 54.529 54.311 53.324 47.309 43.896 43.876 43.881 43.851 43.834 43.831 43.804 43.794 43.791 43.806 43.871 43.909 43.964 44.184 47.096 52.371 52.324 52.299 52.286 52.274 52.286 48.276 48.914 49.721 49.796 54.724 60.294 60.541 60.714 60.579 60.344 60.379 60.516 60.009 61.376 61.221 50.751 46.204 46.779 56.506 58.093 57.083 52.306 49.713 46.743 46.761 46.786 46.776 46.836 46.906 47.001 47.056 47.141 47.166 47.216 47.253 47.286 47.386 47.461 47.518 51.171 53.253 57.268 58.696 59.216 59.571 60.511 59.521 59.403 58.906 59.703 60.288 58.688 54.056 51.693 54.476 52.626 52.713 54.643 55.948 55.666 52.113 51.061 51.133 51.286 51.541 52.243 52.026 52.081 52.348 53.391 54.741 58.096 58.211 57.171 55.666 58.556 58.688 55.933 55.051 57.253 57.686 59.066 63.641 64.366 62.816 59.891 59.973 59.391 59.556 58.848 58.706 58.683 58.693 58.823 60.381 59.338 59.198 59.286 62.756 63.893 63.068 62.841 66.246 67.636 68.608 65.426 63.453 63.303 63.616 65.178 66.378 66.353 64.196 64.028 64.006 63.991 63.916 64.341 64.303 65.028 64.478 63.485 62.943 62.855 62.548 64.275 63.893 62.94 61.035 60.213 65.428 67.148 63.003 61.128 61.65 61.568 61.158 61.123 61.183 61.27 61.338 61.648 61.653 61.655 62.14 62.098 61.663 63.755 65.04 65.985 64.848 67.243 69.068 63.453 61.908 61.61 61.78 61.503 61.858 62.16 61.833 60.838 59.93 59.36 59.223 59.09 58.705 58.875 59.458 59.375 63.675 67.575 69.195 68.85 67.025 60.238 57.67 57.755 57.438 57.35 58.91 67.873 69.313 58.258 56.268 59.413 61.07 61.26 61.423 61.398 61.25 56.908 55.81 55.78 56.525 56.175 56.023 56.375 56.763 56.59 56.688 57.04 57.168 57.325 57.27 57.168 57.8 57.19 57.383 58.315 58.01 56.943 56.625 56.31 56.66 57.015 57.23 56.108 56.208 55.97 56.54 56.03 55.475 54.72 54.85 54.818 54.795 54.878 54.998 55.098 55.223 55.283 55.405 55.533 55.67 55.753 55.815 55.95 56.06 56.078 56.08 56.145 56.308 56.463 56.6 56.788 57.03 57.283 56.155 59.338 67.508
48.312 47.967 47.717 47.571 47.216 46.929 46.691 46.374 46.061 46.106 45.776 45.494 45.361 45.046 44.614 44.021 42.841 42.551 42.419 42.386 42.311 42.281 42.256 42.206 42.194 42.094 42.059 41.996 41.914 41.901 41.794 41.786 41.764 41.756 41.766 41.764 41.746 41.679 41.514 41.491 41.429 41.334 41.231 41.214 41.074 41.001 40.949 40.841 40.769 40.716 40.646 40.616 40.581 40.544 40.476 40.401 40.354 40.339 40.304 40.261 40.239 40.234 40.226 40.179 40.196 40.231 40.236 40.224 40.206 40.231 40.214 40.256 40.258 40.259 40.255 40.208 40.217 40.171 40.171 40.246 40.246 40.239 40.431 40.258 40.231 40.293 40.349 40.354 40.401 40.931 40.425 40.578 37.987 37.552 31.986 29.056 29.199 30.834 30.294 28.289 28.122 28.172 28.192 28.143 28.186 28.169 28.358 28.935 30.51 36.807 38.795 40.468 41.932 35.082 35.125 34.401 32.732 32.699 32.682 32.696 32.579 32.543 32.537 32.756 37.747 43.106 49.867 52.126 51.989 51.971 51.986 52.004 53.581 52.896 52.024 52.014 52.174 52.371 52.551 52.639 53.131 52.931 52.501 52.716 53.131 53.669 53.434 53.214 52.974 52.236 51.201 51.871 49.706 46.604 46.039 54.969 55.146 54.911 54.689 54.431 54.206 53.971 49.854 45.354 44.059 43.931 43.906 44.764 43.846 43.816 43.836 43.806 43.801 43.861 43.934 44.006 44.089 47.181 50.604 52.364 52.336 52.324 52.174 52.084 52.129 50.414 49.816 49.799 50.881 58.976 60.391 60.636 60.699 60.514 60.614 60.731 60.854 60.866 60.761 56.831 46.364 46.304 49.111 53.996 47.851 46.616 46.601 46.601 46.658 46.721 46.778 46.868 46.898 46.978 47.043 47.078 47.108 47.158 47.266 48.836 48.293 53.486 56.891 56.823 58.028 58.513 60.171 59.636 59.078 58.631 58.203 59.143 58.581 59.146 60.263 59.581 54.353 50.616 51.673 51.838 51.738 52.431 54.238 56.156 54.656 51.773 51.368 51.493 51.601 52.531 52.868 52.203 52.203 52.496 53.888 56.448 55.873 54.191 55.313 57.323 58.956 57.958 58.153 57.113 58.186 63.353 65.251 65.281 64.033 62.376 59.321 58.858 58.788 58.793 58.781 58.756 58.793 60.098 60.028 59.383 59.343 62.436 66.443 67.736 66.056 67.896 68.133 67.628 66.918 65.423 63.541 63.846 63.361 64.538 65.268 64.511 64.091 63.971 63.973 63.936 63.873 64.183 64.396 64.655 64.488 64.61 63.7 63.01 62.628 64.888 68.348 66.63 62.893 58.54 61.395 63.135 61.675 61.663 61.86 62.075 61.4 61.11 61.123 61.713 61.565 61.273 61.363 61.375 61.71 62.14 61.763 61.828 63.328 64.713 63.718 66.98 62.175 61.603 62.753 62.545 61.52 61.19 60.743 59.945 59.423 59.02 58.968 58.938 60.963 61.323 58.823 60.963 62.668 62.11 64.49 66.635 68.59 68.015 66.033 59.193 57.348 58.013 57.425 56.953 58.358 60.44 63.67 65.08 56.488 59.003 61.758 61.7 61.685 61.625 61.693 55.785 55.223 55.585 57.423 56.415 55.71 55.775 55.848 56.008 56.165 56.378 56.49 56.788 56.518 56.598 56.553 56.455 56.385 56.23 56.083 55.938 55.66 55.555 59.758 58.078 55.823 55.673 57.245 56.843 55.53 55.985 55.773 54.513 54.563 54.61 54.688 54.768 54.893 55.013 55.128 55.23 55.335 55.445 55.578 55.63 55.705 55.75 55.743 55.79 55.813 55.883 56.033 56.25 56.86 57.398 57.15 55.843 55.89 60.813 67.28
