ncols 431
nrows 31
xllcorner    427006
yllcorner    544090
cellsize     2
NODATA_value -9999
92.622 92.607 92.625 92.662 92.782 92.92 93.027 93.045 93.03 93.08 93.187 93.317 93.44 93.495 93.59 93.632 93.622 93.675 93.705 93.74 93.752 93.792 94.092 93.99 93.865 93.882 93.91 94.025 94.902 94.09 93.907 93.96 94.365 94.255 93.455 93.157 92.537 92.142 92.097 92.085 92.06 92.06 92.035 92.057 92.07 92.065 92.047 92.062 92.022 92.002 92.01 92.02 92.03 92.025 92.035 92.057 92.032 92.04 92.052 92.06 92.102 92.102 92.105 92.15 92.625 93.302 93.702 93.81 93.917 94 94.11 94.22 94.332 94.44 94.52 94.61 94.667 94.72 94.792 94.78 94.79 94.92 94.77 94.537 94.245 93.722 93.087 92.485 91.91 91.682 91.685 91.655 91.592 91.395 90.732 90.442 90.22 90.004 89.839 89.612 89.372 89.089 88.844 88.569 88.304 88.014 87.704 87.464 87.137 86.889 86.617 86.402 86.142 85.964 85.807 85.634 85.487 85.387 85.217 85.132 85.032 84.974 84.859 84.789 84.687 84.597 84.539 84.442 84.369 84.324 84.247 84.087 83.964 83.792 83.589 83.482 83.377 83.302 83.212 83.124 82.922 82.769 82.744 82.992 82.467 81.857 80.697 79.137 77.992 76.917 75.727 74.884 74.054 73.434 73.072 72.769 72.397 72.214 71.922 71.714 71.424 71.289 70.879 70.672 70.469 70.157 69.919 69.847 69.539 69.132 68.507 67.579 66.869 65.879 64.684 64.249 64.549 66.009 66.687 67.882 69.557 70.567 70.629 71.047 71.524 71.872 72.052 72.189 72.242 72.412 72.654 72.854 73.144 73.607 74.362 75.154 75.949 75.739 77.789 83.136 79.489 80.119 88.174 79.992 80.294 80.246 81.021 81.909 82.132 81.754 81.519 81.321 81.321 81.746 81.989 81.769 81.999 82.104 82.316 82.416 82.682 82.824 84.242 85.594 82.882 83.309 83.634 83.191 83.239 83.709 83.407 83.439 83.666 85.172 83.812 83.621 83.466 83.899 86.331 86.429 86.219 86.297 85.916 83.649 83.364 83.297 83.259 83.144 83.134 83.271 83.661 83.329 83.286 83.276 87.389 89.351 90.206 89.356 85.719 82.886 82.746 82.729 82.686 83.189 83.579 82.699 82.714 83.896 86.064 85.341 84.589 84.014 83.094 82.989 83.099 83.236 83.344 83.446 83.601 83.751 83.929 84.081 84.209 84.279 84.321 84.326 84.314 84.279 84.244 84.194 84.149 84.064 83.971 83.839 83.689 83.486 83.289 83.081 82.874 82.704 82.504 82.274 81.969 81.579 81.191 80.831 80.429 79.996 79.579 79.111 78.664 78.216 77.741 77.241 76.741 76.246 75.814 75.391 74.969 74.489 74.241 75.111 75.394 73.924 72.021 72.841 71.516 71.391 71.256 71.159 71.234 72.611 70.611 69.766 69.546 69.314 69.151 68.974 68.686 68.404 68.214 67.991 67.744 67.531 67.356 67.271 66.426 65.476 64.883 64.918 65.068 64.971 64.941 64.878 64.886 64.861 65.038 64.478 64.116 63.281 62.981 62.731 62.433 62.198 61.936 61.636 61.366 61.106 60.873 60.628 60.436 60.198 59.996 59.806 59.593 59.386 59.231 59.033 58.871 58.741 58.571 58.386 58.213 58.043 57.858 57.663 57.486 57.316 57.136 56.958 56.761 56.518 56.321 56.093 55.838 55.573 55.348 55.098 54.876 54.686 54.551 54.393 54.246 54.113 53.996 53.861 53.766 53.653 53.548 53.446 53.321 53.181 53.023 52.906 52.791 52.668 52.548 52.431 52.311 52.216 52.098 51.996 51.891 51.788 51.713 51.593 51.466 51.391 51.321 51.236 51.181
92.64 92.66 92.725 92.922 93.055 93.147 93.135 93.127 93.217 93.335 93.452 93.602 93.687 93.732 93.807 93.837 93.847 93.862 93.93 93.975 93.98 94.015 94.2 94.082 94.03 94.105 94.462 94.24 94.57 96.18 94.13 94.042 94.062 94.142 93.705 93.527 93.142 92.467 92.127 92.097 92.12 92.1 92.075 92.072 92.077 92.07 92.072 92.057 92.04 92.037 92.027 92.03 92.05 92.055 92.067 92.042 92.057 92.077 92.075 92.085 92.117 92.127 92.14 92.537 93.247 93.637 93.852 93.94 93.987 94.047 94.17 94.27 94.375 94.477 94.542 94.642 94.725 94.75 94.802 94.8 94.84 94.827 94.757 94.485 94.15 93.555 92.987 92.447 91.875 91.592 91.64 91.605 91.52 91.252 90.595 90.362 90.14 89.937 89.752 89.514 89.277 89.044 88.762 88.442 88.182 87.884 87.594 87.344 87.032 86.734 86.479 86.244 85.997 85.849 85.627 85.452 85.272 85.139 84.977 84.877 84.812 84.727 84.622 84.509 84.407 84.342 84.267 84.164 84.082 84.044 83.964 83.827 83.652 83.484 83.304 83.162 83.044 82.949 82.822 82.749 82.609 82.439 82.409 82.587 82.074 81.509 80.492 78.972 77.772 76.589 75.577 74.604 73.869 73.359 73.089 72.719 72.372 72.117 71.964 71.697 71.427 71.084 70.792 70.639 70.564 70.199 70.459 69.634 69.409 69.027 68.734 68.292 67.434 67.139 65.652 64.352 64.347 65.359 66.274 67.427 68.979 70.709 70.617 70.909 71.309 71.727 71.929 72.092 72.159 72.297 72.549 72.674 72.827 73.137 73.769 74.514 75.162 75.306 77.407 83.579 82.382 81.559 84.324 82.134 78.642 79.199 79.769 80.284 80.861 81.504 82.539 82.329 81.844 81.797 81.911 81.664 81.744 81.931 83.081 82.334 82.334 82.382 83.187 83.764 83.841 83.269 83.521 83.089 83.084 83.604 83.479 83.379 83.439 85.119 84.377 84.191 84.144 84.356 84.956 84.464 83.814 84.574 84.856 84.264 83.216 83.261 83.284 83.159 83.161 83.154 83.224 83.306 83.209 83.596 86.776 89.209 90.204 89.499 86.266 82.969 82.926 82.764 82.724 83.251 83.186 82.821 82.934 84.756 84.439 83.401 82.864 83.989 84.486 85.461 84.126 83.224 83.359 83.471 83.621 83.726 83.899 84.081 84.224 84.311 84.359 84.371 84.376 84.364 84.316 84.259 84.196 84.129 84.036 83.916 83.731 83.526 83.294 83.079 82.896 82.714 82.494 82.269 81.969 81.601 81.234 80.834 80.426 80.006 79.569 79.096 78.636 78.189 77.746 77.281 76.809 76.326 75.871 75.406 74.981 74.514 74.069 73.634 73.156 72.871 72.359 72.866 73.241 72.709 72.261 71.564 72.096 71.341 70.184 69.746 69.541 69.329 69.144 68.914 68.669 68.401 68.236 68.066 68.316 67.604 67.324 67.149 65.731 65.181 64.898 65.018 65.016 64.966 64.903 64.898 64.833 64.703 64.631 64.326 63.816 63.328 63.111 62.816 62.586 62.328 62.001 61.761 61.513 61.276 61.038 60.793 60.581 60.348 60.121 59.923 59.743 59.561 59.406 59.231 59.036 58.883 58.671 58.538 58.373 58.173 57.991 57.798 57.606 57.423 57.238 57.043 56.841 56.593 56.381 56.151 55.918 55.681 55.431 55.201 55.003 54.781 54.611 54.463 54.333 54.203 54.086 53.968 53.896 53.773 53.683 53.563 53.461 53.311 53.163 53.043 52.893 52.751 52.613 52.466 52.321 52.241 52.131 52.033 51.931 51.836 51.741 51.631 51.503 51.411 51.338 51.243 51.186
92.8 92.89 93.012 93.132 93.21 93.215 93.265 93.342 93.442 93.542 93.66 93.795 93.872 93.897 93.937 93.977 93.995 94.03 94.097 94.13 94.12 94.135 94.287 94.407 94.167 94.127 94.127 94.132 94.152 94.277 94.125 94.112 94.175 94.135 93.962 93.767 93.592 93.16 92.527 92.16 92.127 92.12 92.107 92.1 92.092 92.1 92.082 92.065 92.065 92.075 92.067 92.075 92.075 92.097 92.085 92.085 92.11 92.112 92.125 92.09 92.135 92.197 92.605 93.247 93.655 93.805 93.977 94.025 94.045 94.107 94.222 94.312 94.412 94.495 94.607 94.685 94.725 94.797 94.822 94.847 94.912 94.93 94.757 94.715 94.265 93.462 92.82 92.21 91.705 91.575 91.575 91.497 91.455 91.132 90.537 90.34 90.122 89.912 89.709 89.467 89.244 88.977 88.729 88.432 88.144 87.829 87.524 87.262 86.954 86.694 86.437 86.144 85.927 85.689 85.484 85.292 85.114 84.944 84.812 84.687 84.569 84.467 84.332 84.267 84.142 84.034 83.967 83.864 83.807 83.727 83.662 83.542 83.329 83.129 82.957 82.809 82.679 82.569 82.407 82.357 82.227 82.057 82.017 82.049 81.669 81.047 80.147 78.932 77.979 76.649 75.457 74.324 73.714 73.299 72.994 72.724 72.467 72.187 71.972 71.717 71.467 71.207 70.847 70.549 70.527 70.314 70.209 69.789 69.627 69.047 68.987 68.614 68.197 67.324 65.987 64.764 64.264 64.692 65.752 66.552 68.154 69.599 70.457 70.792 71.082 71.472 71.744 71.922 72.029 72.112 72.317 72.477 72.679 72.869 73.262 73.884 74.497 74.789 77.074 81.959 79.002 76.847 77.547 84.294 87.286 79.471 78.612 79.609 79.994 80.409 80.724 81.446 82.026 82.651 82.591 82.094 81.701 81.864 82.407 82.602 82.176 82.329 82.356 82.464 83.392 82.899 82.894 82.924 83.014 83.769 83.244 83.291 83.322 84.106 85.044 83.749 83.634 85.239 84.254 85.322 86.084 86.136 86.316 85.734 83.239 83.509 83.331 83.189 83.181 83.181 83.226 83.276 83.169 83.749 86.826 89.084 90.134 89.639 87.834 82.989 82.871 82.779 83.021 84.086 82.844 82.849 83.781 83.746 83.471 83.379 82.936 83.024 83.181 84.564 85.186 83.879 83.539 83.616 83.621 83.699 83.861 84.036 84.176 84.291 84.374 84.391 84.386 84.391 84.336 84.299 84.261 84.164 84.046 83.921 83.749 83.554 83.356 83.139 82.921 82.706 82.464 82.194 81.916 81.621 81.284 80.901 80.481 80.039 79.571 79.131 78.666 78.204 77.731 77.284 76.831 76.351 75.864 75.441 74.974 74.529 74.091 73.669 73.224 72.764 72.339 71.984 71.959 72.046 72.269 72.439 72.421 70.749 70.034 69.729 69.539 69.344 69.121 68.921 68.656 68.404 68.269 68.179 68.201 67.651 67.759 67.321 65.181 64.888 64.966 65.026 64.976 65.013 64.928 64.943 64.756 64.708 64.603 64.371 63.718 63.498 63.258 62.988 62.731 62.463 62.171 61.936 61.706 61.468 61.236 61.011 60.776 60.561 60.316 60.143 59.911 59.761 59.573 59.396 59.236 59.068 58.886 58.731 58.536 58.373 58.198 57.963 57.761 57.531 57.388 57.178 56.953 56.711 56.453 56.191 55.971 55.766 55.521 55.288 55.091 54.901 54.723 54.558 54.443 54.336 54.208 54.096 53.988 53.871 53.791 53.681 53.563 53.453 53.301 53.151 53.011 52.841 52.716 52.573 52.401 52.301 52.203 52.041 51.951 51.861 51.751 51.626 51.536 51.433 51.338 51.273 51.206
93.047 93.147 93.227 93.28 93.297 93.375 93.47 93.572 93.62 93.705 93.815 93.907 93.987 93.99 94.007 94.045 94.04 94.082 94.11 94.127 94.117 94.097 94.14 94.147 97.71 96.68 94.192 94.087 94.087 94.077 94.052 94.047 94.065 94.112 94.11 94.06 93.895 93.71 93.305 92.727 92.292 92.132 92.137 92.12 92.115 92.097 92.07 92.077 92.09 92.097 92.097 92.1 92.102 92.1 92.097 92.097 92.077 92.102 92.117 92.18 92.405 92.887 93.375 93.695 93.907 93.902 94.135 94.115 94.185 94.202 94.272 94.347 94.44 94.532 94.637 94.7 94.78 94.805 94.847 94.86 94.872 94.887 94.742 94.592 94.142 93.835 93.117 92.527 91.592 91.56 91.51 91.415 91.375 90.997 90.502 90.292 90.082 89.874 89.697 89.459 89.219 88.967 88.709 88.392 88.114 87.819 87.507 87.194 86.939 86.667 86.372 86.097 85.874 85.632 85.364 85.184 84.992 84.807 84.627 84.484 84.344 84.234 84.122 83.952 83.859 83.734 83.649 83.572 83.499 83.409 83.299 83.207 83.004 82.847 82.622 82.439 82.307 82.169 82.009 81.934 81.847 81.684 81.644 81.607 81.272 80.629 79.987 78.737 77.689 76.644 75.274 74.122 73.627 73.287 73.037 72.819 72.729 72.237 71.949 71.799 71.582 71.439 71.012 70.657 70.634 70.262 70.122 69.884 69.637 69.272 69.169 68.699 68.169 67.609 67.289 66.012 65.377 64.584 65.392 66.359 67.077 69.019 70.374 70.727 70.939 71.197 71.532 71.777 71.872 71.994 72.112 72.312 72.574 72.804 72.919 73.347 73.852 74.257 74.722 75.349 76.597 92.369 77.114 80.462 84.687 89.679 78.929 78.237 78.591 80.679 80.196 80.374 80.581 81.604 83.221 82.752 81.882 82.159 82.019 82.161 81.979 82.229 82.294 82.371 83.204 83.239 82.759 82.882 83.011 84.066 83.187 83.229 83.269 83.916 84.444 83.411 83.404 83.466 83.334 86.666 88.589 89.559 89.032 87.166 84.036 84.422 83.699 83.261 83.186 83.179 83.209 83.646 84.311 84.246 86.449 88.471 89.624 88.801 87.074 83.076 82.856 82.994 83.899 83.119 82.884 83.156 83.636 82.936 82.861 82.914 83.039 83.109 83.136 83.169 84.556 83.416 83.564 84.001 83.636 83.729 83.826 83.989 84.144 84.249 84.324 84.354 84.356 84.361 84.316 84.296 84.251 84.194 84.086 83.939 83.749 83.561 83.384 83.189 82.941 82.701 82.449 82.164 81.894 81.586 81.264 80.906 80.519 80.126 79.656 79.219 78.756 78.266 77.764 77.291 76.841 76.354 75.864 75.381 74.919 74.444 74.016 73.599 73.166 72.744 72.316 71.936 71.611 71.306 71.021 70.956 70.781 70.201 69.924 69.706 69.514 69.351 69.139 68.901 68.666 68.419 68.421 68.651 69.226 68.496 67.401 66.261 64.906 64.896 65.036 64.998 65.008 64.941 64.933 64.891 64.758 64.856 64.818 64.173 63.798 63.616 63.361 63.131 62.871 62.591 62.391 62.156 61.911 61.661 61.431 61.208 61.001 60.773 60.546 60.346 60.151 59.953 59.763 59.591 59.423 59.241 59.088 58.911 58.733 58.548 58.381 58.161 57.963 57.738 57.496 57.273 57.038 56.803 56.536 56.271 56.028 55.796 55.548 55.371 55.153 54.996 54.828 54.661 54.531 54.431 54.323 54.198 54.126 54.038 53.913 53.818 53.701 53.551 53.401 53.261 53.116 52.943 52.781 52.658 52.533 52.386 52.231 52.111 51.983 51.878 51.763 51.648 51.536 51.418 51.313 51.241 51.146
93.222 93.33 93.34 93.38 93.445 93.495 93.585 93.665 93.707 93.735 93.762 93.805 93.845 93.887 93.925 93.93 93.917 93.94 93.957 93.947 93.947 93.932 93.922 94.825 98.025 98.787 94.37 93.912 93.93 93.937 93.915 93.932 93.977 94.072 94.17 94.332 94.272 93.967 93.87 93.562 93.085 92.687 92.372 92.24 92.152 92.125 92.095 92.112 92.125 92.13 92.145 92.125 92.137 92.117 92.132 92.135 92.142 92.25 92.517 92.862 93.21 93.53 94.045 94.012 93.972 93.982 94.09 94.565 94.29 94.285 94.33 94.402 94.497 94.61 94.692 94.765 94.79 94.785 94.802 94.847 94.91 94.917 94.71 94.582 94.125 93.627 92.592 91.965 91.525 91.475 91.417 91.307 91.34 90.9 90.495 90.285 90.057 89.867 89.662 89.439 89.194 88.942 88.649 88.372 88.122 87.799 87.484 87.207 86.887 86.627 86.324 86.022 85.762 85.509 85.269 85.069 84.862 84.662 84.459 84.307 84.172 84.029 83.897 83.734 83.622 83.507 83.402 83.307 83.207 83.092 82.977 82.872 82.682 82.499 82.334 82.169 81.992 81.792 81.674 81.559 81.469 81.307 81.257 81.507 80.772 80.144 79.954 79.064 78.029 76.527 75.222 74.087 73.784 73.302 73.062 72.784 72.599 72.337 72.062 71.874 71.789 71.424 71.072 71.014 70.554 70.257 70.209 69.974 69.717 69.304 69.104 68.782 68.387 67.902 67.534 66.874 66.002 65.019 64.469 65.639 66.744 69.009 70.274 70.602 70.844 71.017 71.314 71.492 71.639 71.794 71.934 72.107 72.324 72.617 72.714 73.009 73.427 73.764 74.102 74.739 78.024 85.889 83.434 77.431 85.424 85.841 80.314 77.521 78.602 78.826 79.207 80.136 79.839 79.979 81.111 82.576 81.794 81.479 81.696 82.097 83.407 82.102 82.159 82.224 83.422 84.164 82.797 82.791 82.939 84.074 83.257 83.172 83.201 83.916 84.689 83.396 83.432 83.324 85.444 87.504 89.407 90.282 89.511 87.434 83.339 83.314 83.392 83.249 83.201 83.221 83.199 83.344 83.431 83.249 83.044 83.054 83.906 86.124 86.001 83.404 83.161 84.306 83.161 82.939 82.951 83.001 82.981 82.754 82.861 82.926 83.059 83.501 83.381 83.169 83.264 83.381 83.479 83.544 83.596 83.819 84.291 85.634 84.319 84.211 84.266 84.301 84.311 84.299 84.294 84.269 84.234 84.179 84.086 83.949 83.761 83.581 83.351 83.199 82.976 82.689 82.406 82.164 81.879 81.566 81.241 80.906 80.509 80.131 79.706 79.256 78.769 78.314 77.831 77.324 76.849 76.354 75.854 75.376 74.911 74.439 73.989 73.551 73.126 72.701 72.291 71.894 71.566 71.216 70.871 70.599 70.359 70.104 69.861 69.666 69.501 69.326 69.099 68.894 68.609 68.379 68.374 68.869 69.061 67.939 66.489 65.181 64.886 64.886 65.028 64.936 65.018 64.916 64.941 64.853 64.833 64.943 64.698 64.148 63.951 63.726 63.511 63.318 63.043 62.756 62.548 62.361 62.116 61.883 61.666 61.433 61.211 60.998 60.796 60.578 60.393 60.198 60.026 59.828 59.666 59.493 59.303 59.121 58.933 58.753 58.558 58.348 58.098 57.876 57.636 57.421 57.166 56.898 56.651 56.386 56.121 55.871 55.613 55.421 55.238 55.051 54.891 54.741 54.616 54.501 54.393 54.316 54.273 54.201 54.086 53.981 53.853 53.706 53.556 53.388 53.231 53.103 52.938 52.766 52.621 52.468 52.313 52.188 52.021 51.868 51.798 51.683 51.563 51.411 51.328 51.251 51.178
93.37 93.42 93.46 93.53 93.527 93.557 93.615 93.705 93.71 93.707 93.74 93.777 93.785 93.805 93.82 93.827 93.807 93.852 93.877 93.83 93.815 93.79 93.775 93.767 93.775 93.797 93.76 93.76 93.777 93.79 93.837 93.892 93.927 94.057 94.16 94.315 94.292 94.117 94.087 94.025 93.782 93.55 93.29 93.017 92.75 92.522 92.375 92.302 92.262 92.227 92.247 92.267 92.267 92.35 92.417 92.63 92.835 93.105 93.39 93.952 93.725 93.897 94.187 94.067 94.035 94.077 94.165 94.382 94.57 94.37 94.407 94.5 94.6 94.667 94.745 94.782 94.822 94.842 94.88 94.925 94.925 94.895 94.665 94.735 93.99 93.622 92.982 91.862 91.48 91.382 91.312 91.235 91.222 90.797 90.482 90.28 90.04 89.819 89.634 89.419 89.157 88.909 88.627 88.359 88.094 87.764 87.462 87.184 86.897 86.602 86.312 85.967 85.719 85.464 85.252 84.999 84.779 84.554 84.307 84.172 84.007 83.827 83.674 83.514 83.399 83.247 83.142 83.039 82.929 82.762 82.634 82.569 82.422 82.209 82.047 81.897 81.707 81.512 81.314 81.174 81.079 80.974 80.862 80.599 79.952 79.707 78.817 78.204 77.587 76.447 75.214 73.949 73.999 73.364 73.074 72.922 72.784 72.442 72.162 71.999 71.704 71.474 71.357 70.797 70.527 70.359 70.139 70.027 69.849 69.562 69.432 68.962 68.487 68.172 67.772 67.104 66.134 65.969 64.724 64.792 66.344 68.232 69.704 70.482 70.667 70.842 71.017 71.227 71.442 71.622 71.882 72.022 72.134 72.392 72.559 72.984 73.042 73.324 73.596 74.224 74.931 75.466 76.184 76.994 77.234 80.596 76.801 77.011 77.374 77.901 78.389 78.809 78.867 82.514 87.054 87.261 86.559 81.026 81.166 81.782 82.889 83.082 82.079 82.241 83.067 83.676 83.279 82.886 83.269 84.314 83.199 83.134 83.182 83.439 84.617 83.411 83.429 83.352 85.691 87.457 89.291 90.249 89.627 87.739 83.181 83.294 83.359 83.329 83.234 83.244 83.241 83.349 83.371 83.274 83.449 83.119 83.434 83.309 84.064 84.079 83.626 83.054 82.941 83.236 83.711 84.344 85.389 84.911 82.829 82.894 83.036 83.474 83.281 83.179 83.266 83.399 83.499 83.569 83.646 83.816 84.011 85.601 84.661 84.376 84.276 84.274 84.254 84.236 84.254 84.246 84.231 84.154 84.066 83.926 83.784 83.626 83.416 83.209 82.976 82.684 82.409 82.166 81.889 81.571 81.211 80.876 80.554 80.209 79.784 79.294 78.804 78.316 77.836 77.316 76.846 76.381 75.881 75.391 74.916 74.446 73.994 73.541 73.109 72.669 72.261 71.861 71.526 71.219 70.866 70.586 70.301 70.069 69.834 69.654 69.471 69.271 69.049 68.821 68.594 68.386 68.266 68.394 68.306 67.006 66.491 64.954 64.864 64.936 65.016 64.981 64.923 64.906 64.851 64.846 65.043 65.106 64.633 64.236 64.078 63.868 63.683 63.453 63.178 62.938 62.723 62.536 62.323 62.106 61.868 61.673 61.463 61.253 61.053 60.856 60.638 60.436 60.248 60.061 59.891 59.723 59.541 59.368 59.176 58.968 58.766 58.521 58.298 58.041 57.771 57.531 57.291 57.013 56.748 56.503 56.223 55.943 55.668 55.518 55.333 55.146 54.986 54.828 54.676 54.563 54.463 54.438 54.378 54.296 54.211 54.118 53.963 53.848 53.711 53.543 53.388 53.221 53.046 52.881 52.753 52.598 52.451 52.281 52.106 51.936 51.813 51.703 51.593 51.483 51.378 51.273 51.188
93.495 93.557 93.555 93.577 93.597 93.625 93.685 93.725 93.772 93.77 93.817 93.832 93.832 93.812 93.795 93.83 93.815 93.812 93.83 93.782 93.75 93.767 93.795 93.747 93.847 93.74 94.105 93.892 94.085 94.19 94.555 94.355 93.88 93.975 94.122 94.21 94.25 94.255 94.22 94.182 94.367 94.17 93.855 93.717 93.56 93.427 93.315 93.247 93.17 93.112 93.1 93.107 93.162 93.232 93.367 93.44 93.605 93.737 93.832 94.055 94.025 94.005 94.052 94.1 94.112 94.145 94.23 94.492 94.45 94.532 94.5 94.597 94.667 94.707 94.777 94.865 94.915 94.952 95.03 95.037 94.942 94.85 94.65 95.932 93.705 94.952 95.177 91.77 91.425 91.357 91.255 91.2 91.162 90.752 90.515 90.272 90.015 89.824 89.627 89.399 89.142 88.882 88.614 88.409 88.089 87.782 87.507 87.234 86.957 86.634 86.317 85.969 85.699 85.412 85.152 84.939 84.714 84.489 84.244 84.057 83.897 83.687 83.482 83.319 83.184 83.059 82.929 82.794 82.679 82.539 82.372 82.282 82.142 81.964 81.762 81.629 81.427 81.247 81.049 80.842 80.747 80.639 80.509 80.157 79.417 79.077 78.629 77.977 76.987 76.024 74.902 73.954 73.539 73.372 73.134 72.857 72.579 72.402 72.044 71.827 71.547 71.329 71.034 70.802 70.684 70.459 70.197 70.092 69.977 69.844 69.752 69.567 68.792 68.482 68.237 67.572 66.172 65.572 64.277 65.292 68.764 67.557 69.037 70.064 70.499 70.599 70.752 71.039 71.284 71.529 71.687 71.892 71.999 72.089 72.312 72.759 72.624 72.829 73.076 73.589 74.392 75.079 76.179 77.154 76.246 76.801 76.634 76.709 76.926 77.504 77.812 77.994 79.399 87.274 88.111 93.696 90.694 80.521 79.669 80.484 81.496 82.264 83.339 83.374 83.479 82.832 83.151 83.234 83.409 83.909 83.141 83.151 83.172 83.306 85.199 84.282 83.966 83.659 84.547 86.094 89.157 90.184 89.774 87.849 83.151 83.261 83.371 83.331 83.256 83.254 83.274 83.329 83.429 83.394 83.451 84.046 83.189 83.164 83.851 83.829 83.011 83.004 82.984 84.091 84.004 87.061 87.636 88.766 86.914 83.276 83.266 83.036 83.149 83.191 83.251 83.344 83.459 83.579 83.674 83.819 84.144 84.689 85.976 84.651 84.396 84.456 84.246 84.216 84.219 84.236 84.221 84.164 84.061 83.894 83.746 83.609 83.456 83.249 83.026 82.724 82.464 82.226 81.924 81.584 81.231 80.899 80.586 80.231 79.784 79.311 78.861 78.371 77.849 77.364 76.879 76.396 75.874 75.384 74.899 74.421 73.966 73.524 73.089 72.684 72.284 71.894 71.576 71.304 70.909 70.581 70.286 70.054 69.821 69.624 69.424 69.231 69.004 68.791 68.576 68.371 68.169 68.274 67.769 66.886 65.271 64.889 64.891 65.011 64.966 64.956 64.888 64.868 64.813 64.926 65.326 65.836 64.591 64.393 64.208 63.998 63.821 63.583 63.323 63.136 62.943 62.731 62.528 62.328 62.098 61.893 61.688 61.473 61.303 61.116 60.911 60.713 60.516 60.311 60.131 59.921 59.741 59.571 59.396 59.198 58.991 58.761 58.531 58.263 57.991 57.721 57.408 57.106 56.833 56.563 56.278 56.013 55.808 55.578 55.401 55.258 55.091 54.911 54.781 54.676 54.576 54.546 54.508 54.448 54.371 54.228 54.096 53.981 53.816 53.653 53.513 53.331 53.201 53.036 52.866 52.728 52.586 52.421 52.236 52.103 51.926 51.798 51.666 51.533 51.416 51.321 51.181
93.545 93.662 94.627 93.875 94.97 94.21 95.055 94.525 95.65 94.937 96.012 95.28 96.35 95.625 96.912 96.115 97.332 96.762 97.592 97.34 98.037 97.792 97.78 98.152 98.275 98.51 98.46 98.81 98.82 99.215 99.447 96.685 94.035 93.902 93.912 94.005 94.217 94.342 94.302 94.295 95.627 95.965 94.73 94.18 94.172 94.24 94.065 94.017 94.032 93.987 93.897 93.817 93.82 93.83 93.895 93.945 94.002 94 94.052 94.095 94.112 94.097 94.105 94.162 94.222 94.267 94.33 94.622 94.547 94.567 94.58 94.665 94.735 94.832 94.93 94.995 95.042 95.087 95.122 95.062 94.977 94.827 94.65 94.132 93.522 93.605 92.935 92.1 91.99 91.332 91.21 91.172 91.057 90.787 90.505 90.22 89.99 89.832 89.609 89.394 89.149 88.912 88.677 88.397 88.132 87.857 87.582 87.267 86.989 86.682 86.377 86.032 85.742 85.502 85.224 84.947 84.677 84.462 84.184 84.002 83.847 83.584 83.364 83.194 83.049 82.919 82.744 82.614 82.529 82.344 82.189 82.039 81.904 81.749 81.539 81.344 81.159 80.969 80.782 80.567 80.504 80.389 80.334 80.227 79.184 78.844 78.412 77.859 76.952 76.034 74.804 73.974 73.644 73.352 73.104 72.969 72.712 72.419 72.074 71.834 71.522 71.237 71.099 70.832 71.307 70.502 70.224 70.089 70.037 70.002 69.652 69.402 68.907 68.774 68.389 67.844 66.982 65.562 64.077 64.249 70.142 67.542 68.732 69.744 70.342 70.454 70.599 70.869 71.184 71.414 71.534 71.687 71.867 71.942 72.082 72.164 72.287 72.409 72.626 72.924 73.559 74.286 75.034 75.496 75.849 76.074 76.244 76.382 76.549 76.946 77.176 77.172 80.129 81.284 79.106 79.054 80.862 84.007 78.612 79.144 80.146 80.651 81.017 81.529 82.562 82.701 83.244 83.196 83.209 83.532 83.267 83.791 84.076 84.532 83.841 84.072 84.839 83.249 83.139 85.062 89.017 90.114 89.876 88.731 85.114 83.219 83.334 83.379 83.296 83.244 83.274 83.274 83.406 83.479 83.419 84.281 83.299 83.281 83.351 83.186 83.106 83.081 83.266 83.779 86.034 87.551 89.561 89.404 88.899 85.861 83.161 82.921 83.074 83.326 83.316 83.354 83.461 83.539 83.684 83.766 83.949 84.046 84.129 84.226 84.224 84.524 84.399 84.306 84.214 84.196 84.146 84.126 84.064 83.919 83.774 83.631 83.459 83.261 83.054 82.769 82.506 82.254 81.951 81.626 81.264 80.924 80.604 80.224 79.764 79.309 78.854 78.409 77.911 77.399 76.929 76.429 75.919 75.381 74.876 74.396 73.929 73.516 73.114 72.734 72.394 72.016 71.659 71.364 71.046 70.721 70.401 70.094 69.824 69.624 69.424 69.241 69.016 68.789 68.526 68.321 68.134 67.989 67.251 66.781 65.004 64.869 64.941 64.986 64.988 64.906 64.891 64.876 64.878 65.166 65.636 65.301 64.598 64.511 64.323 64.141 63.938 63.703 63.516 63.326 63.131 62.948 62.751 62.541 62.358 62.128 61.908 61.713 61.521 61.338 61.138 60.938 60.753 60.568 60.356 60.181 60.008 59.813 59.618 59.423 59.183 58.958 58.731 58.478 58.193 57.908 57.591 57.286 56.966 56.678 56.393 56.123 55.871 55.651 55.448 55.318 55.188 55.008 54.906 54.806 54.706 54.643 54.598 54.548 54.471 54.358 54.236 54.071 53.931 53.768 53.608 53.446 53.311 53.186 53.006 52.853 52.681 52.548 52.403 52.208 52.028 51.863 51.741 51.628 51.496 51.403 51.273
95.73 98.405 99.417 98.922 99.475 99.14 99.487 99.48 99.502 99.547 99.515 99.555 99.547 99.55 99.54 99.56 99.555 99.56 99.565 99.552 99.552 99.56 99.567 99.577 99.565 99.577 99.585 99.572 99.577 99.585 99.6 97.327 94.065 93.95 94.552 93.995 94.01 94.67 94.277 94.617 95.642 96.51 95.18 94.465 94.59 94.517 94.497 94.497 94.5 94.485 94.412 94.395 94.442 94.152 94.252 94.162 94.182 94.187 94.17 94.167 94.165 94.19 94.202 94.272 94.875 94.997 94.497 94.612 94.762 94.792 94.742 94.827 94.925 95.022 95.077 95.112 95.14 95.147 95.17 95.117 95.02 94.88 94.72 94.217 94.087 93.937 92.44 91.82 91.4 91.28 91.197 91.175 90.987 90.897 90.467 90.212 90.002 89.832 89.629 89.417 89.197 88.949 88.689 88.454 88.204 87.924 87.634 87.342 87.067 86.762 86.439 86.119 85.807 85.569 85.292 84.969 84.732 84.509 84.209 84.004 83.777 83.522 83.292 83.149 82.962 82.824 82.659 82.512 82.384 82.177 82.042 81.907 81.777 81.599 81.364 81.152 80.947 80.747 80.539 80.387 80.289 80.162 80.159 79.677 78.777 78.397 78.037 77.447 76.777 76.054 75.064 74.129 73.699 73.392 73.167 72.987 72.719 72.359 72.039 71.747 71.432 71.204 70.979 70.822 70.719 70.487 70.342 70.044 69.942 69.957 69.679 69.852 68.832 68.759 68.382 67.634 66.352 64.582 63.844 65.389 66.017 68.202 68.504 69.542 70.262 70.474 70.464 70.832 71.369 71.377 71.382 71.554 71.687 71.759 71.974 71.844 71.979 72.099 72.409 72.399 72.844 73.544 74.234 74.884 75.341 75.664 75.844 75.992 76.091 76.334 76.404 76.324 76.276 76.394 80.911 78.411 77.831 77.724 78.004 78.416 78.886 79.356 79.719 80.129 80.742 81.224 81.822 82.754 82.896 83.354 83.164 83.776 90.224 87.896 83.572 83.804 83.544 83.094 83.154 84.151 88.856 90.009 90.026 88.869 85.176 83.222 83.411 83.406 83.349 83.241 83.276 83.314 83.331 83.409 83.466 84.019 83.684 83.414 83.386 83.319 83.176 83.146 83.094 83.561 86.201 88.719 89.256 89.681 88.194 83.566 85.531 84.634 83.016 83.339 83.404 83.419 83.491 83.606 84.044 83.899 83.929 84.006 84.114 84.166 84.186 84.186 84.309 84.479 84.289 84.271 84.149 84.071 84.009 83.921 83.801 83.656 83.476 83.289 83.074 82.811 82.541 82.284 81.981 81.664 81.329 80.981 80.634 80.274 79.834 79.366 78.909 78.411 77.909 77.396 76.916 76.429 75.901 75.404 74.886 74.396 73.909 73.506 73.144 72.769 72.441 72.086 71.744 71.419 71.104 70.819 70.531 70.236 69.959 69.686 69.504 69.291 69.071 68.824 68.499 68.274 68.161 67.564 66.636 65.426 64.914 64.886 64.979 64.953 64.993 64.916 64.888 64.851 65.033 65.603 65.723 64.978 64.763 64.648 64.446 64.283 64.091 63.906 63.708 63.516 63.296 63.088 62.906 62.726 62.541 62.321 62.136 61.958 61.758 61.568 61.353 61.196 60.986 60.811 60.608 60.431 60.233 60.041 59.853 59.621 59.441 59.193 58.913 58.656 58.383 58.066 57.733 57.433 57.113 56.806 56.526 56.236 56.021 55.753 55.603 55.443 55.241 55.108 54.986 54.883 54.831 54.778 54.703 54.638 54.558 54.466 54.351 54.183 54.023 53.841 53.706 53.533 53.371 53.241 53.058 52.913 52.771 52.641 52.496 52.328 52.176 52.001 51.826 51.688 51.576 51.471 51.401
99.107 99.652 99.575 99.597 99.587 99.59 99.595 99.585 99.592 99.59 99.6 99.607 99.612 99.597 99.61 99.615 99.602 99.61 99.605 99.625 99.622 99.615 99.612 99.62 99.617 99.63 99.637 99.652 99.64 99.647 99.647 98.327 94.032 94.112 94.017 94.022 93.987 94.427 94.04 94.05 94.13 94.62 94.815 94.167 94.13 94.272 94.482 94.257 94.292 94.32 94.485 94.687 94.43 94.33 94.335 94.307 94.31 94.297 94.357 94.317 94.287 94.33 94.402 94.495 95.022 95.157 94.837 95.497 95.427 95.062 95.1 95.17 95.21 95.265 95.272 95.275 95.257 95.24 95.235 95.192 95.065 94.905 94.632 94.187 94.062 94.002 92.267 91.852 91.367 91.247 91.17 91.137 90.917 90.76 90.452 90.217 90 89.867 89.652 89.449 89.214 89.007 88.774 88.484 88.269 88.034 87.759 87.464 87.177 86.879 86.564 86.242 85.939 85.694 85.379 85.089 84.797 84.532 84.274 84.047 83.849 83.534 83.304 83.139 82.962 82.824 82.632 82.454 82.269 82.107 81.922 81.847 81.707 81.502 81.242 81.022 80.794 80.574 80.399 80.234 80.122 80.017 79.957 79.747 78.887 78.239 77.759 77.262 76.644 77.209 75.982 74.224 73.679 73.339 73.122 72.854 72.687 72.277 71.982 71.729 71.482 71.747 70.992 70.802 70.574 70.407 70.242 69.992 69.917 69.884 69.562 69.059 68.744 68.607 68.262 67.267 65.902 64.574 63.889 68.912 68.834 70.964 68.309 69.559 70.222 70.307 70.482 70.532 70.767 70.979 71.239 71.392 71.484 71.557 71.522 71.562 71.682 71.761 71.834 71.924 72.304 72.844 73.507 74.227 75.079 75.121 75.341 75.536 75.539 75.674 75.841 76.039 76.146 76.252 77.524 85.454 79.851 77.161 77.441 77.744 78.007 78.301 78.602 78.884 79.466 79.874 80.716 81.619 82.259 82.961 83.066 85.437 89.629 88.704 83.439 83.642 83.197 83.049 83.076 83.632 88.466 89.889 90.119 88.994 83.259 84.134 83.894 83.326 83.386 83.339 83.269 83.331 83.334 83.326 83.356 83.456 83.514 83.504 83.501 83.391 83.654 83.434 83.321 83.489 83.399 86.159 87.961 89.131 84.319 86.111 86.969 87.299 84.341 83.029 83.246 83.344 83.486 83.586 83.851 83.821 83.901 83.961 84.066 84.111 84.136 84.171 84.446 84.454 84.596 84.941 84.481 84.136 84.039 83.919 83.829 83.694 83.574 83.326 83.099 82.829 82.594 82.336 82.036 81.721 81.399 81.054 80.691 80.309 79.876 79.419 78.921 78.424 77.901 77.409 76.921 76.419 75.906 75.411 74.911 74.426 73.964 73.554 73.159 72.776 72.424 72.086 71.764 71.454 71.159 70.856 70.566 70.316 70.101 69.881 69.696 69.469 69.166 68.876 68.556 68.266 68.329 66.916 65.746 65.029 64.879 64.956 64.991 64.968 64.888 64.953 64.776 64.801 65.456 66.043 65.866 65.008 64.938 64.748 64.576 64.416 64.198 64.046 63.876 63.688 63.486 63.296 63.098 62.886 62.716 62.508 62.341 62.161 61.953 61.771 61.578 61.408 61.218 61.046 60.848 60.656 60.453 60.248 60.053 59.848 59.611 59.363 59.113 58.836 58.548 58.268 57.933 57.583 57.268 56.946 56.628 56.371 56.118 55.883 55.663 55.493 55.348 55.223 55.111 55.023 54.953 54.903 54.828 54.723 54.633 54.526 54.416 54.253 54.113 53.946 53.803 53.656 53.496 53.321 53.171 53.003 52.828 52.686 52.576 52.421 52.253 52.063 51.908 51.778 51.658 51.576 51.481
101.787 100.215 99.645 99.645 99.647 99.657 99.667 99.645 99.627 99.642 99.66 99.642 99.645 99.652 99.642 99.635 99.64 99.66 99.645 99.65 99.657 99.642 99.63 99.637 99.637 99.647 99.652 99.652 99.655 99.647 99.655 97.927 94.005 94.145 93.84 94.015 93.777 93.782 94.6 95.735 95.9 96.08 93.77 93.74 93.812 94.74 95.02 93.937 94.035 94.637 94.517 94.73 94.565 94.495 94.48 94.437 94.425 94.427 94.585 94.47 94.48 94.635 94.79 94.85 95.432 95.987 95.227 95.392 95.407 95.405 95.442 95.467 95.467 95.472 95.455 95.435 95.4 95.357 95.31 95.25 95.122 94.947 94.607 94.645 93.877 92.955 92.337 92.237 91.357 91.232 91.162 91.14 91 90.662 90.47 90.225 90.047 89.894 89.682 89.489 89.332 89.084 88.864 88.614 88.389 88.099 87.884 87.579 87.297 87.027 86.724 86.352 86.072 85.794 85.514 85.214 84.897 84.639 84.369 84.142 83.904 83.604 83.367 83.169 82.997 82.847 82.662 82.459 82.307 82.087 81.884 81.772 81.629 81.439 81.174 80.942 80.689 80.484 80.322 80.147 80.002 79.894 79.859 79.724 78.979 78.207 77.662 77.157 76.607 76.032 75.372 74.417 73.717 73.362 73.172 73.064 72.549 72.294 72.007 71.762 71.657 71.504 71.244 70.974 70.597 70.374 70.234 69.989 69.852 69.662 69.324 68.937 68.697 68.464 68.134 67.534 66.677 64.997 63.964 67.162 69.182 68.897 68.132 69.867 70.167 70.292 70.549 70.429 70.584 70.857 71.074 71.222 71.297 71.332 71.322 71.459 71.834 71.481 71.534 71.581 72.041 72.179 72.739 73.494 74.101 74.464 74.754 74.867 74.914 75.181 75.484 75.774 75.864 75.979 76.196 76.479 76.646 76.869 76.992 77.242 77.312 77.449 77.767 78.629 78.377 78.877 79.411 80.224 81.659 82.496 83.104 88.657 88.114 83.612 82.859 82.909 82.959 83.002 83.064 83.084 87.782 89.589 89.134 86.551 84.502 83.234 83.157 83.229 83.334 83.459 83.384 83.311 83.314 83.346 83.324 83.321 83.349 83.409 83.479 83.474 84.006 83.544 83.744 83.306 83.029 83.116 84.554 84.986 84.829 87.134 88.794 89.221 88.649 84.376 83.511 84.724 83.736 83.466 83.571 83.729 83.836 83.941 84.009 84.064 84.101 84.266 85.786 85.179 84.356 84.464 85.041 84.639 84.206 84.054 83.894 83.754 83.611 83.369 83.079 82.841 82.586 82.354 82.071 81.731 81.414 81.091 80.721 80.294 79.911 79.441 78.959 78.474 77.944 77.439 76.921 76.421 75.926 75.446 74.971 74.501 74.024 73.589 73.179 72.804 72.439 72.101 71.756 71.441 71.154 70.871 70.661 70.431 70.214 70.009 69.826 69.601 69.306 68.981 69.704 69.041 68.479 68.556 68.204 65.709 64.951 65.054 64.984 65.008 64.938 64.913 64.721 64.941 66.048 66.558 65.553 65.133 65.101 64.848 64.728 64.508 64.316 64.163 64.018 63.786 63.628 63.463 63.263 63.108 62.906 62.708 62.501 62.341 62.168 61.976 61.781 61.591 61.406 61.236 61.023 60.843 60.641 60.416 60.213 60.001 59.771 59.531 59.276 58.983 58.688 58.413 58.106 57.751 57.428 57.088 56.783 56.513 56.283 56.018 55.813 55.616 55.456 55.333 55.236 55.118 55.071 55.001 54.918 54.826 54.731 54.576 54.468 54.348 54.191 53.988 53.841 53.711 53.546 53.411 53.241 53.093 52.941 52.776 52.643 52.483 52.343 52.148 52.001 51.833 51.706 51.626 51.548
101.6 100.535 99.665 99.662 99.65 99.64 99.647 99.64 99.632 99.632 99.635 99.615 99.615 99.602 99.617 99.612 99.607 99.61 99.595 99.597 99.597 99.575 99.575 99.585 99.6 99.592 99.595 99.6 99.602 99.6 99.587 97.28 94.115 94.312 93.77 93.712 93.73 93.697 94.032 94.692 94.47 94.842 93.797 93.705 93.727 93.735 93.755 93.887 94.645 95.497 94.57 94.805 94.795 94.832 94.65 94.712 94.632 94.635 94.735 94.8 94.917 95.132 95.19 95.335 95.292 95.382 95.485 95.597 95.752 95.757 95.657 95.67 95.695 95.68 95.635 95.595 95.555 95.477 95.392 95.307 95.162 94.977 94.697 94.14 94.637 92.905 93.002 92.11 91.397 91.24 91.167 91.135 91.322 90.675 90.497 90.28 90.132 89.964 89.774 89.612 89.404 89.172 88.999 88.764 88.497 88.297 88.039 87.767 87.474 87.189 86.864 86.499 86.229 85.962 85.669 85.329 85.029 84.789 84.517 84.267 84.017 83.712 83.504 83.289 83.129 82.939 82.752 82.557 82.352 82.132 81.907 81.744 81.594 81.412 81.117 80.857 80.604 80.422 80.279 80.109 79.917 79.844 79.854 79.817 79.709 78.194 77.549 77.064 76.562 75.937 75.284 74.469 73.742 73.409 73.177 73.434 72.599 72.324 72.082 71.877 71.704 71.449 71.209 70.972 70.602 70.482 70.304 70.057 69.839 69.462 69.119 68.772 68.587 68.269 67.934 67.387 66.674 65.094 66.112 63.702 70.299 68.734 67.449 68.917 69.964 70.244 70.309 70.392 70.464 70.702 70.922 71.034 71.119 71.122 71.147 71.049 70.987 71.087 71.151 71.206 71.294 71.499 71.996 72.724 73.321 73.719 73.926 74.294 74.369 74.602 74.896 75.154 75.264 75.532 75.896 75.957 79.914 76.371 76.619 76.757 76.771 76.821 77.144 77.451 77.606 77.832 78.407 79.234 80.404 81.291 82.386 83.937 86.239 83.231 82.769 82.797 82.896 82.926 82.981 83.041 84.679 85.502 83.154 83.687 84.694 83.852 82.946 83.126 83.301 83.366 83.491 83.436 83.369 83.309 83.309 83.329 83.361 83.334 83.351 83.409 83.559 83.419 83.331 83.226 83.231 83.134 83.129 83.094 85.156 86.796 89.086 89.506 89.326 88.564 87.689 84.811 85.086 83.524 83.311 83.359 83.636 83.869 83.954 84.001 84.026 85.159 84.631 86.534 84.656 84.376 84.411 84.936 84.406 84.194 83.971 83.829 83.656 83.406 83.099 82.814 82.536 82.281 81.999 81.689 81.381 81.059 80.714 80.316 79.929 79.494 79.009 78.531 78.024 77.494 76.984 76.491 75.989 75.494 75.011 74.531 74.061 73.604 73.204 72.831 72.461 72.134 71.814 71.484 71.194 70.956 70.746 70.561 70.321 70.144 69.936 69.626 69.271 69.316 72.356 70.766 67.741 66.819 66.874 69.801 67.651 66.404 65.316 64.938 64.941 64.783 64.776 65.593 66.531 66.488 65.388 65.313 65.178 64.986 64.848 64.638 64.416 64.278 64.123 63.923 63.753 63.583 63.411 63.256 63.056 62.863 62.736 62.556 62.358 62.151 61.983 61.781 61.573 61.396 61.206 61.003 60.761 60.568 60.368 60.151 59.926 59.671 59.428 59.123 58.841 58.526 58.201 57.891 57.566 57.208 56.886 56.651 56.418 56.173 55.986 55.778 55.633 55.483 55.368 55.261 55.176 55.106 55.001 54.873 54.786 54.663 54.546 54.423 54.273 54.083 53.961 53.788 53.628 53.458 53.308 53.156 52.976 52.833 52.663 52.533 52.388 52.246 52.086 51.918 51.798 51.708 51.618
101.587 100.635 99.595 99.58 99.625 99.587 99.592 99.59 99.592 99.567 99.557 99.557 99.57 99.535 99.55 99.54 99.557 99.565 99.56 99.54 99.542 99.535 99.525 99.52 99.527 99.545 99.55 99.552 99.57 99.552 99.557 97.595 94.647 94.345 93.877 93.705 93.7 93.8 93.875 93.88 94.245 94.572 93.832 93.675 93.705 93.722 94.11 94.535 94.19 95.082 94.62 94.862 95.007 95.115 95.002 94.945 95.025 95.22 95.137 96.017 95.385 95.527 95.527 95.575 95.665 95.805 95.81 95.932 95.987 95.977 95.88 95.885 95.882 95.885 95.827 95.767 95.712 95.6 95.457 95.36 95.187 94.99 94.855 94.14 94.412 92.882 92.177 91.73 91.39 91.237 91.205 91.142 91.332 90.827 90.53 90.33 90.205 90.067 89.877 89.734 89.542 89.304 89.119 88.904 88.637 88.472 88.207 87.939 87.662 87.384 87.049 86.667 86.429 86.124 85.799 85.517 85.204 84.932 84.674 84.414 84.154 83.877 83.664 83.442 83.257 83.067 82.879 82.687 82.472 82.239 81.982 81.787 81.609 81.432 81.132 80.854 80.574 80.372 80.214 80.092 79.952 79.842 79.894 79.809 79.192 78.129 77.557 77.034 76.374 75.752 75.122 74.427 73.779 73.417 73.114 72.799 72.564 72.324 72.099 71.957 71.722 71.512 71.234 71.044 70.677 70.517 70.187 69.919 69.609 69.354 69.064 68.767 68.469 68.169 67.817 67.237 66.759 65.312 64.099 63.677 64.612 65.424 66.339 68.029 69.484 70.047 70.427 70.292 70.359 70.464 70.709 70.862 70.924 70.892 70.922 70.829 70.784 70.659 70.791 70.729 70.754 70.911 71.301 71.966 72.541 72.951 73.261 73.657 73.944 74.087 74.172 74.329 74.461 74.581 74.904 75.264 75.636 75.856 75.782 75.844 75.774 75.879 76.229 76.627 76.749 76.956 77.624 78.351 79.271 80.034 80.922 81.484 82.714 83.139 82.864 82.719 82.779 82.826 82.879 82.922 83.451 84.102 83.884 83.681 83.364 84.896 83.666 82.946 83.089 83.244 83.601 83.954 83.426 83.391 83.331 83.321 83.314 83.349 83.331 83.319 83.291 83.339 83.421 83.381 83.379 83.446 83.219 83.454 83.381 85.011 87.521 88.964 89.439 89.486 88.994 87.124 83.846 83.899 83.464 83.276 83.406 83.741 83.871 83.909 84.989 86.201 85.091 84.459 84.216 84.279 84.569 85.626 85.524 84.446 83.999 83.874 83.726 83.459 83.189 82.889 82.551 82.219 81.864 81.596 81.329 81.014 80.666 80.306 79.926 79.526 79.034 78.539 78.036 77.519 77.009 76.501 76.041 75.536 75.059 74.584 74.129 73.689 73.244 72.876 72.509 72.206 71.869 71.566 71.306 71.074 70.899 70.691 70.444 70.236 69.996 69.606 69.314 69.364 69.176 68.924 66.919 65.536 64.939 66.636 67.819 69.154 68.564 65.696 64.858 64.723 65.231 66.348 66.751 66.238 65.448 65.443 65.288 65.143 64.951 64.748 64.566 64.396 64.246 64.056 63.896 63.728 63.551 63.363 63.221 63.021 62.883 62.718 62.513 62.313 62.128 61.933 61.733 61.551 61.313 61.111 60.923 60.693 60.508 60.303 60.038 59.826 59.546 59.258 58.988 58.653 58.326 58.003 57.693 57.348 57.033 56.783 56.571 56.328 56.108 55.901 55.716 55.591 55.478 55.378 55.293 55.203 55.113 55.008 54.901 54.758 54.606 54.446 54.303 54.141 53.988 53.821 53.656 53.491 53.361 53.203 53.016 52.868 52.746 52.568 52.403 52.256 52.103 51.983 51.871 51.746 51.673
101.6 100.415 99.54 99.527 99.552 99.58 99.562 99.56 99.557 99.54 99.532 99.527 99.525 99.51 99.552 99.535 99.552 99.57 99.547 99.54 99.525 99.522 99.52 99.522 99.547 99.555 99.585 99.577 99.58 99.582 99.582 98.1 93.74 93.745 93.692 93.682 93.667 94.275 94.375 94.065 93.685 93.677 93.68 93.665 93.672 93.675 93.857 94.01 94.805 94.387 94.315 94.797 95.157 95.3 95.317 95.67 95.367 95.442 95.555 95.752 95.832 95.837 95.877 95.955 96.052 96.072 96.182 96.287 96.315 96.22 96.132 96.082 96.057 96.022 95.98 95.942 95.862 95.71 95.56 95.425 95.27 94.997 94.67 94.127 93.472 92.865 92.15 91.705 91.43 91.255 91.232 91.207 91.362 90.815 90.612 90.41 90.277 90.129 89.972 89.839 89.677 89.469 89.292 89.084 88.819 88.614 88.382 88.112 87.834 87.552 87.224 86.867 86.629 86.307 85.989 85.712 85.364 85.124 84.902 84.607 84.362 84.089 83.869 83.637 83.432 83.239 83.049 82.817 82.619 82.364 82.112 81.909 81.717 81.509 81.219 80.947 80.614 80.292 80.154 80.102 79.969 79.919 79.899 79.629 79.404 79.299 77.592 77.004 76.264 75.552 74.919 74.407 73.762 73.339 73.009 72.697 72.539 72.364 72.174 72.052 71.764 71.517 71.197 70.919 70.699 70.544 70.144 69.897 69.634 69.327 69.622 68.739 68.422 68.072 67.647 67.339 66.029 64.957 64.202 63.729 63.674 64.462 65.402 66.899 68.292 69.519 70.064 70.127 70.267 70.269 70.429 70.624 70.694 70.722 70.689 70.854 70.504 70.384 70.251 70.206 70.236 70.297 70.544 71.069 71.624 73.767 72.824 72.727 73.174 73.416 73.562 73.584 73.676 74.591 74.044 74.214 74.529 74.832 74.907 74.889 74.804 74.862 75.134 75.551 75.832 76.316 76.849 77.701 78.549 79.246 79.782 80.837 83.431 82.716 83.244 82.989 82.632 82.669 82.737 82.877 83.224 83.937 83.197 82.807 85.339 86.514 87.734 84.604 82.926 83.081 83.786 83.284 83.321 83.709 84.829 83.831 83.371 83.316 83.306 83.341 83.321 83.311 83.301 83.326 83.396 83.426 83.296 83.886 83.186 83.246 83.111 84.781 88.806 89.314 89.531 85.921 84.746 86.559 86.486 85.146 83.896 85.969 84.089 84.466 85.296 87.274 86.459 84.226 84.204 84.211 84.346 86.866 85.426 85.304 84.114 83.901 83.761 83.561 83.284 82.981 82.614 82.231 81.856 81.516 81.236 80.941 80.626 80.259 79.884 79.499 79.044 78.554 78.056 77.551 77.064 76.579 76.089 75.606 75.129 74.651 74.184 73.729 73.329 72.951 72.579 72.279 71.956 71.644 71.421 71.214 71.034 70.789 70.544 70.289 69.959 69.576 69.569 69.136 68.029 66.916 65.631 65.044 64.921 65.051 64.984 65.066 67.609 69.093 68.066 65.026 66.218 66.796 67.073 65.831 65.551 65.468 65.373 65.248 65.058 64.886 64.723 64.568 64.383 64.203 64.023 63.833 63.671 63.511 63.331 63.143 63.016 62.838 62.646 62.451 62.241 62.058 61.881 61.683 61.481 61.281 61.068 60.853 60.648 60.406 60.161 59.908 59.638 59.358 59.068 58.756 58.396 58.103 57.801 57.473 57.161 56.888 56.651 56.421 56.198 56.008 55.856 55.696 55.611 55.488 55.378 55.278 55.146 55.071 54.938 54.823 54.663 54.516 54.371 54.178 54.036 53.873 53.678 53.506 53.398 53.233 53.096 52.928 52.786 52.633 52.461 52.311 52.178 52.036 51.936 51.808 51.736
101.59 100.607 99.56 99.577 99.587 99.585 99.595 99.577 99.582 99.575 99.565 99.557 99.555 99.575 99.575 99.577 99.595 99.597 99.587 99.59 99.572 99.59 99.572 99.582 99.6 99.617 99.625 99.63 99.637 99.647 99.63 98.657 94.535 94.692 93.812 93.645 93.665 93.69 93.667 93.63 93.66 93.667 93.685 93.635 93.662 93.692 94.11 94.007 93.975 94.38 94.307 94.682 95.102 95.38 95.767 95.73 95.735 95.85 95.92 96.33 96.117 96.17 96.22 96.305 96.387 96.445 96.515 96.525 96.512 96.492 96.345 96.287 96.257 96.23 96.162 96.092 95.995 95.827 95.665 95.51 95.317 95.045 94.732 94.2 93.52 92.802 92.235 91.742 91.422 91.312 91.282 91.205 91.46 91.01 90.71 90.477 90.395 90.277 90.114 89.964 89.792 89.612 89.427 89.244 89.007 88.762 88.544 88.287 87.989 87.679 87.402 87.047 86.814 86.544 86.192 85.922 85.604 85.342 85.074 84.842 84.577 84.317 84.097 83.862 83.659 83.484 83.237 83.039 82.794 82.542 82.322 82.067 81.884 81.662 81.364 81.084 80.757 80.394 80.189 80.174 80.064 79.982 80.002 79.604 79.684 78.324 77.534 76.897 76.059 75.252 74.657 74.302 73.812 73.382 73.064 72.799 72.607 72.457 72.279 72.142 71.804 71.494 71.139 70.837 70.629 70.387 70.157 69.924 69.712 69.484 69.594 68.854 68.457 68.067 67.474 66.709 65.869 65.014 64.584 64.277 63.912 64.024 64.882 65.932 67.279 68.432 69.659 69.919 70.072 70.212 70.207 70.307 70.427 70.457 70.677 72.509 70.554 70.099 69.856 69.746 70.076 69.846 69.924 70.174 70.882 73.454 72.809 71.699 71.994 72.306 72.334 72.571 72.844 72.821 72.931 73.174 73.246 73.316 73.324 73.479 73.599 73.844 74.179 74.597 74.951 75.534 76.102 76.919 77.734 78.329 78.841 79.466 80.466 81.409 82.174 83.541 82.627 83.767 83.139 83.446 82.889 82.926 83.054 84.354 86.754 88.871 88.852 87.756 84.746 83.596 83.869 83.096 83.181 83.311 84.116 84.181 83.379 83.524 83.334 83.289 83.304 83.294 83.274 83.251 83.251 83.266 83.311 83.314 83.269 83.259 83.194 83.164 84.396 88.066 87.536 83.659 87.114 88.274 89.466 88.854 86.644 86.544 85.871 84.361 84.354 85.691 84.426 84.159 84.186 84.176 85.186 84.751 84.654 84.991 84.809 84.024 83.836 83.639 83.414 83.096 82.744 82.309 81.896 81.536 81.191 80.881 80.574 80.211 79.851 79.476 79.061 78.586 78.121 77.626 77.141 76.679 76.174 75.664 75.179 74.706 74.264 73.861 73.439 73.056 72.709 72.384 72.081 71.784 71.551 71.341 71.109 70.849 70.601 70.296 69.916 69.706 70.106 70.214 67.589 66.126 65.159 64.929 64.956 65.024 64.974 64.996 64.899 65.371 67.748 69.718 67.251 66.913 66.531 65.696 65.586 65.503 65.471 65.363 65.196 65.046 64.818 64.663 64.498 64.313 64.131 63.951 63.778 63.626 63.468 63.276 63.103 62.928 62.743 62.568 62.366 62.143 61.963 61.783 61.601 61.403 61.221 61.013 60.791 60.553 60.298 60.023 59.736 59.456 59.143 58.821 58.511 58.196 57.886 57.598 57.306 57.036 56.756 56.508 56.298 56.103 55.943 55.808 55.686 55.571 55.488 55.353 55.248 55.116 55.001 54.871 54.713 54.563 54.376 54.238 54.071 53.903 53.743 53.583 53.388 53.241 53.073 52.916 52.773 52.636 52.483 52.348 52.213 52.086 51.978 51.916 51.826
101.702 100.78 99.612 99.615 99.627 99.632 99.652 99.65 99.64 99.63 99.607 99.622 99.617 99.615 99.617 99.625 99.637 99.657 99.66 99.637 99.635 99.625 99.615 99.635 99.647 99.69 99.68 99.677 99.67 99.7 99.672 99.277 94.795 94.36 93.942 93.645 93.642 93.665 93.66 93.645 93.64 93.635 93.642 93.632 93.622 93.802 95.17 95.807 95.23 94.092 94.2 94.55 95.022 95.387 95.645 95.932 96.145 96.215 96.362 96.697 96.585 96.62 96.64 96.692 96.74 96.757 96.782 96.805 96.84 96.712 96.685 96.54 96.472 96.385 96.317 96.21 96.107 95.957 95.807 95.615 95.387 95.132 94.765 94.595 93.767 92.8 93.212 91.772 91.495 91.375 91.33 91.29 91.477 91.007 90.762 90.587 90.492 90.354 90.227 90.114 89.929 89.739 89.582 89.379 89.137 88.939 88.709 88.447 88.177 87.887 87.574 87.262 86.984 86.709 86.412 86.112 85.837 85.574 85.304 85.064 84.772 84.547 84.334 84.097 83.882 83.674 83.492 83.249 82.984 82.814 82.579 82.284 82.074 81.857 81.537 81.249 80.972 80.669 80.444 80.399 80.269 80.102 80.144 79.399 78.557 77.927 77.367 76.834 76.074 75.254 74.792 74.377 73.979 73.574 73.244 72.944 72.717 72.532 72.354 72.152 71.864 71.567 71.142 70.782 70.597 70.347 70.127 69.977 69.699 69.367 69.094 68.954 68.364 67.637 66.889 66.429 65.764 65.019 64.577 64.157 63.744 64.792 64.669 65.554 66.622 67.477 69.102 69.784 69.837 70.049 70.492 69.984 70.124 70.162 70.647 71.039 69.764 69.624 69.466 69.341 69.629 69.337 69.384 69.547 69.862 70.339 70.142 70.919 70.674 70.999 71.267 71.617 71.836 71.899 72.017 72.197 72.164 72.059 72.176 72.307 72.487 72.874 73.339 73.812 74.119 74.462 75.079 75.907 76.697 77.257 77.712 78.392 79.366 80.454 81.374 82.416 82.699 83.411 83.554 82.532 82.424 82.529 83.234 85.624 87.687 89.484 89.507 89.046 86.541 84.456 86.046 84.821 83.156 83.094 83.551 83.874 83.344 84.424 83.814 83.424 83.354 83.286 83.586 83.224 83.214 83.169 83.154 83.199 83.279 83.264 83.249 83.196 83.176 83.329 84.246 86.436 87.506 89.629 90.031 89.616 89.139 87.821 84.274 84.006 83.984 84.694 84.189 84.109 84.146 84.506 85.084 84.244 84.206 84.204 85.246 84.791 83.899 83.724 83.496 83.221 82.846 82.436 82.016 81.626 81.266 80.884 80.546 80.201 79.811 79.441 79.034 78.589 78.146 77.674 77.231 76.759 76.296 75.806 75.309 74.881 74.429 73.981 73.559 73.174 72.849 72.529 72.206 71.904 71.671 71.429 71.179 70.914 70.621 70.224 69.926 69.701 69.929 69.421 66.746 65.406 64.959 64.909 65.061 65.011 64.989 64.924 64.916 64.733 64.773 68.033 67.868 67.398 66.051 65.816 65.683 65.606 65.578 65.478 65.328 65.156 64.971 64.808 64.616 64.393 64.236 64.078 63.906 63.753 63.586 63.393 63.213 63.028 62.861 62.643 62.468 62.251 62.056 61.873 61.686 61.496 61.343 61.136 60.911 60.676 60.428 60.161 59.891 59.578 59.306 58.978 58.643 58.303 58.003 57.678 57.403 57.141 56.871 56.618 56.406 56.221 56.048 55.898 55.806 55.656 55.561 55.448 55.321 55.208 55.066 54.923 54.758 54.616 54.431 54.286 54.066 53.916 53.718 53.541 53.351 53.258 53.123 52.971 52.816 52.643 52.501 52.356 52.218 52.096 52.033 51.943 51.886
101.677 100.987 99.672 99.662 99.657 99.687 99.68 99.685 99.667 99.657 99.645 99.635 99.645 99.625 99.637 99.627 99.65 99.665 99.65 99.63 99.62 99.617 99.602 99.61 99.63 99.62 99.627 99.65 99.645 99.635 99.622 99.195 94.3 94.057 93.822 93.625 93.61 93.65 93.627 93.64 93.857 94.37 94.052 93.602 93.582 93.665 93.715 93.722 93.805 93.992 94.177 94.527 95.065 95.4 95.737 96.045 96.295 96.547 96.695 97.4 97.127 97.182 96.997 97.047 97.08 97.085 97.105 97.127 97.39 97.072 97.012 96.82 96.687 96.555 96.46 96.33 96.21 96.08 95.922 95.702 95.45 95.202 95.12 94.2 93.91 92.807 92.212 91.782 91.55 91.44 91.392 91.407 91.472 91.155 90.847 90.697 90.597 90.462 90.359 90.232 90.059 89.872 89.739 89.542 89.317 89.104 88.869 88.604 88.357 88.064 87.792 87.474 87.187 86.889 86.587 86.322 86.039 85.732 85.517 85.292 85.007 84.792 84.594 84.362 84.144 83.952 83.739 83.514 83.309 83.094 82.839 82.549 82.324 82.087 81.832 81.504 81.227 80.937 80.697 80.594 80.442 80.207 80.132 79.272 78.587 77.909 77.357 76.794 76.219 75.557 75.037 74.599 74.164 73.784 73.407 73.067 72.867 72.659 72.414 72.367 72.022 71.532 71.154 70.782 70.552 70.332 70.212 69.982 69.744 69.457 69.214 68.789 68.094 67.317 66.484 65.887 65.512 64.889 64.449 63.979 63.639 64.574 64.204 64.962 66.007 66.859 67.902 69.187 69.462 69.627 69.874 69.727 69.729 69.784 69.712 69.504 69.354 69.199 69.166 69.089 68.999 69.002 68.986 68.996 69.084 69.134 69.259 69.304 69.619 69.911 72.394 70.819 71.009 71.034 70.984 71.036 71.227 71.489 71.752 71.926 72.106 72.371 72.786 73.196 73.349 73.487 73.864 74.744 75.551 76.319 76.771 77.407 78.284 79.267 80.377 81.569 82.707 82.814 83.394 82.304 82.331 82.379 83.867 85.301 87.532 88.867 89.322 88.186 83.616 86.881 87.744 88.501 85.434 82.909 83.621 83.959 83.711 83.874 84.274 84.044 83.551 83.464 84.191 83.781 83.176 83.186 83.159 83.101 83.116 83.196 83.241 83.229 83.231 83.226 83.779 85.744 87.814 89.159 89.684 90.036 89.776 87.016 85.361 86.144 85.624 86.714 86.036 84.519 85.151 85.301 84.249 84.249 84.236 84.196 84.164 85.724 84.219 83.774 83.556 83.329 82.971 82.529 82.131 81.744 81.349 80.981 80.579 80.191 79.811 79.454 79.024 78.621 78.201 77.764 77.314 76.846 76.384 75.936 75.466 75.014 74.581 74.179 73.741 73.334 72.984 72.651 72.311 71.986 71.731 71.521 71.249 70.959 70.579 70.189 70.226 69.634 68.691 67.291 65.946 65.036 64.904 64.986 65.076 65.071 64.986 64.954 64.794 64.688 65.031 66.196 67.001 66.508 66.076 65.973 65.806 65.781 65.678 65.568 65.393 65.221 65.056 64.921 64.711 64.546 64.351 64.181 64.023 63.838 63.678 63.498 63.316 63.113 62.936 62.746 62.528 62.311 62.138 61.946 61.766 61.596 61.436 61.211 60.998 60.776 60.506 60.261 59.986 59.693 59.408 59.101 58.803 58.456 58.136 57.813 57.541 57.273 56.978 56.718 56.488 56.311 56.113 55.968 55.841 55.743 55.623 55.496 55.383 55.246 55.126 54.948 54.766 54.618 54.453 54.256 54.091 53.931 53.751 53.558 53.378 53.228 53.086 52.941 52.798 52.676 52.553 52.421 52.281 52.183 52.068 51.978 51.908
101.705 101.017 99.62 99.61 99.615 99.625 99.64 99.65 99.602 99.61 99.587 99.577 99.57 99.582 99.57 99.582 99.607 99.587 99.585 99.587 99.56 99.565 99.545 99.555 99.57 99.57 99.592 99.587 99.577 99.582 99.58 99.252 94.292 94.212 93.822 93.625 93.607 93.655 93.627 93.635 93.79 94.292 94 93.617 93.63 93.665 93.91 94.485 94.08 94.07 94.882 94.595 95.567 95.49 95.867 96.192 96.442 96.682 96.945 97.297 97.21 97.795 97.335 97.36 98.145 97.452 97.452 97.41 97.422 97.357 97.242 97.045 96.9 96.755 96.63 96.5 96.337 96.21 96.04 95.772 95.51 95.202 95.545 94.26 93.53 92.742 92.17 91.8 91.605 91.532 91.477 91.597 91.54 91.14 90.927 90.79 90.685 90.574 90.467 90.342 90.169 89.992 89.839 89.672 89.494 89.282 89.054 88.799 88.527 88.257 87.944 87.677 87.409 87.099 86.792 86.532 86.314 85.992 85.779 85.552 85.319 85.089 84.882 84.647 84.444 84.262 84.077 83.859 83.657 83.407 83.129 82.864 82.614 82.354 82.099 81.822 81.529 81.214 80.964 80.794 80.582 80.337 80.229 79.334 78.532 77.934 77.402 76.862 76.317 75.682 75.192 74.724 74.269 73.879 73.552 73.227 73.017 72.772 72.489 72.264 71.929 71.544 71.177 70.797 70.567 70.342 70.144 69.984 69.694 69.432 69.259 68.917 68.264 67.414 66.452 65.927 65.382 64.794 64.464 63.757 63.547 63.752 63.309 64.259 65.277 66.322 66.904 67.972 68.884 69.179 69.404 69.469 69.287 69.327 69.224 69.189 68.882 68.806 68.814 68.764 68.826 68.581 68.581 68.576 68.549 68.504 68.582 68.574 69.062 69.129 69.659 69.896 70.119 70.127 70.257 70.532 70.989 71.191 71.536 71.786 71.966 72.154 72.419 72.711 72.849 72.926 73.086 73.566 74.454 75.276 75.856 76.504 77.339 78.337 79.382 80.701 80.999 81.727 82.246 82.562 82.206 82.216 82.481 82.646 82.609 86.816 87.627 83.624 85.289 87.316 89.634 89.296 88.794 85.101 83.389 85.006 85.459 83.871 83.481 83.824 83.371 83.571 83.424 83.386 83.181 83.104 83.109 83.106 83.054 83.046 83.131 83.196 83.204 83.534 84.121 83.466 85.494 86.779 89.016 89.499 87.879 84.286 87.741 88.584 89.546 88.336 87.081 85.396 84.661 84.124 84.246 84.236 84.241 84.194 84.204 84.921 84.791 83.864 83.629 83.376 83.084 82.654 82.239 81.841 81.449 81.029 80.634 80.219 79.816 79.436 79.046 78.646 78.246 77.846 77.421 76.976 76.499 76.096 75.636 75.156 74.716 74.296 73.869 73.474 73.104 72.729 72.379 72.071 71.844 71.601 71.316 70.991 70.541 70.494 70.161 69.134 68.069 66.831 65.261 64.886 64.904 65.084 64.991 65.109 64.989 65.001 64.754 64.836 65.763 66.798 66.376 66.101 66.033 65.991 65.848 65.903 65.811 65.618 65.438 65.263 65.143 64.963 64.778 64.601 64.433 64.276 64.083 63.928 63.748 63.571 63.338 63.231 63.006 62.793 62.596 62.393 62.191 62.033 61.811 61.648 61.483 61.278 61.056 60.848 60.586 60.323 60.066 59.791 59.503 59.198 58.858 58.538 58.236 57.946 57.653 57.358 57.091 56.846 56.626 56.398 56.203 56.086 55.931 55.798 55.676 55.556 55.406 55.268 55.128 54.958 54.796 54.631 54.463 54.258 54.091 53.916 53.728 53.553 53.398 53.213 53.073 52.923 52.791 52.663 52.528 52.391 52.271 52.171 52.116 52.036 51.973
101.567 101.03 99.565 99.565 99.56 99.57 99.592 99.6 99.56 99.552 99.532 99.52 99.532 99.535 99.53 99.532 99.54 99.56 99.55 99.555 99.542 99.54 99.535 99.515 99.54 99.552 99.565 99.577 99.572 99.56 99.56 99.482 94.135 93.722 93.667 93.645 93.63 93.642 93.642 93.635 93.825 94.357 94.115 93.652 93.647 93.662 93.862 94.515 94.252 94.182 95.917 95.127 95.05 95.58 95.997 96.337 96.637 96.885 97.155 97.352 97.467 97.657 98.205 97.877 98.27 97.775 97.847 97.735 97.695 97.607 97.46 97.307 97.15 96.97 96.812 96.66 96.512 96.34 96.132 95.872 95.555 95.232 94.675 94.23 93.527 92.925 92.197 91.882 91.69 91.64 91.565 91.647 91.415 91.185 90.99 90.887 90.8 90.669 90.552 90.422 90.252 90.114 89.972 89.779 89.607 89.429 89.214 88.979 88.744 88.469 88.147 87.909 87.619 87.362 87.039 86.782 86.557 86.312 86.114 85.862 85.637 85.414 85.192 84.952 84.792 84.574 84.377 84.184 83.992 83.717 83.457 83.189 82.939 82.689 82.422 82.127 81.829 81.502 81.234 81.029 80.719 80.419 80.367 79.479 78.652 78.084 77.492 76.914 76.317 75.709 75.162 74.699 74.342 73.999 73.689 73.387 73.097 72.844 72.577 72.272 71.929 71.617 71.222 70.859 70.572 70.314 70.147 69.952 69.687 69.519 69.294 69.024 68.572 67.717 66.577 65.914 65.294 64.932 64.747 63.914 63.909 65.177 62.657 63.629 64.657 65.637 66.192 67.074 68.187 68.637 68.977 69.144 69.007 68.762 68.692 68.537 68.522 68.394 68.414 68.379 68.409 68.362 68.206 68.199 68.161 68.069 68.007 67.992 68.181 68.484 68.839 69.139 69.347 69.559 69.864 70.189 70.519 70.797 71.207 71.544 71.769 71.907 72.069 72.206 72.354 72.511 72.714 73.017 73.661 74.362 74.931 75.591 76.472 77.354 78.297 79.102 79.834 80.752 81.264 81.609 82.234 82.004 82.029 82.041 82.204 82.511 83.424 83.039 85.256 88.811 89.589 89.841 89.299 83.971 83.859 88.649 88.219 86.299 84.256 83.826 83.269 83.236 83.234 83.269 83.279 83.196 83.081 83.069 83.049 83.029 82.996 83.039 83.134 83.744 83.901 83.821 83.326 83.706 84.126 86.796 83.906 86.566 88.379 90.509 90.236 89.731 87.106 84.111 84.011 83.956 84.146 84.204 84.201 84.179 84.274 85.366 85.176 84.084 83.719 83.486 83.181 82.791 82.379 81.944 81.526 81.121 80.696 80.276 79.869 79.464 79.084 78.711 78.329 77.936 77.519 77.081 76.621 76.196 75.754 75.299 74.861 74.454 74.041 73.601 73.196 72.816 72.489 72.201 71.926 71.646 71.356 70.981 70.926 70.619 69.936 68.889 67.671 66.331 64.926 64.836 64.929 65.064 64.989 65.031 64.949 64.866 64.749 64.933 66.388 66.976 66.308 66.093 65.996 65.946 65.983 65.931 65.813 65.581 65.388 65.241 65.131 64.998 64.841 64.676 64.526 64.371 64.191 64.016 63.818 63.658 63.451 63.263 63.071 62.878 62.676 62.481 62.268 62.076 61.906 61.693 61.511 61.318 61.118 60.883 60.663 60.393 60.128 59.836 59.556 59.268 58.961 58.653 58.348 58.061 57.766 57.493 57.216 56.938 56.706 56.473 56.313 56.153 56.008 55.871 55.761 55.628 55.486 55.338 55.186 55.016 54.831 54.641 54.436 54.273 54.073 53.898 53.736 53.541 53.393 53.218 53.081 52.931 52.766 52.646 52.533 52.416 52.303 52.226 52.138 52.068 51.973
101.565 100.635 99.542 99.537 99.557 99.56 99.605 99.567 99.56 99.555 99.545 99.545 99.547 99.555 99.56 99.56 99.56 99.57 99.57 99.582 99.572 99.58 99.565 99.557 99.572 99.585 99.58 99.625 99.617 99.597 99.585 99.232 93.945 93.705 93.705 93.667 93.617 93.625 93.63 93.632 93.682 93.7 93.682 93.67 93.657 93.662 94.325 94.97 94.442 94.275 94.372 94.537 95.045 95.63 96.102 96.505 96.795 97.102 97.39 97.7 97.792 97.852 97.98 98.382 101.002 98.095 98.115 98.035 98.092 97.925 97.747 97.59 97.405 97.182 96.997 96.827 96.672 96.467 96.25 95.955 95.58 95.23 95.112 94.577 93.652 93.57 92.185 91.945 91.755 91.715 91.64 91.997 91.43 91.245 91.107 90.987 90.897 90.774 90.647 90.537 90.394 90.222 90.117 89.917 89.752 89.602 89.422 89.182 88.977 88.682 88.362 88.149 87.877 87.594 87.317 87.049 86.829 86.597 86.389 86.169 85.922 85.757 85.547 85.314 85.122 84.964 84.717 84.532 84.372 84.047 83.787 83.489 83.234 83.024 82.754 82.484 82.162 81.824 81.534 81.294 80.877 80.524 80.357 79.539 78.742 78.102 77.494 76.882 76.292 75.749 75.217 74.857 74.459 74.074 73.697 73.429 73.107 72.844 72.584 72.237 71.929 71.612 71.284 70.912 70.644 70.499 70.319 69.899 69.652 69.479 69.344 69.059 68.822 68.207 66.979 66.209 65.409 64.749 64.569 64.062 65.087 64.972 63.114 63.942 64.179 64.727 64.969 65.829 66.932 67.689 68.394 68.627 68.649 68.459 68.314 68.154 68.064 68.089 68.062 68.086 67.999 68.049 67.871 67.786 67.769 67.629 67.559 67.602 67.794 68.136 68.369 68.704 69.036 69.332 69.574 69.826 70.114 70.466 70.931 71.212 71.401 71.569 71.619 71.749 71.849 72.026 72.227 72.431 72.961 73.632 74.194 74.746 75.564 76.446 77.369 78.117 78.697 79.602 80.392 81.007 81.249 81.692 81.911 81.852 81.907 82.142 82.371 82.584 83.201 87.009 88.939 89.449 85.116 83.764 88.739 89.701 89.239 88.506 86.084 83.694 83.186 82.961 82.981 83.846 83.419 83.521 83.181 83.109 83.021 83.016 82.999 82.961 82.949 83.086 83.429 83.204 83.276 83.306 83.336 83.546 84.349 86.899 89.106 90.121 90.569 89.966 85.074 88.146 86.899 84.269 86.141 84.786 84.261 84.521 84.876 85.239 84.391 85.039 84.556 83.614 83.361 82.961 82.556 82.124 81.664 81.219 80.779 80.331 79.896 79.519 79.156 78.799 78.411 78.006 77.599 77.161 76.704 76.296 75.874 75.436 74.986 74.579 74.141 73.694 73.271 72.951 72.631 72.319 72.019 71.704 71.389 71.256 71.046 70.369 69.166 68.031 66.784 65.641 64.871 64.829 65.004 65.041 65.039 64.959 64.989 64.764 64.831 65.461 66.898 66.916 66.296 66.146 66.013 65.931 65.878 65.806 65.633 65.498 65.318 65.156 65.096 64.986 64.853 64.726 64.593 64.426 64.278 64.101 63.886 63.713 63.523 63.323 63.113 62.921 62.713 62.521 62.323 62.138 61.971 61.773 61.603 61.361 61.143 60.946 60.693 60.441 60.176 59.883 59.621 59.346 59.046 58.753 58.473 58.161 57.876 57.596 57.316 57.063 56.831 56.613 56.388 56.243 56.091 55.963 55.818 55.671 55.556 55.371 55.223 55.046 54.861 54.661 54.466 54.281 54.076 53.888 53.688 53.511 53.361 53.223 53.083 52.946 52.786 52.668 52.538 52.428 52.321 52.226 52.148 52.078 51.998
102.522 101.352 99.57 99.572 99.592 99.59 99.595 99.632 99.617 99.605 99.595 99.6 99.602 99.587 99.592 99.605 99.602 99.607 99.622 99.617 99.632 99.622 99.625 99.63 99.627 99.632 99.647 99.655 99.655 99.655 99.637 99.637 94.282 93.74 93.697 93.675 93.645 93.662 93.65 93.65 93.9 94.795 94.26 93.672 93.687 93.685 94.257 95.465 95.545 93.957 94.152 94.517 95.125 95.732 96.215 96.645 96.98 97.272 97.617 97.777 97.932 98.182 98.21 98.787 98.512 98.39 98.37 98.31 98.342 98.117 97.952 97.797 97.61 97.397 97.205 96.99 96.802 96.61 96.337 96.017 95.627 95.305 94.827 94.225 93.672 93.155 92.157 91.925 91.822 91.802 91.707 91.8 91.567 91.34 91.182 91.12 91.042 90.884 90.762 90.632 90.559 90.334 90.217 90.057 89.894 89.734 89.557 89.324 89.117 88.822 88.547 88.357 88.067 87.839 87.572 87.349 87.099 86.879 86.687 86.489 86.249 86.059 85.859 85.692 85.447 85.269 85.069 84.887 84.642 84.439 84.137 83.829 83.572 83.324 83.112 82.799 82.479 82.152 81.849 81.539 81.082 80.672 80.524 79.734 78.982 78.262 77.502 76.857 76.322 75.759 75.239 74.894 74.537 74.122 73.732 73.402 73.077 72.807 72.569 72.232 71.912 71.577 71.334 70.987 70.784 70.579 70.344 70.029 69.807 69.614 69.392 69.107 68.867 68.224 66.709 66.054 65.204 64.689 64.314 64.132 63.987 64.044 63.099 63.939 63.449 63.454 64.477 64.862 65.287 66.204 67.407 67.859 68.164 68.264 68.029 67.914 67.832 67.829 67.791 67.829 67.784 67.754 67.621 67.494 67.416 67.319 67.319 67.424 67.519 67.829 68.127 68.532 68.877 69.142 69.307 69.457 70.189 70.164 70.839 70.849 70.969 71.136 71.214 71.487 71.356 71.514 71.559 71.739 72.159 72.767 73.254 73.809 74.604 75.526 76.977 77.114 77.779 78.514 79.169 79.716 80.264 80.926 81.961 81.644 81.737 81.769 81.951 82.174 82.554 82.644 85.984 85.559 83.319 87.434 89.191 89.674 89.776 89.366 88.914 86.046 83.984 83.914 84.839 83.261 83.349 84.054 83.206 83.206 83.094 83.014 82.984 82.961 82.916 82.916 83.016 83.161 83.224 83.304 83.384 83.546 83.656 84.161 87.524 89.464 89.991 85.081 89.009 90.479 89.984 88.684 87.654 86.946 84.864 85.181 84.734 84.264 84.011 83.969 83.829 84.221 83.481 83.149 82.721 82.296 81.854 81.386 80.904 80.414 79.956 79.554 79.209 78.836 78.456 78.051 77.631 77.184 76.771 76.404 75.989 75.549 75.101 74.636 74.181 73.744 73.386 73.091 72.731 72.394 72.031 71.741 71.426 71.376 71.131 69.941 68.714 67.474 65.939 64.976 64.884 64.961 65.031 65.049 65.024 65.004 64.841 64.734 65.084 66.346 67.116 66.828 66.281 66.161 66.016 65.923 65.833 65.721 65.598 65.436 65.276 65.176 65.091 65.026 64.918 64.776 64.651 64.456 64.306 64.138 63.933 63.748 63.546 63.358 63.181 62.971 62.763 62.546 62.353 62.143 61.978 61.808 61.618 61.451 61.216 60.991 60.753 60.491 60.231 59.958 59.688 59.398 59.108 58.816 58.536 58.276 57.943 57.643 57.403 57.143 56.931 56.698 56.523 56.326 56.193 56.046 55.898 55.731 55.583 55.413 55.261 55.088 54.863 54.643 54.448 54.243 54.053 53.876 53.681 53.506 53.321 53.228 53.068 52.913 52.778 52.653 52.558 52.446 52.328 52.256 52.176 52.081 52.018
103.657 102.455 99.617 99.63 99.63 99.63 99.662 99.652 99.652 99.637 99.652 99.667 99.647 99.642 99.627 99.65 99.642 99.652 99.65 99.665 99.66 99.657 99.63 99.642 99.635 99.637 99.64 99.645 99.642 99.662 99.655 99.62 94.895 93.765 93.715 93.69 93.657 93.667 93.682 93.675 93.687 93.677 93.697 93.68 93.68 93.69 93.717 93.707 93.762 93.952 94.17 94.545 95.112 95.805 96.31 96.75 97.117 97.397 97.687 97.972 98.272 98.5 98.73 98.53 98.54 98.57 98.592 98.5 98.45 98.4 98.12 97.922 97.742 97.567 97.385 97.155 96.92 96.685 96.41 96.082 95.66 95.635 95.01 94.322 93.597 92.882 92.227 92.007 91.87 91.867 91.792 91.89 91.612 91.437 91.27 91.18 91.095 90.967 90.869 90.727 90.599 90.499 90.314 90.147 89.987 89.837 89.667 89.472 89.272 88.994 88.757 88.547 88.319 88.084 87.857 87.624 87.412 87.199 86.997 86.809 86.594 86.419 86.224 86.049 85.877 85.654 85.492 85.267 85.002 84.764 84.482 84.132 83.862 83.637 83.407 83.072 82.774 82.439 82.092 81.734 81.307 80.827 80.669 80.042 79.222 78.429 77.532 76.737 76.159 75.712 75.282 74.902 74.632 74.287 73.887 73.549 73.144 72.782 72.534 72.124 71.839 71.484 71.262 70.954 70.777 70.632 70.397 70.197 70.004 69.779 69.537 69.347 68.859 67.909 66.622 65.852 65.399 64.879 64.429 64.247 64.182 63.577 63.452 63.394 63.042 62.394 63.977 64.749 64.812 65.427 66.534 67.029 67.509 67.677 67.839 67.799 67.727 67.721 67.716 67.687 67.612 67.621 67.511 67.384 67.271 67.172 67.259 67.299 67.434 67.602 67.961 68.321 68.574 68.769 68.926 69.064 69.271 69.691 69.969 70.294 70.614 70.789 70.737 71.096 70.837 70.966 74.319 78.819 76.746 72.809 72.261 73.324 73.492 74.234 74.911 75.721 76.664 77.239 77.617 78.279 79.149 79.691 80.386 81.062 81.661 81.267 81.562 81.781 82.019 82.491 82.554 82.626 84.096 85.046 87.681 88.986 89.489 89.836 89.569 87.636 83.251 87.966 88.394 86.116 83.591 83.204 83.099 83.141 83.209 83.094 83.006 82.949 82.976 82.944 82.969 83.031 83.169 83.264 83.361 83.471 83.579 83.661 83.764 85.199 85.711 86.451 90.609 90.936 90.651 90.106 89.499 88.126 86.606 84.581 84.091 84.046 83.989 83.956 83.784 84.519 83.886 83.311 82.871 82.426 81.984 81.559 81.084 80.586 80.126 79.671 79.264 78.854 78.461 78.074 77.654 77.234 76.829 76.446 76.031 75.606 75.154 74.709 74.249 73.834 73.509 73.144 72.754 72.396 72.096 71.854 71.606 71.649 71.199 70.091 68.354 66.684 65.376 64.929 64.901 65.006 65.024 65.041 65.016 65.021 64.759 64.931 65.861 66.946 67.136 66.571 66.303 66.158 66.058 65.943 65.878 65.753 65.651 65.481 65.341 65.236 65.123 65.061 64.923 64.796 64.648 64.498 64.366 64.153 63.976 63.793 63.613 63.398 63.211 63.001 62.806 62.606 62.391 62.221 62.011 61.796 61.583 61.441 61.203 61.008 60.761 60.511 60.281 60.031 59.766 59.493 59.193 58.923 58.643 58.351 58.068 57.771 57.488 57.256 57.036 56.818 56.633 56.451 56.298 56.106 55.963 55.811 55.621 55.463 55.298 55.086 54.871 54.658 54.431 54.226 54.018 53.821 53.616 53.491 53.316 53.161 53.023 52.898 52.783 52.646 52.506 52.403 52.301 52.221 52.156 52.103 52.053
101.597 101.3 99.632 99.635 99.647 99.645 99.627 99.645 99.635 99.645 99.627 99.62 99.617 99.602 99.597 99.607 99.61 99.612 99.615 99.622 99.6 99.607 99.595 99.592 99.605 99.587 99.607 99.59 99.597 99.6 99.585 99.52 95.242 93.73 93.697 93.677 93.685 93.715 93.692 93.685 93.677 93.697 93.68 93.705 93.7 93.697 93.717 93.732 93.762 94.932 94.26 94.532 95.1 95.802 96.352 96.83 97.267 97.605 97.88 98.11 98.272 98.425 99.662 99.24 98.752 98.725 98.662 98.62 98.57 98.512 98.22 98.022 97.857 97.717 97.532 97.302 97.027 96.75 96.432 96.082 95.672 95.36 94.832 94.28 94.022 93.267 92.31 92.105 91.942 91.91 91.865 92.1 91.69 91.487 91.355 91.255 91.195 91.077 90.927 90.774 90.699 90.549 90.397 90.272 90.127 89.984 89.807 89.624 89.407 89.167 88.974 88.784 88.584 88.334 88.132 87.904 87.687 87.529 87.342 87.132 86.962 86.784 86.584 86.374 86.202 85.992 85.812 85.587 85.332 85.087 84.772 84.442 84.142 83.894 83.644 83.354 83.019 82.702 82.339 81.974 81.607 81.074 80.857 80.259 79.352 78.434 77.492 76.582 75.867 75.452 75.119 74.894 74.629 74.377 73.919 73.384 73.002 72.624 72.812 72.149 71.819 71.447 71.439 70.979 70.779 70.544 70.397 70.447 70.114 69.854 69.687 69.392 68.992 67.872 66.619 65.994 65.784 65.174 64.962 64.867 64.774 64.467 64.077 63.547 62.669 62.592 62.572 63.844 64.347 64.797 65.734 66.357 66.904 67.352 67.704 67.732 67.747 67.672 67.659 67.646 67.599 67.602 67.492 67.326 67.341 67.129 67.201 67.274 67.371 67.587 67.771 67.977 68.176 68.332 68.479 68.659 68.832 69.049 69.297 69.619 69.956 70.129 70.216 70.219 70.226 70.479 75.769 84.669 88.576 78.246 79.212 82.719 77.426 73.109 73.737 74.459 75.396 76.089 76.496 78.487 79.116 78.691 79.219 79.779 80.362 82.041 81.536 81.301 81.601 81.846 82.174 82.646 83.299 85.334 86.246 87.421 88.764 89.331 89.024 84.046 88.429 89.651 89.186 88.486 85.436 82.944 82.979 83.034 82.961 83.316 83.079 83.026 82.991 82.974 82.979 82.971 83.006 83.144 83.271 83.351 83.474 83.561 83.699 84.104 84.329 88.581 90.054 90.426 90.836 90.751 90.274 88.554 84.679 84.214 84.136 84.001 83.941 83.951 83.811 83.649 84.406 84.356 83.334 82.629 82.179 81.714 81.211 80.726 80.251 79.764 79.306 78.869 78.459 78.061 77.671 77.284 76.886 76.494 76.059 75.616 75.201 74.754 74.309 73.949 73.579 73.171 72.804 72.459 72.199 72.026 71.659 71.021 69.889 68.606 67.379 65.666 64.956 64.936 65.029 65.064 65.061 65.014 65.066 64.889 64.754 65.079 66.779 67.223 67.136 66.446 66.356 66.246 66.138 66.018 65.938 65.823 65.701 65.613 65.458 65.301 65.183 65.088 64.953 64.826 64.661 64.496 64.358 64.178 64.001 63.821 63.646 63.433 63.208 63.018 62.828 62.611 62.421 62.226 62.038 61.823 61.606 61.421 61.216 60.991 60.763 60.501 60.301 60.066 59.806 59.531 59.281 59.026 58.731 58.443 58.163 57.918 57.658 57.401 57.153 56.921 56.736 56.533 56.396 56.193 56.063 55.896 55.698 55.501 55.323 55.108 54.891 54.638 54.436 54.218 54.053 53.858 53.653 53.473 53.318 53.156 53.008 52.878 52.761 52.621 52.523 52.446 52.323 52.213 52.143 52.086 52.026
101.59 101.327 99.682 99.592 99.59 99.612 99.575 99.582 99.6 99.582 99.565 99.582 99.557 99.552 99.547 99.555 99.572 99.537 99.545 99.572 99.552 99.547 99.537 99.525 99.525 99.485 99.537 99.465 99.16 99.417 98.307 99.39 95.395 93.732 93.692 93.677 93.697 93.72 93.715 93.707 93.695 93.7 93.69 93.702 93.68 93.715 94.25 95.067 94.902 94.412 94.125 95.105 95.11 95.807 96.41 96.92 97.375 98.16 98.312 98.307 98.452 98.597 99.46 99.19 98.92 98.992 98.902 98.747 98.675 98.657 98.425 98.122 97.987 97.812 97.625 97.39 97.07 96.76 96.435 96.097 95.667 95.315 94.78 94.22 93.745 93.485 92.355 92.117 91.99 91.967 91.952 92.167 91.78 91.577 91.46 91.397 91.27 91.147 91.017 90.899 90.749 90.652 90.487 90.364 90.219 90.072 89.929 89.782 89.587 89.344 89.182 89.047 88.827 88.627 88.427 88.209 87.989 87.792 87.627 87.447 87.282 87.104 86.907 86.699 86.509 86.302 86.097 85.874 85.604 85.349 85.042 84.699 84.382 84.087 83.842 83.572 83.262 82.962 82.612 82.207 81.829 81.282 81.087 80.627 79.792 78.552 77.309 76.307 75.622 75.277 74.974 74.762 74.564 74.319 73.934 73.299 72.924 72.574 72.337 72.404 71.752 71.387 71.144 70.834 70.584 70.509 70.349 70.177 70.027 69.867 69.739 69.504 69.152 68.414 67.349 66.449 66.142 66.614 67.152 66.584 65.897 64.969 64.392 63.947 63.332 62.572 62.102 62.347 63.569 63.707 64.732 65.589 66.437 67.019 67.402 67.672 67.774 67.769 67.701 67.572 67.594 67.534 67.444 67.291 67.187 67.184 67.291 67.297 67.456 67.574 67.689 67.834 67.931 68.041 68.227 68.364 68.514 68.594 68.706 68.959 69.269 69.464 69.574 69.599 69.612 69.549 69.634 70.919 73.612 73.401 77.377 85.879 83.517 72.136 72.534 73.244 74.059 74.812 76.322 80.166 79.379 78.954 78.862 78.466 79.757 80.201 82.166 82.089 81.389 81.419 82.331 82.994 82.591 82.661 84.606 85.579 86.089 88.339 84.941 85.986 89.096 89.636 89.731 89.291 88.796 86.559 83.086 82.791 83.244 83.419 83.006 83.071 83.046 82.981 82.966 82.994 82.974 82.996 83.109 83.279 83.389 83.529 83.714 84.841 84.539 84.444 87.511 89.756 90.276 90.749 90.319 85.959 86.424 85.739 84.386 84.016 84.006 83.994 83.799 83.919 84.434 83.781 84.914 83.229 82.404 81.891 81.376 80.851 80.319 79.826 79.366 78.896 78.461 78.049 77.664 77.304 76.921 76.501 76.059 75.621 75.229 74.764 74.359 74.004 73.606 73.244 72.891 72.594 72.521 71.931 72.091 70.421 70.056 68.084 66.556 65.124 64.929 64.976 65.104 65.079 65.114 65.011 65.071 64.789 65.006 66.456 67.446 67.288 66.803 66.488 66.436 66.371 66.256 66.148 66.001 65.871 65.766 65.643 65.483 65.396 65.228 65.073 64.946 64.816 64.653 64.511 64.351 64.188 64.003 63.826 63.638 63.421 63.223 63.036 62.853 62.643 62.406 62.233 62.028 61.836 61.618 61.421 61.198 60.973 60.758 60.526 60.283 60.053 59.841 59.628 59.396 59.133 58.878 58.576 58.291 58.013 57.736 57.511 57.278 57.078 56.853 56.666 56.491 56.301 56.136 55.973 55.763 55.578 55.361 55.123 54.918 54.683 54.466 54.241 54.016 53.846 53.673 53.528 53.358 53.176 53.018 52.908 52.801 52.666 52.538 52.441 52.328 52.243 52.171 52.088 52.011
101.592 101.482 99.465 99.477 99.03 97.84 99.225 96.957 98.722 97.055 97.222 96.557 97.605 96.867 97.33 96.342 96.572 95.612 96.065 95.132 95.307 95 94.827 95.757 93.725 95.01 94.407 94.697 93.757 93.767 93.75 93.792 93.707 93.73 93.71 93.672 93.707 93.69 93.7 93.707 93.727 93.702 93.702 93.68 93.685 93.902 94.402 95.28 94.93 94.037 94.215 94.53 95.215 95.867 96.467 97.032 97.865 97.925 98.207 98.49 98.615 98.77 99.28 98.997 98.89 98.897 98.955 98.85 98.775 98.61 98.39 98.232 98.06 97.85 97.657 97.402 97.095 96.777 96.472 96.105 95.672 95.265 94.75 94.55 93.452 93.515 92.352 92.17 92.06 92.03 92.032 92.202 91.887 91.662 91.545 91.457 91.372 91.252 91.129 91.002 90.887 90.789 90.594 90.487 90.387 90.232 90.074 89.922 89.734 89.534 89.362 89.224 89.059 88.859 88.664 88.514 88.269 88.052 87.909 87.732 87.552 87.367 87.172 87.012 86.794 86.582 86.354 86.129 85.832 85.562 85.264 84.894 84.562 84.317 83.977 83.744 83.472 83.179 82.822 82.442 82.024 81.489 81.307 81.064 81.344 79.192 77.382 76.144 75.549 75.239 74.997 74.702 74.464 74.269 73.852 73.254 72.907 72.572 72.272 72.069 71.747 71.264 71.019 70.799 70.569 70.409 70.247 70.034 69.867 69.719 69.627 69.582 69.287 69.129 68.377 67.439 68.252 68.459 68.174 67.222 66.319 65.352 64.697 64.147 63.597 63.159 62.437 62.629 62.387 62.687 63.467 64.614 66.037 66.754 67.137 67.437 67.689 67.911 67.767 67.669 67.536 67.431 67.356 67.274 67.196 67.312 67.234 67.384 67.489 67.576 67.761 67.849 67.862 67.961 68.032 68.117 68.227 68.276 68.329 68.437 68.636 68.826 68.976 69.062 69.089 69.059 69.076 69.267 69.437 69.782 74.434 76.849 76.737 71.484 71.489 72.044 72.771 73.579 77.181 80.627 80.021 77.187 76.569 77.289 77.859 78.609 79.324 80.326 81.156 81.489 82.776 81.736 81.976 82.509 82.634 83.711 85.691 84.081 83.996 86.826 88.231 88.974 89.461 89.791 89.456 87.736 84.079 85.369 83.659 82.921 82.879 83.001 83.071 83.054 83.011 82.976 83.009 83.014 83.049 83.159 83.301 83.671 84.436 84.681 84.429 84.429 84.329 85.264 89.209 89.989 87.736 86.004 87.916 88.826 88.811 85.304 84.036 84.054 83.694 84.554 84.186 83.809 83.489 83.601 84.279 82.494 81.564 81.021 80.439 79.909 79.404 78.921 78.471 78.086 77.714 77.309 76.916 76.496 76.079 75.644 75.224 74.806 74.434 74.019 73.609 73.289 72.996 72.749 72.504 71.734 70.814 70.916 73.681 67.369 65.804 64.971 64.951 65.056 65.044 65.106 65.041 65.044 64.896 64.761 65.201 66.954 67.884 67.288 66.698 66.638 66.541 66.431 66.343 66.246 66.141 66.011 65.868 65.728 65.553 65.418 65.223 65.096 64.971 64.796 64.671 64.521 64.331 64.166 63.996 63.803 63.641 63.443 63.186 63.041 62.811 62.656 62.398 62.223 62.016 61.828 61.576 61.386 61.186 60.938 60.693 60.478 60.266 60.033 59.838 59.656 59.461 59.251 58.986 58.733 58.466 58.173 57.881 57.633 57.383 57.146 56.958 56.743 56.576 56.386 56.216 55.998 55.813 55.606 55.398 55.166 54.923 54.701 54.483 54.266 54.066 53.876 53.691 53.523 53.341 53.186 53.036 52.916 52.783 52.658 52.588 52.466 52.366 52.261 52.181 52.121 52.016
101.582 101.62 94.09 94.425 93.767 93.75 93.767 93.725 93.725 93.755 93.75 93.73 93.71 93.725 93.72 93.717 93.717 93.7 93.695 93.675 93.715 93.7 93.665 93.685 93.692 93.692 93.692 93.68 93.697 93.715 93.712 93.722 93.73 93.732 93.702 93.692 93.705 93.685 93.69 93.705 93.71 93.69 93.69 93.7 93.725 94.12 95.627 95.282 95.642 94.242 94.192 94.55 95.327 95.972 96.595 97.185 97.647 98.067 98.385 98.612 98.727 98.855 99.077 99.412 99.077 98.985 98.98 99.147 98.927 98.675 98.507 98.315 98.115 97.885 97.657 97.435 97.14 96.8 96.485 96.085 95.635 95.232 94.687 94.91 93.54 92.84 92.385 92.225 92.137 92.12 92.15 92.202 91.932 91.762 91.652 91.575 91.445 91.347 91.247 91.112 91.012 90.884 90.762 90.632 90.507 90.357 90.229 90.064 89.889 89.704 89.552 89.409 89.254 89.102 88.912 88.739 88.539 88.362 88.192 88.024 87.787 87.622 87.427 87.232 87.037 86.777 86.574 86.322 86.057 85.739 85.449 85.089 84.704 84.417 84.099 83.842 83.594 83.312 82.957 82.584 82.157 81.674 81.414 81.239 80.034 78.614 77.242 76.087 75.514 75.184 74.967 74.699 74.429 74.154 73.709 73.192 72.869 72.477 72.192 71.967 71.634 71.299 71.054 70.834 70.577 70.399 70.202 69.987 69.737 69.534 69.397 69.684 69.499 69.087 68.884 68.722 68.859 68.697 68.257 67.497 66.769 65.872 65.072 64.394 63.747 63.352 63.182 62.662 62.359 62.082 62.184 62.942 65.457 66.282 66.842 67.127 67.389 67.579 67.651 67.664 67.544 67.346 67.224 67.209 67.154 67.252 67.349 67.401 67.434 67.514 67.774 67.801 67.806 67.899 67.942 67.929 67.979 67.981 68.002 68.157 68.286 68.276 68.379 68.481 68.582 68.632 68.742 69.102 69.096 69.321 69.581 69.782 70.032 70.211 70.609 71.106 71.632 72.146 72.716 73.924 75.817 75.059 75.249 75.951 76.806 77.419 78.642 79.626 79.824 80.374 80.891 81.499 81.674 81.921 82.414 82.584 83.019 82.771 83.991 85.091 83.221 86.379 88.824 89.334 89.069 83.551 86.061 86.689 86.586 84.411 82.844 83.324 82.946 83.036 83.096 83.026 83.001 83.064 83.099 83.091 83.179 84.281 84.541 83.541 84.669 84.269 83.971 84.046 84.049 86.211 85.386 88.019 88.926 90.711 90.236 89.474 86.791 84.044 84.029 83.579 83.576 83.526 83.541 84.586 82.931 83.689 81.886 81.189 80.614 80.016 79.481 78.966 78.504 78.091 77.731 77.311 76.914 76.469 76.084 75.674 75.236 74.824 74.429 74.026 73.689 73.404 73.186 72.891 72.209 71.134 70.099 69.689 67.849 66.629 65.251 64.909 64.911 65.051 65.071 65.091 64.999 65.044 64.941 64.849 65.946 68.209 69.176 67.441 66.751 66.643 66.618 66.418 66.261 66.188 68.616 66.273 66.001 65.858 65.701 65.478 65.308 65.148 64.966 64.793 64.641 64.508 64.358 64.171 63.998 63.808 63.663 63.458 63.206 63.041 62.853 62.643 62.443 62.226 62.018 61.816 61.561 61.371 61.146 60.908 60.673 60.463 60.273 60.043 59.873 59.698 59.498 59.338 59.101 58.848 58.573 58.301 57.993 57.736 57.501 57.278 57.061 56.873 56.661 56.478 56.276 56.061 55.843 55.631 55.416 55.143 54.958 54.711 54.498 54.313 54.103 53.911 53.738 53.583 53.413 53.226 53.088 52.953 52.793 52.671 52.561 52.478 52.366 52.281 52.206 52.123 52.021
101.587 101.452 94.16 93.737 93.745 93.745 93.717 93.677 93.657 93.642 93.667 93.665 93.675 93.677 93.692 93.71 93.722 93.712 93.69 93.67 93.66 93.662 93.63 93.627 93.627 93.637 93.625 93.675 93.69 93.697 93.672 93.725 93.687 93.682 93.687 93.652 93.625 93.625 93.665 93.707 93.722 93.72 93.735 93.745 93.75 93.735 93.747 93.707 93.805 94 94.172 94.615 95.432 96.145 96.755 97.33 97.82 98.247 98.55 98.745 98.827 98.955 99.087 99.205 99.322 99.127 99.075 99.465 99.085 98.76 98.595 98.402 98.157 97.915 97.69 97.48 97.177 96.795 96.495 96.09 95.62 95.227 95.01 94.942 93.465 92.78 92.44 92.257 92.197 92.175 92.432 92.362 92.09 91.82 91.745 91.677 91.54 91.472 91.337 91.222 91.109 91.019 90.887 90.764 90.604 90.477 90.317 90.189 90.027 89.869 89.757 89.632 89.479 89.307 89.149 88.944 88.747 88.607 88.457 88.244 88.037 87.834 87.632 87.447 87.207 86.972 86.737 86.464 86.189 85.874 85.582 85.197 84.879 84.544 84.214 83.992 83.697 83.389 83.044 82.669 82.194 81.764 81.472 81.362 80.324 78.979 77.179 76.009 75.444 75.104 74.834 74.692 74.412 74.039 73.639 73.197 72.947 72.549 72.147 71.989 71.604 71.294 71.069 70.849 70.709 70.587 70.334 70.142 69.822 69.464 69.282 69.102 68.954 68.829 68.742 68.707 68.649 68.602 68.372 67.874 67.162 66.392 65.599 64.827 63.982 63.547 63.234 62.747 62.084 62.917 61.729 62.437 64.489 65.354 66.027 66.219 66.714 67.104 67.344 67.351 67.299 67.246 67.184 67.116 67.091 67.181 67.321 67.444 67.529 67.574 67.619 67.649 67.726 67.779 67.806 67.819 67.841 67.844 67.811 67.799 67.876 67.919 67.991 68.076 68.104 68.239 68.554 68.796 68.934 69.064 69.206 69.306 69.426 69.551 69.781 70.064 70.349 70.691 71.219 71.936 72.529 73.269 74.261 74.926 75.551 76.196 76.989 78.491 78.831 79.506 79.934 80.384 80.991 81.384 81.621 81.856 82.494 82.486 82.491 82.376 82.461 82.616 85.331 88.126 83.914 84.509 87.029 88.766 88.501 87.339 82.911 83.179 82.816 82.941 83.046 83.064 83.074 83.026 83.079 83.141 83.134 83.206 83.271 83.961 84.446 83.766 83.919 83.996 84.166 84.926 85.869 87.671 89.911 90.536 90.769 90.411 89.916 84.059 85.184 85.014 83.774 83.456 83.569 83.184 83.454 82.684 82.534 82.884 80.956 80.266 79.624 79.044 78.531 78.094 77.684 77.294 76.881 76.481 76.091 75.646 75.181 74.804 74.416 74.076 73.759 73.566 73.564 72.496 71.764 70.586 69.394 68.374 67.481 65.886 64.904 64.901 64.956 65.021 65.054 65.061 65.044 64.864 64.759 65.356 66.834 67.811 68.279 66.981 66.708 66.493 66.406 66.356 66.298 66.306 67.996 67.063 66.698 66.253 65.941 65.621 65.461 65.291 65.091 64.911 64.751 64.571 64.376 64.183 64.023 63.823 63.618 63.456 63.238 63.011 62.821 62.616 62.413 62.216 61.988 61.786 61.546 61.343 61.123 60.903 60.678 60.466 60.251 60.001 59.818 59.668 59.488 59.386 59.241 58.853 58.566 58.323 58.088 57.841 57.593 57.341 57.143 56.938 56.758 56.548 56.348 56.141 55.918 55.691 55.446 55.211 54.961 54.746 54.541 54.333 54.163 53.961 53.776 53.611 53.458 53.306 53.143 53.021 52.856 52.731 52.601 52.476 52.378 52.263 52.193 52.098 52.013
101.57 101.597 93.74 93.7 93.722 93.677 93.69 93.665 93.627 93.575 93.597 93.63 93.64 93.632 93.64 93.682 93.677 93.675 93.665 93.655 93.625 93.605 93.577 93.557 93.592 93.627 93.625 93.66 93.67 93.68 93.692 93.7 93.712 93.69 93.655 93.637 93.632 93.64 93.687 93.712 93.722 94.082 94.835 94.192 94.877 94.94 94.11 94.05 94.027 94.13 94.312 94.795 95.66 96.335 96.98 97.507 97.99 98.41 98.695 98.872 98.957 99.057 99.395 99.33 99.82 99.24 99.22 99.167 99.107 98.85 98.687 98.465 98.222 97.972 97.752 97.527 97.207 96.815 96.497 96.097 95.622 95.33 95.405 93.97 93.382 92.89 92.502 92.302 92.265 92.24 92.532 92.462 92.04 91.882 91.857 91.76 91.672 91.552 91.452 91.337 91.197 91.104 90.992 90.857 90.727 90.622 90.457 90.344 90.184 90.017 89.919 89.779 89.649 89.494 89.354 89.164 88.974 88.812 88.662 88.367 88.199 88.024 87.822 87.589 87.369 87.089 86.822 86.529 86.294 85.969 85.624 85.307 84.912 84.604 84.277 84.027 83.702 83.374 83.049 82.669 82.262 81.864 81.507 81.392 81.049 78.877 77.302 76.032 75.462 75.019 74.712 74.564 74.312 73.972 73.534 73.117 72.867 72.629 72.294 72.004 71.567 71.252 71.019 70.917 70.747 70.687 70.539 70.377 70.129 69.577 69.247 69.057 68.939 68.804 68.729 68.699 68.677 68.619 68.544 68.187 67.624 66.909 66.217 65.527 64.604 63.884 63.292 62.904 62.544 62.547 61.962 61.947 63.164 64.262 64.922 65.167 65.547 66.159 66.479 66.516 67.009 66.826 66.944 66.974 67.086 67.159 67.274 67.381 67.471 67.551 67.644 67.654 67.644 67.621 67.661 67.654 67.676 67.676 67.644 67.631 67.661 67.681 67.729 67.774 67.809 67.906 68.231 68.544 68.799 68.916 68.884 68.921 68.881 68.849 68.949 69.031 69.201 69.481 70.101 70.819 71.469 72.306 72.989 73.674 74.514 75.229 76.114 76.934 77.691 78.179 78.929 79.504 80.334 80.796 81.136 81.834 81.436 81.891 82.244 82.284 82.354 82.484 82.591 82.754 82.996 85.656 87.834 89.426 89.129 88.646 86.164 83.009 82.709 82.831 83.056 83.006 83.106 83.144 83.091 83.099 83.124 83.201 83.229 83.654 84.166 83.666 83.814 83.934 83.939 84.676 84.549 86.394 88.524 89.899 90.391 90.771 85.589 85.361 87.221 87.144 84.314 83.284 83.234 83.194 83.321 82.491 82.171 82.384 81.804 80.451 79.766 79.159 78.604 78.121 77.679 77.309 76.889 76.506 76.101 75.599 75.141 74.831 74.501 74.154 73.891 73.691 73.069 72.266 71.759 70.544 68.881 67.826 67.514 65.679 64.911 64.941 65.084 65.104 65.159 65.029 65.004 64.764 64.871 66.041 67.694 67.761 67.431 66.871 66.588 66.336 66.273 66.216 66.148 66.088 66.018 66.278 66.501 66.683 66.516 66.363 66.403 66.066 65.578 65.291 64.991 64.696 64.496 64.306 64.133 63.888 63.668 63.476 63.241 63.031 62.816 62.598 62.393 62.193 61.961 61.761 61.528 61.303 61.113 60.886 60.683 60.471 60.193 59.956 59.776 59.561 59.411 59.301 59.076 58.743 58.491 58.266 58.096 57.886 57.651 57.448 57.258 57.021 56.818 56.643 56.436 56.201 55.951 55.726 55.498 55.261 55.046 54.796 54.591 54.393 54.201 54.011 53.841 53.683 53.548 53.386 53.236 53.083 52.963 52.798 52.676 52.548 52.421 52.316 52.258 52.121 52.048
101.582 101.452 94.077 93.695 93.7 93.702 93.685 93.627 93.622 93.575 93.59 93.607 93.612 93.607 93.66 93.682 93.69 93.697 93.712 93.645 93.647 93.64 93.637 93.66 93.65 93.65 93.652 93.67 93.69 93.687 93.72 93.707 93.727 93.702 93.702 93.722 93.73 93.702 93.722 93.737 93.742 95.055 95.96 94.475 95.36 95.005 94.227 94.247 94.167 94.322 94.675 95.325 96.087 96.58 97.167 97.855 98.162 98.542 98.805 98.95 99.052 99.145 99.215 99.337 99.397 99.315 99.297 99.562 99.435 98.922 98.765 98.557 98.317 98.062 97.832 97.55 97.185 96.855 96.485 96.055 95.625 95.292 95.3 94.042 93.435 92.995 92.52 92.327 92.28 92.272 92.47 92.255 92.045 91.952 91.902 91.832 91.722 91.632 91.532 91.402 91.302 91.199 91.037 90.959 90.857 90.722 90.597 90.454 90.289 90.164 90.064 89.919 89.804 89.662 89.499 89.317 89.117 88.954 88.824 88.547 88.334 88.152 87.904 87.664 87.427 87.182 86.879 86.622 86.332 85.999 85.652 85.339 84.984 84.647 84.324 84.054 83.714 83.379 83.019 82.684 82.307 81.904 81.522 81.357 80.589 78.837 77.362 76.129 75.494 74.999 74.609 74.414 74.142 73.837 73.402 73.127 72.859 72.524 72.202 71.892 71.604 71.329 71.104 70.802 70.772 70.764 70.657 70.462 70.184 69.672 69.292 69.062 68.914 68.817 68.749 68.707 68.687 68.694 68.614 68.404 68.082 67.469 66.849 66.262 65.529 64.582 63.714 63.307 62.979 62.834 62.732 62.317 61.974 62.474 63.624 64.469 64.447 64.879 65.249 65.621 65.811 66.256 66.506 66.886 66.921 67.036 67.184 67.296 67.356 67.414 67.494 67.579 67.589 67.581 67.559 67.486 67.466 67.454 67.446 67.401 67.419 67.469 67.536 67.619 67.689 68.211 67.991 68.291 68.766 68.846 68.656 68.581 68.464 68.396 68.296 68.246 68.289 68.584 69.366 70.089 70.656 71.536 72.084 72.614 73.204 73.861 75.071 75.919 76.601 77.131 77.736 78.296 79.046 80.124 80.284 80.786 81.266 81.471 81.541 81.779 82.256 82.339 82.421 83.029 82.496 84.459 88.401 88.909 89.359 89.271 87.794 83.256 82.769 82.996 83.809 83.426 83.474 83.151 83.239 83.179 83.169 83.224 83.261 83.291 83.396 83.516 84.194 84.756 84.554 84.796 84.519 84.374 85.396 85.499 89.389 87.979 84.169 87.141 88.731 89.566 88.624 84.966 83.149 83.254 82.859 82.546 82.399 83.319 81.431 80.494 79.891 79.256 78.686 78.176 77.694 77.299 76.884 76.494 76.041 75.546 75.151 74.869 74.529 74.236 74.034 73.274 72.734 71.789 71.649 69.806 68.679 67.456 67.099 64.979 64.944 65.109 65.114 65.176 65.096 65.101 64.861 64.764 65.234 66.866 67.811 67.814 67.184 66.838 66.578 66.323 66.176 66.071 65.993 65.911 65.841 65.718 65.626 65.591 65.478 65.426 65.521 65.736 65.856 65.948 65.946 65.768 65.091 64.506 64.378 64.038 63.821 63.601 63.361 63.116 62.876 62.633 62.428 62.196 61.943 61.743 61.518 61.286 61.101 60.876 60.668 60.433 60.211 59.953 59.743 59.541 59.396 59.236 59.013 58.753 58.473 58.271 58.118 57.946 57.723 57.521 57.303 57.073 56.868 56.686 56.468 56.251 56.006 55.773 55.533 55.316 55.066 54.871 54.678 54.478 54.263 54.101 53.923 53.748 53.601 53.418 53.261 53.141 53.013 52.886 52.758 52.633 52.496 52.351 52.276 52.181 52.033
101.587 101.622 94.02 93.68 93.715 93.695 93.697 93.65 93.627 93.597 93.617 93.642 93.637 93.657 93.732 93.715 93.83 93.712 93.725 93.7 93.702 93.687 93.685 93.675 93.677 93.677 93.702 93.722 93.737 93.762 93.757 93.74 93.742 93.735 93.727 93.78 93.742 93.725 93.757 94.445 93.78 94.945 96.14 93.865 94.245 94.17 94.32 94.412 94.587 94.867 95.272 95.88 96.535 97.35 97.42 97.927 98.345 98.672 98.887 99.037 99.15 99.237 99.312 99.497 99.655 99.6 99.362 99.385 99.38 98.997 98.817 98.607 98.375 98.127 97.88 97.595 97.252 96.86 96.492 96.067 95.615 95.187 94.557 93.997 94.275 93.247 92.53 92.34 92.285 92.3 92.592 92.407 92.062 91.99 91.947 91.877 91.765 91.684 91.579 91.459 91.372 91.252 91.127 91.012 90.917 90.809 90.702 90.559 90.397 90.282 90.199 90.089 89.944 89.792 89.614 89.419 89.264 89.087 88.899 88.654 88.427 88.214 87.979 87.762 87.527 87.254 86.972 86.699 86.372 86.047 85.692 85.379 85.009 84.709 84.359 84.044 83.699 83.357 83.002 82.627 82.279 81.909 81.509 81.337 80.562 78.924 77.549 76.154 75.332 74.867 74.497 74.262 74.034 73.717 73.354 73.154 72.939 72.592 72.152 71.809 71.619 71.329 71.102 70.839 70.747 70.719 70.632 70.449 70.159 69.819 69.499 69.289 69.119 68.984 68.904 68.689 68.744 68.749 68.612 68.512 68.277 67.889 67.344 66.784 66.159 65.477 64.592 63.814 63.349 63.337 63.334 62.727 61.724 61.724 62.054 63.362 63.682 63.924 64.119 64.356 64.749 65.499 66.274 66.701 66.781 66.884 66.954 67.116 67.289 67.289 67.336 67.396 67.411 67.471 67.439 67.364 67.301 67.299 67.214 67.184 67.194 67.201 67.294 67.441 67.554 67.654 67.786 68.059 68.319 68.334 68.309 68.226 68.096 67.979 67.866 67.746 67.626 67.796 68.609 69.494 70.026 70.564 71.254 71.819 72.194 72.461 75.199 74.911 75.634 76.264 76.774 77.591 77.729 78.676 79.981 79.804 80.836 81.194 81.386 81.581 81.876 82.319 83.146 82.469 82.464 82.484 83.974 87.311 88.766 89.269 85.501 85.379 82.781 83.041 83.106 83.394 82.944 83.054 83.209 83.279 83.306 83.244 83.281 83.304 83.344 83.414 84.104 84.191 83.734 84.316 84.501 84.011 84.041 84.004 84.066 84.639 85.846 87.196 89.639 90.001 89.714 89.009 86.656 83.924 83.184 82.524 83.326 81.794 81.214 80.479 79.919 79.284 78.739 78.209 77.716 77.281 76.854 76.444 75.979 75.554 75.244 74.941 74.606 74.346 73.674 72.891 72.406 71.696 69.956 68.894 68.041 68.176 65.459 64.976 65.086 65.149 65.096 65.144 65.091 65.051 64.779 64.806 66.396 68.526 68.189 67.696 67.001 66.788 66.498 66.248 66.068 65.991 65.896 65.828 65.713 65.578 65.476 65.346 65.216 65.096 64.993 64.971 64.853 64.746 64.728 64.768 64.748 64.506 64.973 64.738 64.603 64.133 63.588 63.228 63.006 62.773 62.516 62.306 62.031 61.806 61.563 61.296 61.066 60.836 60.646 60.428 60.256 60.006 59.783 59.601 59.416 59.216 59.003 58.746 58.516 58.281 58.103 57.971 57.748 57.563 57.316 57.121 56.918 56.711 56.483 56.258 56.033 55.786 55.558 55.338 55.103 54.893 54.693 54.498 54.336 54.166 53.991 53.836 53.668 53.518 53.326 53.203 53.061 52.903 52.791 52.666 52.523 52.423 52.306 52.213 52.103
101.587 101.542 94.625 93.675 93.682 93.66 93.672 93.745 93.672 93.72 93.657 93.647 93.662 93.682 93.945 94.647 94.292 93.94 94.957 94.435 94.892 94.727 95.085 95.475 96.79 95.787 96.972 96.31 96.51 97.827 96.467 97.93 97.187 98.525 97.945 99.752 98.697 98.565 99.482 100.58 98.835 99.547 99.61 95.8 93.947 94.107 94.367 95.42 95.535 95.432 95.81 96.272 96.767 97.222 97.697 98.125 98.492 98.797 99.025 99.155 99.285 99.342 99.417 99.74 99.802 99.76 99.785 99.35 99.217 99.045 98.87 98.657 98.45 98.182 97.912 97.637 97.29 96.9 96.53 96.075 96.097 97.747 94.732 93.932 93.842 93.565 92.54 92.357 92.307 92.335 92.47 92.382 92.15 92.02 91.975 91.93 91.857 91.762 91.612 91.527 91.412 91.332 91.212 91.104 91.002 90.892 90.799 90.642 90.519 90.397 90.282 90.162 90.054 89.932 89.719 89.542 89.377 89.182 88.969 88.722 88.537 88.289 88.052 87.842 87.574 87.309 87.004 86.704 86.422 86.079 85.754 85.399 85.052 84.704 84.384 84.039 83.699 83.322 82.967 82.557 82.224 81.869 81.482 81.279 80.772 79.147 78.542 76.232 75.289 74.772 74.384 74.099 73.849 73.527 73.207 73.157 72.927 72.619 72.217 71.812 71.547 71.439 71.229 70.964 70.837 70.784 70.677 70.424 70.212 70.039 69.742 69.502 69.244 69.059 69.142 68.832 68.769 69.059 68.684 68.454 68.372 68.062 67.669 67.137 66.579 66.079 65.404 64.687 64.642 64.397 63.667 62.829 62.164 61.712 61.262 61.582 62.637 63.124 63.284 63.701 64.226 65.311 66.169 66.631 66.834 66.841 66.816 66.884 66.931 67.049 67.216 67.174 67.199 67.724 67.211 67.141 67.101 67.084 67.044 67.041 67.021 67.024 67.079 67.214 67.379 67.501 67.644 67.891 68.104 68.094 67.994 67.894 67.816 67.656 67.519 67.331 67.189 67.281 67.824 68.566 69.176 69.926 70.451 71.171 71.776 72.096 72.909 73.731 74.481 75.296 76.004 76.369 76.794 78.339 79.269 78.269 79.681 80.174 80.441 81.196 82.516 83.286 83.069 82.421 82.814 82.524 82.566 82.896 86.644 85.859 85.201 83.689 84.531 82.926 82.529 82.616 82.771 82.886 83.079 83.321 83.339 83.374 83.299 83.309 83.359 83.371 83.409 83.519 83.596 83.724 83.874 83.954 84.009 84.019 84.311 83.819 84.109 85.851 88.351 89.519 89.941 89.851 89.381 87.346 83.356 82.524 82.451 81.684 81.144 80.544 79.894 79.339 78.801 78.256 77.726 77.281 76.829 76.376 75.944 75.569 75.286 74.981 74.716 74.244 73.484 72.859 71.736 70.549 69.364 68.196 67.446 66.346 65.049 64.996 65.054 65.074 65.114 65.066 65.084 64.851 64.754 65.286 67.994 67.879 68.649 67.436 66.929 66.743 66.468 66.196 66.008 65.898 65.811 65.746 65.616 65.511 65.388 65.236 65.128 64.991 64.903 64.791 64.646 64.513 64.423 64.281 64.131 64.016 63.973 63.878 63.843 64.006 64.188 64.111 63.901 63.528 63.151 62.533 62.146 61.916 61.681 61.436 61.203 60.926 60.696 60.458 60.271 60.083 59.873 59.663 59.421 59.211 58.968 58.813 58.568 58.321 58.136 57.971 57.796 57.573 57.351 57.133 56.928 56.751 56.541 56.303 56.078 55.848 55.586 55.378 55.156 54.911 54.728 54.571 54.398 54.221 54.021 53.918 53.756 53.611 53.443 53.298 53.161 53.041 52.898 52.768 52.596 52.463 52.333 52.201 52.108
