ncols 430
nrows 31
xllcorner    427074
yllcorner    543690
cellsize     2
NODATA_value -9999
93.862 93.625 93.33 93.057 92.765 92.497 92.28 92.03 91.587 91.205 90.842 90.522 90.292 90.159 90.014 89.784 89.639 89.499 89.357 89.242 89.207 89.072 89.009 88.917 88.867 88.754 88.647 88.584 88.522 88.522 88.622 88.902 88.944 89.054 89.164 89.244 88.984 88.602 88.487 88.467 88.399 88.177 88.004 87.912 87.839 87.752 87.509 87.357 87.284 87.212 87.152 87.147 87.127 87.007 86.864 86.742 86.644 86.579 86.494 86.389 86.279 86.192 86.082 85.944 85.839 85.709 85.542 85.364 85.219 85.124 85.024 84.934 84.799 84.674 84.777 84.059 83.502 82.984 82.414 81.794 81.189 80.699 80.327 79.954 79.602 79.319 79.024 78.867 78.747 78.757 78.669 78.694 78.659 78.732 78.987 79.382 79.829 80.234 80.522 80.807 81.107 81.612 81.569 81.582 81.469 81.189 80.582 79.947 79.217 78.502 77.879 77.297 77.254 77.182 77.122 77.017 76.874 76.777 76.659 76.539 76.427 76.282 76.154 76.047 75.917 75.802 75.692 75.577 75.444 75.352 75.212 75.107 74.999 74.862 74.752 74.634 74.514 74.412 74.284 74.122 74.009 73.852 73.714 73.579 73.502 73.387 73.317 73.247 73.139 73.042 72.999 72.959 72.919 72.874 72.817 72.764 72.749 72.682 72.592 72.462 72.389 72.277 72.112 71.949 71.789 71.591 71.351 71.131 70.909 70.671 70.429 70.194 69.939 69.666 69.421 69.129 68.826 68.551 68.271 67.974 67.699 67.449 67.209 66.919 66.661 66.429 66.201 65.979 65.714 65.469 65.256 65.006 64.769 64.531 64.306 64.056 63.866 63.651 63.451 63.256 63.129 62.999 62.909 62.894 62.824 62.929 65.819 65.246 65.054 65.696 66.191 66.169 66.144 66.154 66.114 66.094 66.176 66.201 65.836 65.071 63.989 62.741 62.034 60.846 60.664 59.974 59.294 58.859 58.631 58.494 58.434 58.104 57.894 57.561 57.326 57.161 56.974 56.731 56.719 56.244 56.156 56.061 55.861 55.269 54.986 54.529 53.841 52.851 52.424 52.949 52.936 53.624 52.561 52.186 51.606 50.486 49.526 49.621 56.261 51.056 47.524 47.214 47.084 47.061 47.781 47.408 46.711 45.921 45.176 44.283 43.461 44.121 43.536 44.406 46.218 46.658 46.931 47.371 47.528 47.781 48.541 49.258 48.691 48.996 49.258 49.616 50.113 50.748 50.896 51.398 52.021 53.326 53.411 54.091 54.963 56.203 56.651 56.146 56.621 56.938 56.901 56.836 56.893 57.088 58.686 57.151 56.916 56.916 56.878 57.331 56.816 57.221 57.446 57.196 57.223 57.558 57.318 57.141 57.103 57.106 57.058 56.946 56.898 56.791 56.708 56.556 56.466 56.363 56.228 56.336 56.378 56.253 56.736 58.823 56.286 56.931 54.976 55.128 55.153 54.408 54.163 54.018 53.841 53.691 53.486 53.361 53.343 53.126 52.981 52.843 52.731 52.636 52.508 52.371 52.271 52.196 52.121 52.036 51.878 51.733 51.618 51.478 51.326 51.188 51.073 50.941 50.843 50.638 50.491 50.366 50.248 50.146 50.011 49.928 49.858 49.911 49.831 49.688 49.648 49.506 49.548 49.628 49.528 49.598 49.481 49.306 49.203 49.141 49.006 48.883 48.828 48.766 48.726 48.673 48.591 48.508 48.403 48.313 48.211 48.106 47.993 47.846 47.726 47.606 47.478 47.321 47.203 47.021 46.901 46.751 46.616 46.431 46.288 46.153 45.96 45.793 45.59 45.41 45.255 45 44.798 44.598 44.393 44.203 43.965 43.745 43.548 43.353 43.198 43.003
93.71 93.472 93.205 92.922 92.68 92.492 92.327 92.042 91.622 91.217 90.852 90.53 90.29 90.157 90.047 89.832 89.649 89.472 89.354 89.302 89.219 89.097 89.027 89.022 88.894 88.759 88.647 88.589 88.502 88.459 88.512 88.659 88.807 88.872 88.897 88.927 88.787 88.574 88.464 88.389 88.282 88.144 87.954 87.814 87.679 87.609 87.419 87.252 87.177 87.087 87.087 87.082 86.959 86.837 86.684 86.549 86.467 86.414 86.327 86.232 86.124 86.004 85.884 85.739 85.634 85.537 85.399 85.252 85.102 84.964 84.852 84.729 84.592 84.464 84.592 83.702 83.187 82.687 81.984 81.274 80.802 80.357 79.969 79.607 79.274 78.962 78.829 78.757 78.652 78.662 78.729 78.764 78.767 78.897 79.174 79.512 79.852 80.169 80.432 80.684 80.994 81.569 81.499 81.527 81.397 81.119 80.559 79.904 79.139 78.424 77.799 77.204 77.114 77.042 76.954 76.872 76.789 76.664 76.564 76.457 76.327 76.184 76.107 75.967 75.852 75.729 75.587 75.469 75.364 75.254 75.114 75.027 74.932 74.772 74.647 74.572 74.444 74.314 74.169 74.049 73.912 73.762 73.622 73.487 73.379 73.287 73.204 73.129 73.004 72.947 72.917 72.839 72.789 72.754 72.717 72.669 72.652 72.602 72.522 72.424 72.309 72.159 72.034 71.899 71.739 71.556 71.399 71.164 70.944 70.701 70.471 70.241 69.939 69.669 69.411 69.156 68.884 68.591 68.309 68.001 67.734 67.484 67.204 66.951 66.679 66.459 66.226 65.959 65.724 65.506 65.269 65.031 64.796 64.564 64.316 64.061 63.841 63.656 63.431 63.259 63.106 62.979 62.899 62.866 62.811 62.736 63.671 64.574 65.401 66.076 66.231 66.206 66.164 66.186 66.049 66.151 66.129 66.064 65.491 64.624 63.414 62.404 61.671 60.859 60.496 59.731 59.149 58.716 58.504 58.311 58.129 58.039 57.801 57.476 57.219 57.024 56.799 56.574 56.416 56.126 56.029 55.824 55.471 55.001 54.691 54.246 53.706 52.994 51.834 51.789 52.414 52.131 51.776 51.264 50.699 49.954 49.254 49.134 51.086 47.834 47.474 47.104 46.934 47.066 46.973 46.891 46.581 45.846 44.941 46.773 50.501 50.518 45.121 45.111 46.306 46.548 46.813 47.098 47.373 47.776 48.298 48.326 48.656 48.921 49.238 49.553 50.211 50.471 51.001 51.321 52.521 52.933 54.893 55.238 55.678 55.546 56.976 56.228 56.521 56.771 57.061 56.848 56.846 57.151 57.486 58.126 57.083 56.946 56.871 56.751 56.803 58.393 57.673 57.238 57.168 57.493 57.348 57.113 57.078 57.056 57.031 56.953 56.881 56.943 56.731 56.491 56.421 56.346 56.226 57.168 58.253 56.751 56.683 57.216 56.911 57.206 55.631 56.008 55.346 54.351 54.081 53.983 53.778 53.841 54.246 54.483 53.861 54.251 52.951 52.816 52.701 52.543 52.443 52.296 52.251 52.156 52.096 51.981 52.236 52.041 51.543 51.406 51.251 51.161 51.441 51.176 50.883 50.666 50.493 50.408 50.288 50.101 49.953 49.903 49.861 49.848 49.836 49.788 49.706 49.573 49.636 49.486 49.311 49.476 49.398 49.236 49.168 49.056 48.893 48.821 48.748 48.696 48.668 48.583 48.488 48.383 48.286 48.178 48.058 47.953 47.878 47.771 47.611 47.448 47.371 47.216 47.091 46.951 46.783 46.661 46.491 46.343 46.221 46.04 45.888 45.718 45.545 45.323 45.155 44.943 44.73 44.555 44.33 44.138 43.935 43.73 43.518 43.33 43.168 42.968
93.575 93.332 93.055 92.817 92.705 92.54 92.247 91.902 91.555 91.152 90.8 90.537 90.277 90.127 89.997 89.789 89.592 89.467 89.424 89.329 89.254 89.159 89.182 89.502 89.292 88.917 88.732 88.607 88.557 88.452 88.412 88.464 88.734 88.777 88.817 88.842 88.764 88.554 88.427 88.332 88.194 88.072 87.899 87.754 87.579 87.447 87.297 87.182 87.094 87.017 86.989 86.929 86.802 86.672 86.497 86.372 86.272 86.227 86.147 86.052 85.957 85.859 85.737 85.574 85.452 85.359 85.247 85.117 84.959 84.799 84.714 84.624 84.437 84.304 84.312 83.522 82.954 82.367 81.522 80.887 80.524 80.129 79.679 79.287 78.912 78.737 78.774 78.707 78.784 78.759 78.644 78.779 78.899 79.067 79.309 79.567 79.834 80.109 80.332 80.589 80.927 81.522 81.442 81.459 81.339 81.072 80.577 79.892 79.137 78.402 77.707 77.147 76.964 76.942 76.852 76.757 76.672 76.567 76.409 76.309 76.197 76.064 75.967 75.842 75.727 75.624 75.502 75.389 75.272 75.129 75.062 75.019 74.879 74.739 74.627 74.509 74.392 74.257 74.067 73.939 73.819 73.707 73.557 73.397 73.292 73.179 73.087 72.987 72.917 72.822 72.764 72.699 72.647 72.624 72.592 72.534 72.527 72.472 72.412 72.337 72.239 72.129 72.009 71.876 71.731 71.554 71.376 71.179 70.954 70.699 70.471 70.219 69.941 69.686 69.419 69.171 68.889 68.614 68.299 68.061 67.796 67.521 67.219 66.986 66.711 66.504 66.261 66.004 65.729 65.534 65.321 65.064 64.824 64.574 64.336 64.086 63.851 63.629 63.414 63.261 63.119 62.981 62.894 62.864 62.769 62.969 64.104 65.026 65.766 66.234 66.226 66.221 66.201 66.091 66.136 66.134 66.214 65.794 65.201 64.164 63.006 62.184 61.236 60.789 60.239 59.526 59.014 58.619 58.531 58.294 58.034 57.881 57.699 57.446 57.214 56.961 56.666 56.406 56.196 55.966 55.864 55.751 55.204 54.686 54.226 54.456 53.264 52.684 52.051 51.061 52.619 51.949 51.009 50.591 50.144 49.686 49.121 48.646 48.216 47.821 47.521 47.466 47.956 46.886 46.913 46.686 46.481 45.773 44.268 43.176 45.506 47.121 45.276 45.748 46.216 46.641 46.916 46.893 47.173 47.551 47.898 48.461 48.591 48.863 49.116 49.558 50.738 50.841 50.908 52.086 52.336 52.418 54.763 54.096 55.471 55.971 55.876 56.241 57.318 56.956 57.156 57.538 56.826 57.233 57.566 57.418 57.058 58.146 57.038 58.376 58.806 58.576 57.123 57.141 56.991 57.008 57.048 57.086 57.093 57.093 56.986 56.918 56.821 57.861 57.311 56.521 56.401 56.293 56.191 56.291 56.636 55.923 55.881 55.338 58.246 57.948 56.178 54.901 54.458 54.256 54.061 53.921 53.851 55.151 54.876 55.143 55.638 55.498 53.126 52.776 52.656 52.501 52.391 52.276 52.161 52.083 52.016 51.933 52.028 52.198 51.476 51.323 51.218 51.123 51.221 50.898 50.771 50.558 50.638 50.441 50.228 50.071 49.981 49.951 49.871 49.858 49.868 49.788 49.718 49.596 49.726 50.168 49.533 49.423 49.246 49.126 49.033 48.938 48.838 48.773 48.688 48.636 48.566 48.501 48.386 48.263 48.173 48.071 47.963 47.846 47.703 47.611 47.523 47.381 47.261 47.123 46.983 46.843 46.688 46.536 46.396 46.271 46.158 45.96 45.795 45.653 45.438 45.253 45.075 44.85 44.645 44.45 44.258 44.048 43.845 43.67 43.453 43.28 43.133 42.945
93.427 93.122 92.882 92.69 93.027 92.512 92.042 91.707 91.37 91.035 90.75 90.525 90.3 90.147 89.937 89.749 89.567 89.479 89.447 89.352 89.342 89.317 89.264 89.174 89.047 89.032 88.812 88.637 88.579 88.517 88.449 88.389 88.489 88.707 88.679 88.739 88.732 88.507 88.369 88.279 88.139 87.992 87.872 87.717 87.542 87.379 87.229 87.109 87.047 86.982 86.812 86.687 86.579 86.454 86.337 86.209 86.074 86.019 85.939 85.879 85.804 85.684 85.547 85.409 85.309 85.199 85.079 84.942 84.797 84.659 84.572 84.489 84.302 84.362 83.972 83.369 82.799 82.074 81.172 80.829 80.439 80.019 79.594 79.219 78.857 78.692 78.789 78.734 78.607 78.802 78.839 78.884 79.069 79.197 79.367 79.574 79.812 80.042 80.269 80.529 80.867 81.732 81.484 81.402 81.262 80.977 80.499 79.802 79.077 78.339 77.682 77.089 76.927 76.827 76.764 76.652 76.532 76.414 76.289 76.202 76.092 75.947 75.864 75.714 75.594 75.497 75.394 75.289 75.192 75.057 74.984 74.884 74.772 74.669 74.569 74.444 74.329 74.179 74.039 73.862 73.724 73.607 73.452 73.304 73.197 73.082 72.967 72.859 72.774 72.702 72.634 72.577 72.542 72.504 72.489 72.442 72.377 72.317 72.284 72.219 72.162 72.042 71.919 71.806 71.669 71.489 71.321 71.129 70.894 70.664 70.409 70.176 69.941 69.711 69.436 69.166 68.936 68.651 68.349 68.096 67.801 67.519 67.271 67.014 66.744 66.474 66.219 65.996 65.744 65.569 65.311 65.039 64.814 64.626 64.336 64.086 63.859 63.639 63.431 63.271 63.109 62.979 62.904 62.966 62.779 63.531 64.801 65.436 66.081 66.221 66.249 66.196 66.179 66.099 66.219 66.174 66.066 65.559 64.866 63.681 62.721 61.949 61.194 60.669 59.981 59.299 58.759 58.489 58.336 58.186 57.974 57.734 57.486 57.221 56.921 56.666 56.491 56.204 56.311 55.761 55.561 55.459 54.851 54.269 53.711 53.301 52.839 52.406 51.756 51.331 50.731 50.719 50.594 50.259 49.886 49.489 49.009 48.584 48.211 47.899 47.619 49.306 50.751 46.848 46.748 46.611 46.341 45.558 43.696 43.193 46.143 45.421 45.441 45.598 45.881 46.318 46.628 46.786 47.111 47.513 48.021 48.283 48.578 48.831 49.096 49.376 50.093 50.423 50.621 51.196 51.878 52.356 53.221 53.806 54.373 55.366 56.271 55.688 57.831 56.863 57.698 57.756 56.738 56.931 56.948 57.013 57.023 58.141 58.213 59.191 57.628 57.288 56.986 57.093 56.918 56.978 56.971 57.041 57.031 57.976 56.986 56.971 56.823 57.881 56.676 56.516 56.373 56.248 56.133 56.006 55.853 55.681 57.766 59.271 57.278 57.283 55.078 54.808 54.443 54.238 54.066 54.021 53.813 54.038 53.426 53.468 54.021 54.631 52.943 52.768 52.601 52.508 52.356 52.226 52.136 52.041 51.918 51.901 51.761 51.533 51.381 51.283 51.213 51.561 50.973 50.828 50.728 50.551 50.406 50.298 50.256 50.076 49.928 49.958 49.918 49.896 49.821 49.761 49.671 49.691 49.808 49.688 49.846 49.353 49.156 49.058 48.938 48.851 48.778 48.738 48.653 48.546 48.443 48.356 48.251 48.178 48.071 47.936 47.838 47.701 47.583 47.483 47.343 47.236 47.138 47.013 46.893 46.753 46.611 46.438 46.303 46.156 46.031 45.9 45.735 45.585 45.375 45.22 45.01 44.788 44.605 44.385 44.168 43.97 43.79 43.603 43.388 43.2 43.05 42.883
93.292 92.982 92.762 92.602 92.44 92.21 91.85 91.502 91.2 90.89 90.67 90.45 90.342 90.132 89.927 89.729 89.594 89.537 89.452 89.417 89.462 89.369 89.217 89.154 89.117 88.929 88.754 88.677 88.667 88.509 88.474 88.419 88.419 88.417 88.567 88.719 88.617 88.427 88.317 88.217 88.067 87.939 87.824 87.642 87.499 87.354 87.227 87.119 87.082 86.832 86.657 86.519 86.384 86.254 86.144 86.032 85.899 85.807 85.737 85.667 85.604 85.492 85.389 85.272 85.197 85.069 84.922 84.812 84.654 84.527 84.434 84.287 84.159 84.192 83.744 83.267 82.687 81.984 81.289 80.824 80.479 80.077 79.642 79.327 79.024 78.804 78.729 78.747 78.742 78.839 78.944 79.062 79.184 79.272 79.389 79.537 79.754 80.014 80.214 80.489 80.829 81.569 81.339 81.332 81.192 80.919 80.427 79.717 78.952 78.242 77.557 76.962 76.772 76.742 76.672 76.557 76.439 76.332 76.224 76.067 75.964 75.827 75.762 75.659 75.559 75.382 75.302 75.212 75.104 74.974 74.894 74.822 74.702 74.569 74.469 74.369 74.232 74.084 73.929 73.779 73.649 73.479 73.357 73.217 73.087 72.959 72.872 72.759 72.642 72.554 72.487 72.457 72.409 72.354 72.327 72.304 72.277 72.224 72.194 72.102 72.032 71.957 71.854 71.714 71.604 71.444 71.271 71.084 70.866 70.634 70.419 70.209 69.951 69.709 69.436 69.161 68.961 68.686 68.401 68.076 67.791 67.536 67.251 66.979 66.711 66.476 66.236 66.004 65.749 65.519 65.311 65.064 64.826 64.581 64.331 64.109 63.876 63.639 63.486 63.274 63.136 63.054 62.989 62.834 63.029 64.251 65.246 65.776 66.199 66.221 66.189 66.154 66.111 66.111 66.204 66.189 65.844 65.284 64.289 63.249 62.494 61.739 61.201 60.541 59.809 59.151 58.614 58.391 58.221 58.016 57.794 57.524 57.291 57.051 56.701 56.601 56.299 55.979 55.676 55.456 55.251 55.054 54.601 54.031 53.496 52.964 52.441 51.961 51.424 51.206 50.951 50.349 50.111 50.029 49.749 49.389 49.044 48.901 48.306 47.991 47.744 47.431 47.146 46.926 46.633 46.281 45.916 45.883 44.736 43.756 46.051 45.076 45.276 45.483 45.753 46.056 46.381 46.676 47.476 47.488 47.851 48.181 48.476 48.826 49.121 49.308 49.908 50.308 50.891 51.388 52.726 53.228 53.463 53.763 54.973 55.178 56.293 55.541 56.373 56.481 56.876 56.663 56.676 57.011 57.293 56.936 57.081 56.966 57.323 57.151 56.851 57.073 56.998 57.063 56.903 56.936 56.946 56.973 56.938 56.973 56.901 58.376 58.713 56.823 56.756 56.493 56.371 56.198 56.086 55.981 55.848 55.691 57.338 57.861 56.551 55.081 54.946 56.416 55.353 54.156 55.333 54.828 53.963 53.528 53.391 53.183 53.131 53.256 52.873 52.806 52.618 52.858 52.318 52.168 52.041 51.958 51.846 51.786 51.648 51.798 51.526 51.231 51.438 52.276 51.096 50.763 50.663 50.503 50.463 50.861 50.173 50.023 49.928 49.956 49.986 49.918 49.858 49.836 49.716 49.936 49.493 49.383 49.433 49.251 49.051 48.933 48.811 48.753 48.698 48.646 48.601 48.493 48.421 48.273 48.153 48.031 47.888 47.783 47.681 47.566 47.438 47.346 47.223 47.093 46.968 46.876 46.761 46.623 46.493 46.358 46.231 46.081 45.938 45.76 45.613 45.463 45.26 45.12 44.935 44.745 44.563 44.345 44.135 43.938 43.725 43.513 43.338 43.143 42.973 42.785
93.142 92.832 92.657 92.617 92.172 91.895 91.61 91.325 91.09 90.835 90.592 90.432 90.3 90.094 89.832 89.702 89.642 89.582 89.489 89.497 89.487 89.377 89.207 89.139 89.082 88.947 88.947 88.669 88.627 88.549 88.474 88.437 88.412 88.389 88.367 88.467 88.357 88.357 88.277 88.152 88.004 87.872 87.737 87.624 87.494 87.367 87.197 87.082 86.992 86.804 86.647 86.459 86.284 86.094 85.979 85.874 85.752 85.649 85.529 85.447 85.382 85.302 85.224 85.134 85.062 84.942 84.812 84.694 84.564 84.427 84.267 84.097 84.169 83.884 83.537 83.162 82.684 82.102 81.572 81.124 80.752 80.362 80.014 79.692 79.392 79.219 79.074 78.977 78.982 79.012 79.064 79.167 79.197 79.249 79.377 79.512 79.729 79.972 80.187 80.432 80.814 81.507 81.202 81.229 81.107 80.904 80.379 79.629 78.902 78.127 77.437 76.884 76.709 76.644 76.532 76.427 76.359 76.224 76.114 75.997 75.867 75.809 75.707 75.604 75.404 75.289 75.204 75.109 74.992 74.864 74.794 74.722 74.619 74.474 74.379 74.277 74.164 74.012 73.834 73.714 73.572 73.434 73.277 73.122 72.992 72.854 72.714 72.614 72.507 72.392 72.292 72.284 72.239 72.217 72.157 72.137 72.142 72.069 72.034 71.999 71.932 71.877 71.762 71.661 71.546 71.401 71.234 71.056 70.854 70.636 70.419 70.181 69.924 69.656 69.446 69.186 68.961 68.659 68.361 68.096 67.836 67.579 67.279 67.016 66.741 66.491 66.239 65.994 65.749 65.516 65.336 65.091 64.856 64.586 64.339 64.114 63.881 63.679 63.496 63.291 63.169 63.081 63.081 62.986 63.711 64.869 65.504 66.071 66.219 66.219 66.199 66.191 66.081 66.214 66.156 66.064 65.669 64.886 63.804 63.144 62.209 61.659 61.634 60.406 59.616 58.861 58.444 58.229 58.064 57.834 57.581 57.281 57.051 56.854 56.526 56.104 55.876 55.609 55.306 55.289 55.036 54.781 54.574 53.931 53.424 52.751 52.206 51.766 51.274 50.871 50.719 50.441 50.319 50.859 49.546 49.349 49.216 49.094 48.496 48.086 47.829 47.511 47.191 46.946 46.636 46.138 45.353 45.923 46.123 43.606 44.488 44.921 45.118 45.371 45.706 45.963 46.308 46.658 47.676 47.466 47.811 48.203 48.538 48.813 48.971 49.223 49.761 50.398 50.566 51.513 52.603 52.773 53.278 53.883 54.403 55.486 55.833 55.733 55.853 55.958 56.778 56.553 56.731 56.923 56.993 57.081 57.423 56.958 56.901 56.856 56.666 56.991 57.033 57.113 56.898 56.833 56.886 56.896 56.836 56.866 56.796 57.251 57.711 56.676 57.821 58.593 57.068 56.248 56.276 55.953 55.778 56.236 57.061 57.513 58.378 57.498 55.051 56.146 55.601 54.128 55.258 54.621 53.673 53.478 53.331 53.138 53.546 54.193 53.028 53.698 52.671 52.413 52.181 52.078 51.978 51.878 51.753 51.706 51.593 51.811 51.971 51.238 51.658 50.981 51.253 52.533 50.663 50.438 50.381 50.771 50.146 50.013 49.921 49.913 50.293 49.858 49.868 49.851 49.811 49.988 49.401 49.391 49.331 49.213 49.038 48.906 48.778 48.653 48.546 48.511 48.478 48.398 48.301 48.211 48.078 47.911 47.781 47.606 47.503 47.381 47.258 47.156 47.061 46.931 46.798 46.731 46.648 46.541 46.418 46.268 46.126 45.986 45.838 45.69 45.558 45.378 45.198 45.018 44.84 44.633 44.453 44.233 44.04 43.843 43.658 43.475 43.258 43.088 42.913 42.735
92.982 92.702 92.46 92.21 91.915 91.665 91.45 91.26 91.01 90.802 90.597 90.42 90.252 90.044 89.829 89.777 89.694 89.594 89.619 89.599 89.487 89.359 89.242 89.114 88.984 88.864 89.104 88.639 88.569 88.499 88.472 88.457 88.434 88.407 88.364 88.304 88.247 88.229 88.167 88.089 88.044 87.827 87.724 87.622 87.479 87.322 87.167 87.017 86.904 86.799 86.692 86.472 86.234 85.992 85.862 85.727 85.634 85.519 85.392 85.294 85.179 85.064 85.012 84.964 84.884 84.792 84.672 84.547 84.432 84.279 84.142 83.982 84.049 83.669 83.422 83.082 82.699 82.244 81.802 81.377 81.012 80.629 80.274 79.932 79.689 79.504 79.337 79.227 79.179 79.157 79.152 79.207 79.214 79.247 79.352 79.512 79.702 79.922 80.157 80.399 80.729 81.324 81.114 81.147 81.027 80.757 80.184 79.477 78.752 78.039 77.419 76.767 76.572 76.544 76.442 76.317 76.239 76.122 75.994 75.857 75.777 75.692 75.512 75.472 75.282 75.219 75.127 75.024 74.927 74.787 74.727 74.614 74.524 74.412 74.297 74.189 74.062 73.924 73.759 73.597 73.439 73.294 73.152 73.012 72.877 72.737 72.597 72.489 72.367 72.287 72.207 72.162 72.112 72.069 72.029 72.009 71.972 71.932 71.902 71.879 71.857 71.804 71.734 71.609 71.486 71.341 71.181 70.999 70.821 70.606 70.394 70.176 69.949 69.691 69.459 69.206 68.936 68.646 68.391 68.131 67.829 67.549 67.291 66.999 66.714 66.461 66.231 65.989 65.756 65.514 65.314 65.094 64.899 64.634 64.396 64.126 63.884 63.704 63.509 63.319 63.206 63.129 63.051 63.246 64.476 65.249 65.824 66.171 66.244 66.191 66.199 66.086 66.134 66.186 66.204 65.779 65.224 64.299 63.241 64.069 63.459 61.481 61.811 60.231 59.386 58.656 58.269 58.111 57.959 57.689 57.376 57.074 56.756 56.441 56.076 56.076 55.679 55.274 55.029 54.961 54.741 54.446 54.146 53.784 53.204 52.864 52.279 51.594 51.101 50.616 50.356 50.149 49.966 49.781 49.409 49.176 49.144 49.424 48.534 48.096 47.869 48.546 47.216 47.063 46.633 46.106 45.123 44.178 43.023 43.406 44.233 44.668 44.966 45.198 45.568 45.913 46.328 46.646 47.028 47.408 47.846 48.178 48.463 48.716 48.928 49.203 49.558 50.188 50.213 51.503 51.346 51.828 52.336 52.991 53.841 54.851 55.616 55.816 56.501 55.831 56.478 56.466 56.598 56.566 56.786 57.591 58.521 57.001 56.853 56.826 56.511 56.966 57.798 58.136 56.981 57.361 59.488 56.953 56.838 56.828 56.743 56.698 56.616 56.581 56.481 57.046 56.328 56.831 57.551 55.951 55.736 55.948 56.103 57.563 56.546 56.218 54.731 54.926 54.571 54.048 53.918 53.776 53.611 53.426 53.291 53.146 53.166 53.143 52.796 52.533 52.451 52.216 52.291 52.018 51.988 51.866 51.656 51.616 51.481 51.403 51.868 51.558 52.468 50.971 52.328 51.478 50.561 50.408 50.253 50.176 50.118 50.086 49.963 49.868 49.828 49.846 49.906 49.813 49.876 50.141 49.208 49.436 49.276 49.133 48.993 48.921 48.836 48.751 48.606 48.478 48.401 48.321 48.206 48.111 47.986 47.871 47.711 47.568 47.468 47.318 47.131 47.016 46.893 46.771 46.673 46.568 46.473 46.371 46.276 46.173 46.031 45.901 45.733 45.605 45.46 45.305 45.12 44.925 44.74 44.558 44.338 44.153 43.968 43.75 43.57 43.373 43.19 42.995 42.825 42.675
92.815 92.607 92.292 91.99 91.725 91.517 91.342 91.157 90.935 90.775 90.557 90.367 90.202 90.007 89.912 89.847 89.722 89.724 89.712 89.647 89.497 89.334 89.249 89.112 88.964 88.829 88.704 88.549 88.394 88.374 88.304 88.459 88.392 88.402 88.367 88.289 88.242 88.169 88.112 88.012 87.882 87.777 87.679 87.609 87.484 87.359 87.232 87.017 86.829 86.704 86.639 86.537 86.389 86.022 85.779 85.619 85.522 85.412 85.289 85.184 85.054 84.897 84.794 84.722 84.677 84.607 84.524 84.397 84.324 84.177 84.009 83.922 83.857 83.514 83.309 83.102 82.789 82.434 81.997 81.597 81.234 80.869 80.547 80.262 79.934 79.724 79.587 79.419 79.342 79.324 79.252 79.224 79.222 79.277 79.367 79.524 79.747 79.962 80.154 80.384 80.657 81.357 81.107 81.062 80.959 80.622 80.042 79.379 78.642 77.972 77.364 76.729 76.484 76.424 76.329 76.212 76.087 75.997 75.869 75.724 75.599 75.529 75.452 75.307 75.242 75.142 75.009 74.939 74.792 74.677 74.574 74.502 74.407 74.314 74.182 74.064 73.934 73.802 73.682 73.519 73.344 73.184 73.067 72.897 72.732 72.594 72.454 72.339 72.207 72.112 72.054 71.989 71.922 71.887 71.879 71.859 71.837 71.799 71.774 71.752 71.739 71.697 71.632 71.531 71.389 71.259 71.086 70.936 70.806 70.584 70.361 70.136 69.916 69.711 69.471 69.224 68.996 68.701 68.394 68.131 67.854 67.556 67.304 67.031 66.741 66.486 66.209 65.961 65.764 65.514 65.319 65.104 64.901 64.654 64.434 64.201 63.914 63.691 63.476 63.346 63.249 63.144 62.926 63.929 65.006 65.461 66.081 66.244 66.264 66.204 66.189 66.119 66.236 66.171 66.096 65.576 64.751 63.631 62.676 62.219 61.799 61.596 60.746 59.976 59.076 58.551 58.104 57.901 57.686 57.619 57.196 56.824 56.509 56.154 56.186 55.556 55.309 54.944 54.784 54.646 54.554 54.206 53.899 54.966 53.814 52.979 52.079 51.421 50.814 50.306 50.076 49.844 49.619 49.449 49.274 48.949 48.956 48.791 48.354 48.094 47.851 47.759 47.264 47.068 46.613 46.156 45.241 43.936 42.976 43.203 44.356 44.576 44.808 45.213 45.453 45.938 46.301 46.633 47.016 47.678 47.868 48.118 48.436 48.711 48.943 49.141 49.496 49.801 50.126 50.891 51.023 51.448 51.828 52.771 53.573 53.958 55.128 55.726 55.731 55.696 56.056 56.406 56.548 56.493 56.483 56.743 58.776 57.783 56.863 56.788 56.448 56.953 57.638 59.833 56.941 56.803 58.943 57.551 57.186 56.838 56.688 56.641 56.523 56.481 56.426 56.318 56.181 56.086 55.968 55.813 56.696 57.606 55.846 56.718 58.931 56.298 54.891 56.121 54.681 54.003 53.831 53.723 53.611 53.271 53.476 53.156 52.913 52.813 52.753 52.333 52.506 52.406 52.131 51.948 51.983 52.236 51.938 51.628 51.371 51.256 51.093 52.161 53.191 51.518 53.823 51.688 50.551 50.378 50.253 50.128 50.071 50.038 49.976 49.916 49.826 49.853 50.033 49.801 49.863 49.431 49.583 49.426 49.201 49.073 48.973 48.923 48.826 48.743 48.633 48.523 48.401 48.283 48.176 48.031 47.883 47.758 47.606 47.453 47.331 47.203 47.108 46.993 46.843 46.673 46.533 46.388 46.293 46.208 46.101 46.023 45.906 45.758 45.616 45.505 45.345 45.185 44.988 44.815 44.645 44.453 44.268 44.088 43.893 43.695 43.533 43.32 43.168 43.013 42.81 42.65
92.69 92.567 92.067 91.805 91.625 91.425 91.267 91.122 90.912 90.722 90.51 90.347 90.117 90.029 89.977 89.874 89.837 89.859 89.757 89.649 89.459 89.372 89.232 89.094 88.962 88.807 88.632 88.489 88.444 88.299 88.239 88.332 88.272 88.317 88.344 88.279 88.212 88.124 88.037 87.927 87.844 87.754 87.672 87.584 87.569 87.409 87.237 87.062 86.859 86.679 86.562 86.442 86.364 86.204 85.897 85.537 85.402 85.312 85.219 85.094 84.954 84.774 84.619 84.542 84.464 84.404 84.299 84.224 84.172 84.037 83.882 83.882 83.584 83.407 83.199 83.037 82.869 82.567 82.207 81.894 81.524 81.154 80.822 80.469 80.212 79.947 79.777 79.617 79.539 79.479 79.444 79.357 79.389 79.439 79.469 79.639 79.849 80.024 80.207 80.414 80.679 81.074 81.037 81.039 80.877 80.527 79.964 79.302 78.569 77.912 77.224 76.604 76.389 76.354 76.234 76.117 75.999 75.854 75.719 75.617 75.522 75.419 75.297 75.187 75.092 75.002 74.924 74.794 74.692 74.617 74.472 74.362 74.282 74.182 74.067 73.954 73.832 73.692 73.549 73.384 73.202 73.024 72.909 72.742 72.609 72.437 72.312 72.194 72.087 71.999 71.914 71.814 71.744 71.692 71.699 71.679 71.662 71.642 71.629 71.617 71.584 71.574 71.517 71.429 71.324 71.194 71.046 70.894 70.709 70.519 70.321 70.119 69.901 69.679 69.476 69.249 68.989 68.744 68.451 68.176 67.874 67.581 67.326 67.054 66.769 66.511 66.271 66.021 65.801 65.574 65.361 65.116 64.891 64.674 64.491 64.206 63.969 63.719 63.511 63.386 63.281 63.161 63.351 64.424 65.334 65.739 66.206 66.236 66.256 66.231 66.149 66.201 66.189 66.224 65.796 65.296 64.269 63.151 62.679 61.771 61.549 61.201 60.266 59.536 58.714 58.291 58.059 58.066 57.509 57.364 56.974 56.589 56.299 56.289 56.591 55.701 54.951 54.681 54.559 54.474 54.341 54.051 53.766 53.501 53.316 52.614 51.979 51.396 50.661 50.059 49.966 49.644 49.284 49.121 49.044 48.959 48.541 48.376 48.316 48.091 47.811 47.564 47.391 46.961 46.601 46.208 45.661 44.688 43.156 42.873 43.546 44.793 44.568 44.846 45.363 45.838 46.256 46.581 47.453 47.533 47.903 48.153 48.371 48.688 48.961 49.313 49.483 49.748 50.053 50.428 51.236 51.478 52.418 52.283 53.841 54.193 54.493 54.376 55.951 55.663 56.081 56.676 56.578 56.516 56.396 56.466 56.651 56.748 56.666 57.021 56.508 56.721 57.016 59.053 57.483 56.696 56.681 57.033 58.226 58.268 56.883 56.553 56.441 56.433 56.366 56.218 56.126 55.993 55.936 55.766 56.833 58.078 56.843 54.903 56.253 56.736 55.373 54.396 54.128 53.931 53.811 53.698 53.141 53.136 53.268 53.013 52.821 52.818 53.973 53.191 53.011 53.176 52.066 51.926 52.108 52.158 51.986 51.488 51.361 51.163 51.076 52.633 52.148 51.801 51.151 52.171 51.011 50.356 50.216 50.156 50.091 50.043 49.911 50.063 49.833 49.858 49.821 49.796 49.768 49.113 49.623 49.781 49.291 49.138 49.023 48.908 48.776 48.671 48.563 48.483 48.348 48.281 48.171 48.086 48.048 47.823 47.643 47.486 47.291 47.123 46.991 46.826 46.718 46.578 46.453 46.268 46.096 45.978 45.923 45.843 45.753 45.636 45.513 45.39 45.23 45.063 44.873 44.723 44.538 44.363 44.208 43.983 43.81 43.628 43.44 43.275 43.08 42.94 42.753 42.61
92.705 92.177 91.917 91.747 91.56 91.422 91.21 91.047 90.89 90.68 90.485 90.285 90.17 90.109 90.037 89.947 89.959 89.907 89.737 89.592 89.464 89.359 89.214 89.069 88.917 88.757 88.649 88.509 88.427 88.349 88.294 88.262 88.209 88.212 88.204 88.187 88.689 88.089 88.022 87.944 87.819 87.739 87.692 87.604 87.507 87.407 87.204 87.019 86.814 86.629 86.474 86.352 86.247 86.137 86.047 85.867 85.617 85.274 85.162 85.019 84.867 84.659 84.507 84.384 84.247 84.164 84.074 83.972 83.924 83.767 83.607 83.699 83.402 83.219 83.057 82.957 82.797 82.592 82.352 82.097 81.774 81.487 81.124 80.829 80.524 80.284 80.069 79.899 79.797 79.727 79.657 79.604 79.612 79.642 79.679 79.814 80.087 80.247 80.354 80.482 80.722 81.032 80.942 80.959 80.814 80.437 79.822 79.092 78.369 77.747 77.137 76.534 76.374 76.267 76.117 75.954 75.819 75.749 75.632 75.504 75.394 75.272 75.204 75.067 74.997 74.879 74.772 74.672 74.554 74.457 74.327 74.209 74.159 74.057 73.942 73.832 73.707 73.552 73.419 73.252 73.077 72.929 72.784 72.594 72.464 72.299 72.159 72.009 71.919 71.802 71.744 71.644 71.602 71.537 71.522 71.529 71.542 71.504 71.457 71.482 71.432 71.412 71.379 71.304 71.196 71.094 70.964 70.796 70.646 70.446 70.251 70.054 69.824 69.604 69.421 69.216 68.999 68.749 68.471 68.206 67.916 67.646 67.366 67.081 66.829 66.576 66.299 66.044 65.814 65.601 65.374 65.131 64.904 64.714 64.474 64.259 64.026 63.774 63.576 63.449 63.326 63.249 63.904 65.001 65.476 66.139 66.244 66.191 66.189 66.169 66.114 66.256 66.189 66.039 65.479 64.796 63.569 62.536 62.039 61.574 61.341 60.659 59.804 59.216 58.409 58.064 57.851 58.029 57.381 57.169 56.804 56.391 56.069 55.689 55.451 55.184 54.779 54.504 54.419 54.354 54.256 54.026 53.696 53.719 61.181 53.586 51.894 51.214 50.669 50.229 49.739 49.424 49.111 48.931 48.834 48.746 48.439 47.601 48.081 48.004 47.759 47.601 47.944 46.953 46.888 46.343 45.803 45.133 44.038 44.333 43.206 45.121 44.291 44.661 45.266 45.751 46.903 47.073 47.178 47.466 47.801 48.073 48.371 48.696 49.303 49.443 49.483 50.091 49.966 50.296 51.001 53.096 51.951 51.996 52.991 53.983 53.718 55.131 54.876 55.326 56.341 56.018 56.088 56.478 56.478 56.406 56.461 56.583 56.591 57.108 56.578 56.648 57.533 56.736 56.771 56.643 56.948 57.583 60.201 58.791 57.866 56.521 56.388 56.353 56.268 56.171 56.053 56.058 56.343 55.643 55.876 55.888 55.016 54.423 54.676 54.436 54.646 54.303 54.076 53.818 53.581 53.621 53.408 53.286 53.123 52.861 53.278 53.878 55.491 53.381 53.141 55.373 53.281 51.853 51.778 52.966 52.488 51.671 51.221 51.176 51.946 53.263 51.481 50.696 50.751 51.088 51.771 50.308 50.158 50.126 50.046 49.996 49.868 49.928 49.788 49.723 49.791 49.818 49.608 49.156 49.486 49.696 49.366 49.266 49.203 49.168 49.003 48.888 49.026 48.616 49.333 47.766 47.446 49.341 47.451 47.043 48.063 47.303 47.248 47.313 47.286 47.121 46.691 46.458 46.276 46.151 46.008 45.866 45.773 45.681 45.603 45.523 45.413 45.298 45.145 44.965 44.798 44.62 44.435 44.288 44.09 43.915 43.685 43.578 43.37 43.195 42.985 42.855 42.688 42.53
92.802 92.035 91.867 91.722 91.557 91.397 91.21 91.065 90.835 90.662 90.415 90.33 90.262 90.142 90.064 90.122 90.004 89.937 89.784 89.617 89.454 89.314 89.202 89.047 88.879 88.722 88.669 88.542 88.444 88.364 88.349 88.447 88.197 88.292 88.139 88.044 89.724 88.312 87.959 87.919 87.804 87.757 87.684 87.617 87.499 87.314 87.184 87.009 86.782 86.544 86.424 86.264 86.167 86.142 86.059 86.007 85.912 85.537 85.102 84.917 84.727 84.479 84.307 84.157 84.047 83.917 83.819 83.712 83.614 83.462 83.452 83.289 83.164 83.032 82.912 82.794 82.702 82.569 82.414 82.187 81.982 81.789 81.579 81.264 80.974 80.697 80.502 80.279 80.152 80.087 79.997 79.939 79.914 79.912 80.014 80.117 80.339 80.502 80.594 80.664 80.819 81.127 80.879 80.869 80.694 80.267 79.634 78.877 78.204 77.602 77.024 76.397 76.342 76.207 75.999 75.849 75.699 75.612 75.522 75.397 75.307 75.192 75.057 74.969 74.852 74.764 74.657 74.534 74.419 74.309 74.204 74.084 74.017 73.919 73.797 73.652 73.527 73.374 73.222 73.059 72.932 72.802 72.622 72.452 72.322 72.142 71.999 71.892 71.782 71.637 71.574 71.494 71.417 71.382 71.369 71.329 71.307 71.329 71.322 71.339 71.319 71.299 71.254 71.164 71.079 70.979 70.841 70.711 70.544 70.371 70.174 70.011 69.794 69.581 69.401 69.184 68.966 68.731 68.471 68.206 67.931 67.641 67.371 67.111 66.839 66.554 66.294 66.046 65.831 65.616 65.396 65.171 64.936 64.719 64.516 64.306 64.064 63.806 63.666 63.516 63.354 63.486 64.544 65.349 65.879 66.249 66.289 66.191 66.234 66.121 66.201 66.224 66.184 65.756 65.159 64.124 62.819 62.076 61.759 61.454 61.204 60.329 59.489 58.714 58.221 57.961 57.809 57.469 57.266 56.969 56.669 56.199 55.861 55.476 55.234 54.974 54.626 54.439 54.304 54.239 54.181 53.994 53.716 53.296 53.004 52.581 51.984 51.291 52.901 52.224 49.986 49.241 49.034 48.796 48.739 48.644 48.421 47.929 47.511 47.734 47.601 47.499 47.189 46.838 46.631 46.288 45.733 45.518 46.981 46.318 47.371 43.551 44.073 44.531 44.981 45.476 46.273 47.676 47.093 47.453 47.761 48.013 48.286 48.646 49.786 50.146 49.478 49.668 49.936 50.243 50.733 51.796 51.498 51.701 52.086 52.973 53.693 54.018 54.303 54.698 55.348 55.356 55.543 56.056 56.753 56.323 56.393 56.408 56.526 56.638 56.516 56.561 56.681 56.656 56.671 57.071 59.721 57.723 57.678 57.141 57.041 57.051 56.326 56.266 56.158 56.656 56.306 56.376 56.546 55.541 57.641 57.363 54.958 54.811 55.891 54.536 54.241 54.171 54.193 53.788 53.678 53.566 53.353 53.298 53.151 53.053 55.321 55.696 54.921 52.783 52.226 53.761 52.991 51.853 51.948 53.973 53.221 51.328 51.176 51.033 52.453 53.281 51.158 50.633 50.578 50.491 50.513 50.268 50.146 50.103 50.036 49.988 49.916 49.906 49.908 49.888 49.823 49.733 49.273 49.176 49.483 49.316 49.551 49.771 50.313 49.466 49.728 49.211 49.558 48.793 48.333 46.933 46.343 46.228 47.278 48.416 46.696 46.873 45.766 45.673 45.866 47.698 46.383 46.433 46.186 46.003 45.946 45.763 45.608 45.513 45.411 45.353 45.266 45.135 45.005 44.835 44.678 44.51 44.338 44.168 44.01 43.795 43.62 43.468 43.29 43.128 42.95 42.79 42.618 42.478
92.247 92.047 91.872 91.69 91.515 91.37 91.17 90.95 90.812 90.62 90.46 90.412 90.315 90.239 90.224 90.169 90.027 89.892 89.754 89.594 89.452 89.319 89.167 89.019 88.919 88.742 88.709 88.604 88.454 88.464 88.402 88.272 88.242 88.114 88.072 88.054 88.842 88.414 87.892 87.879 87.834 87.762 87.689 87.617 87.492 87.317 87.137 86.932 86.679 86.397 86.342 86.214 86.169 86.099 85.984 85.882 85.814 85.734 85.409 84.962 84.659 84.439 84.097 83.967 83.837 83.679 83.594 83.489 83.332 83.117 83.104 83.037 82.944 82.829 82.712 82.592 82.504 82.482 82.362 82.159 82.049 81.852 81.714 81.497 81.284 81.057 80.859 80.669 80.594 80.569 80.477 80.399 80.359 80.329 80.399 80.487 80.622 80.727 80.809 80.854 80.867 81.102 80.817 80.749 80.509 79.992 79.374 78.734 78.042 77.437 76.884 76.284 76.287 76.127 75.967 75.819 75.607 75.489 75.369 75.267 75.167 75.067 74.894 74.817 74.709 74.624 74.479 74.399 74.267 74.152 74.054 73.909 73.847 73.732 73.604 73.454 73.314 73.179 73.012 72.869 72.724 72.589 72.429 72.244 72.092 71.969 71.809 71.672 71.549 71.444 71.362 71.287 71.242 71.219 71.159 71.149 71.192 71.169 71.167 71.157 71.129 71.129 71.089 70.996 70.931 70.834 70.719 70.599 70.436 70.254 70.079 69.894 69.701 69.531 69.346 69.151 68.941 68.706 68.464 68.204 67.949 67.686 67.421 67.139 66.861 66.601 66.326 66.126 65.889 65.651 65.436 65.219 64.964 64.744 64.529 64.321 64.069 63.869 63.719 63.586 63.469 64.039 65.064 65.606 66.174 66.254 66.266 66.204 66.186 66.146 66.239 66.186 66.049 65.341 64.616 63.359 62.321 61.854 61.564 61.331 60.796 59.959 59.214 58.416 58.021 58.024 57.604 57.384 57.141 56.846 56.476 56.151 55.749 55.514 55.136 54.999 54.571 54.421 54.246 54.196 54.121 53.884 53.609 53.299 52.906 52.504 52.036 51.666 53.241 51.949 49.899 49.161 49.099 48.816 48.714 48.679 48.709 47.926 47.409 47.074 47.086 47.259 47.136 46.896 46.688 46.473 45.958 45.421 44.843 47.553 43.076 42.808 43.641 44.201 44.696 44.986 45.653 46.631 46.893 47.318 47.641 47.946 48.261 48.493 50.411 49.571 49.303 49.673 49.961 50.206 50.591 50.933 51.186 51.503 51.838 52.346 53.048 53.243 54.161 54.231 54.783 54.928 55.228 55.653 56.086 56.331 56.341 56.318 56.381 56.496 56.563 56.643 56.633 56.631 56.621 57.836 59.558 56.648 56.478 57.603 59.346 59.601 56.506 56.216 56.041 56.036 55.801 55.733 55.678 55.423 57.908 56.156 57.721 58.003 55.321 54.763 54.286 53.948 53.793 53.798 53.581 53.273 53.143 53.201 53.041 52.928 54.588 55.981 54.141 53.083 53.131 54.396 54.918 51.963 51.686 52.516 51.703 51.318 51.218 51.228 50.876 52.383 50.978 50.581 50.516 50.453 51.001 50.563 50.146 50.091 50.086 49.951 49.903 49.898 49.908 49.881 49.776 49.738 49.198 49.288 49.341 49.256 49.098 49.036 47.991 47.668 47.581 48.186 47.951 46.738 46.758 45.936 45.486 45.468 47.468 46.668 45.333 44.881 44.896 44.796 45.046 45.381 46.381 46.461 46.251 45.956 45.778 45.676 45.548 45.368 45.268 45.181 45.113 45.028 44.883 44.713 44.523 44.42 44.24 44.09 43.95 43.75 43.583 43.385 43.22 43.058 42.905 42.728 42.55 42.418
92.247 92.077 91.89 91.747 91.572 91.347 91.147 91 90.792 90.652 90.58 90.467 90.405 90.379 90.352 90.202 90.042 89.899 89.722 89.569 89.432 89.294 89.162 89.052 88.914 88.817 88.662 88.612 88.507 88.504 88.367 88.304 88.229 88.064 87.979 87.872 87.942 87.987 87.924 87.884 87.802 87.754 87.687 87.589 87.477 87.334 87.132 86.879 86.517 86.189 86.017 85.764 85.872 85.972 85.954 85.819 85.709 85.677 85.697 85.584 85.019 84.444 84.067 83.877 83.767 83.612 83.427 83.309 83.127 83.137 83.012 82.827 82.717 82.597 82.487 82.369 82.272 82.219 82.112 82.009 81.904 81.822 81.697 81.554 81.369 81.194 81.039 80.929 80.874 80.807 80.769 80.719 80.692 80.674 80.752 80.759 80.792 80.877 80.907 80.934 80.909 81.204 80.692 80.612 80.259 79.657 79.027 78.409 77.769 77.187 76.664 76.227 76.174 76.014 75.839 75.699 75.537 75.402 75.287 75.142 75.039 74.907 74.774 74.652 74.524 74.454 74.332 74.244 74.152 73.984 73.872 73.752 73.699 73.517 73.379 73.217 73.052 72.919 72.764 72.632 72.514 72.349 72.182 72.019 71.847 71.714 71.579 71.427 71.297 71.224 71.134 71.074 71.004 70.989 70.977 70.967 70.969 70.944 70.984 70.967 70.927 70.907 70.877 70.836 70.746 70.619 70.546 70.419 70.249 70.054 69.904 69.776 69.639 69.469 69.291 69.081 68.881 68.631 68.404 68.181 67.924 67.676 67.409 67.156 66.886 66.619 66.361 66.181 65.956 65.714 65.501 65.256 65.019 64.786 64.584 64.334 64.116 63.959 63.784 63.591 63.736 64.686 65.439 65.949 66.266 66.269 66.254 66.256 66.144 66.226 66.189 66.189 65.669 64.944 63.911 62.629 61.899 61.674 61.511 62.746 60.356 59.521 58.819 58.259 57.914 57.796 57.736 57.766 57.056 56.741 56.441 56.089 55.754 55.366 55.034 54.766 54.544 54.244 54.099 54.381 53.816 53.656 53.461 53.191 52.741 52.409 51.999 51.504 51.824 51.056 49.481 49.181 48.916 48.761 48.581 48.444 48.354 48.196 47.926 47.346 46.679 47.041 47.029 46.748 46.501 46.226 45.878 45.373 44.878 44.258 43.491 42.708 42.978 43.651 44.121 44.323 44.743 45.958 46.826 47.176 47.561 47.911 49.443 48.528 50.208 49.338 49.356 49.673 49.913 50.161 50.488 50.748 51.031 51.358 51.706 52.078 52.953 53.018 53.481 53.873 54.266 54.601 55.708 55.473 55.818 56.216 56.341 56.306 56.273 56.308 56.416 56.626 56.593 56.531 56.478 56.408 56.513 56.811 59.473 57.271 59.731 60.118 56.786 56.468 55.918 55.821 55.811 56.153 56.733 55.603 55.256 56.158 57.946 55.826 54.491 54.523 54.333 54.071 53.816 53.693 53.568 53.333 53.058 53.176 53.028 52.841 52.821 54.188 54.186 52.803 52.361 52.831 52.333 51.811 51.616 51.781 55.196 52.331 51.133 51.398 51.128 53.226 51.033 50.548 50.661 52.121 50.626 50.291 50.163 50.061 50.041 49.973 49.926 49.883 49.848 49.836 49.746 50.213 51.721 50.396 49.308 49.066 48.798 48.036 47.431 46.926 46.706 46.186 45.981 45.816 45.431 45.888 44.811 44.461 47.126 45.436 43.936 43.718 43.728 44.046 44.393 44.778 45.191 47.181 46.416 45.906 45.686 45.606 45.428 45.281 45.156 45.036 44.988 44.895 44.733 44.608 44.463 44.29 44.123 43.983 43.828 43.63 43.503 43.345 43.16 43.008 42.833 42.685 42.5 42.365
92.19 92.075 91.94 91.722 91.49 91.305 91.127 90.937 90.845 90.755 90.655 90.537 90.527 90.489 90.352 90.177 90.002 89.862 89.689 89.594 89.459 89.342 89.754 89.177 89.327 88.909 88.717 88.757 88.549 88.487 88.382 88.277 88.154 88.044 87.964 87.874 87.952 87.959 87.929 87.877 87.812 87.752 87.674 87.567 87.449 87.309 87.099 86.792 86.352 86.039 85.842 85.592 85.367 85.327 85.602 85.782 85.697 85.624 85.567 85.559 85.467 85.012 84.304 83.847 83.619 83.472 83.362 83.187 83.022 83.187 82.857 82.667 82.512 82.392 82.284 82.174 82.032 81.892 81.817 81.749 81.659 81.597 81.577 81.492 81.354 81.209 81.074 80.969 80.902 80.867 80.854 80.834 80.847 80.817 80.874 80.849 80.864 80.909 80.939 80.982 80.904 81.147 80.639 80.487 79.977 79.322 78.689 78.017 77.409 76.887 76.424 75.999 76.034 75.879 75.689 75.572 75.452 75.334 75.187 75.042 74.899 74.757 74.639 74.504 74.349 74.247 74.154 74.072 73.954 73.822 73.704 73.489 73.467 73.312 73.167 73.014 72.857 72.699 72.549 72.397 72.254 72.089 71.949 71.812 71.644 71.522 71.367 71.227 71.124 71.054 70.997 70.907 70.809 70.769 70.734 70.709 70.692 70.702 70.724 70.702 70.669 70.649 70.637 70.591 70.524 70.401 70.284 70.171 70.026 69.864 69.704 69.601 69.441 69.271 69.109 68.931 68.736 68.549 68.311 68.104 67.856 67.604 67.351 67.124 66.876 66.624 66.426 66.236 65.996 65.769 65.521 65.246 65.031 64.854 64.639 64.349 64.131 64.029 63.841 63.734 64.216 65.134 65.741 66.186 66.246 66.244 66.271 66.224 66.181 66.254 66.231 65.991 65.194 64.344 63.224 62.076 61.791 61.476 61.274 60.724 59.819 59.019 58.356 57.969 57.811 57.684 57.551 57.431 56.989 56.676 56.406 56.174 55.721 55.306 55.004 54.749 54.396 54.121 53.899 53.784 53.614 53.479 53.336 53.054 52.726 52.284 51.849 51.424 50.806 50.166 49.879 49.671 49.336 49.121 48.871 48.731 48.504 48.231 47.906 47.386 46.614 46.394 46.561 46.411 46.246 46.083 45.878 45.468 45.053 44.561 43.806 43.028 44.753 43.261 45.668 44.303 44.671 45.638 46.808 47.571 47.561 47.803 48.158 48.443 48.996 49.801 49.268 49.563 49.891 50.276 50.571 50.648 50.946 51.208 51.608 52.401 53.903 53.126 53.231 53.641 54.016 54.306 54.718 55.216 55.643 56.026 56.383 56.248 56.258 56.226 56.216 56.253 56.468 56.428 56.406 56.298 56.888 57.558 57.726 56.576 57.738 58.033 56.263 55.943 55.821 55.728 57.028 58.358 58.246 57.248 55.186 55.571 55.403 54.588 54.446 54.538 54.171 53.836 53.618 53.451 53.316 53.338 53.216 53.078 52.988 54.073 54.786 53.491 52.328 51.771 52.113 53.316 53.636 52.101 52.731 52.111 52.196 51.213 51.113 51.016 50.881 50.703 50.593 50.491 50.463 51.293 50.918 50.873 50.131 50.026 50.076 50.016 49.946 49.888 49.863 49.813 49.733 50.398 52.373 50.006 49.268 48.916 48.041 47.618 47.036 46.138 45.691 45.316 44.896 44.563 44.261 43.866 43.538 43.586 43.686 43.288 43.008 42.826 42.903 43.468 45.968 47.223 47.288 48.408 47.378 45.826 45.608 45.506 45.311 45.163 45.033 44.916 44.863 44.76 44.63 44.5 44.358 44.208 44.005 43.86 43.708 43.533 43.41 43.235 43.095 42.938 42.775 42.62 42.44 42.32
92.18 92.012 91.832 91.632 91.472 91.297 91.107 91.007 90.945 90.817 90.722 90.695 90.605 90.489 90.294 90.144 90.022 89.897 89.744 89.627 89.514 89.432 89.452 89.189 89.219 88.789 88.682 88.582 88.522 88.429 88.309 88.214 88.067 87.972 87.897 87.924 87.977 87.942 87.934 87.899 87.849 87.784 87.682 87.559 87.452 87.312 87.109 86.777 86.372 86.004 85.842 85.717 85.527 85.172 85.047 85.367 85.632 85.619 85.467 85.407 85.389 85.374 84.942 84.094 83.614 83.422 83.262 83.087 83.024 83.184 82.752 82.599 82.402 82.219 82.092 81.987 81.807 81.647 81.522 81.402 81.362 81.357 81.387 81.347 81.274 81.152 81.019 80.997 80.944 80.899 80.884 80.869 80.872 80.869 80.862 80.862 80.887 80.887 80.879 80.867 80.767 80.847 80.427 80.139 79.652 79.047 78.402 77.677 77.064 76.577 76.087 75.782 75.802 75.664 75.507 75.404 75.304 75.194 75.072 74.929 74.797 74.629 74.482 74.337 74.239 74.054 73.982 73.867 73.722 73.602 73.469 73.299 73.207 73.042 72.959 72.809 72.672 72.514 72.334 72.164 72.049 71.934 71.802 71.624 71.452 71.324 71.179 71.047 70.942 70.847 70.779 70.729 70.662 70.587 70.534 70.519 70.509 70.497 70.519 70.507 70.512 70.489 70.449 70.401 70.321 70.196 70.046 69.929 69.809 69.674 69.504 69.356 69.214 69.044 68.899 68.741 68.569 68.399 68.159 67.976 67.749 67.526 67.279 67.094 66.856 66.649 66.434 66.224 66.011 65.766 65.521 65.239 65.056 64.841 64.624 64.399 64.231 64.099 63.916 63.986 64.819 65.466 66.019 66.269 66.274 66.239 66.176 66.106 66.234 66.206 66.166 65.569 64.754 63.654 62.466 61.889 61.849 61.309 60.869 60.126 59.206 58.629 58.029 57.884 57.754 57.681 57.549 57.284 56.959 56.659 56.391 56.089 55.739 55.336 55.104 54.694 54.416 54.156 53.886 53.691 53.509 53.321 53.144 52.909 52.726 52.254 51.724 51.406 51.159 50.509 49.906 49.519 49.209 48.964 48.796 48.594 48.371 48.134 47.834 47.376 46.694 46.111 46.061 46.068 45.981 46.003 46.031 45.521 45.136 44.618 44.588 44.058 46.436 43.433 43.451 44.173 44.701 45.768 46.678 47.468 47.498 47.748 47.973 48.386 48.686 48.928 49.226 49.513 49.866 50.103 50.611 50.511 50.778 51.031 51.451 52.188 53.881 52.646 53.063 53.468 53.821 54.076 54.441 55.046 55.443 55.836 56.063 56.048 56.078 56.111 56.201 56.288 56.516 56.388 56.383 56.256 56.363 56.263 56.146 56.098 56.603 56.858 55.883 56.653 57.463 56.568 55.853 58.026 57.736 57.198 55.373 54.786 54.668 54.496 54.281 54.188 54.253 53.721 53.388 53.143 52.838 52.836 53.183 53.116 52.888 53.246 54.753 52.918 52.798 52.153 52.208 52.363 52.091 53.336 56.106 52.198 51.263 51.198 51.053 51.361 52.736 51.068 51.106 50.528 50.391 50.331 50.303 50.721 51.268 50.146 51.011 50.731 49.938 49.868 49.851 49.753 49.811 51.966 51.496 49.238 49.131 49.398 47.971 46.613 46.256 45.416 45.018 44.811 44.316 43.636 43.313 43.036 42.883 42.796 42.658 42.376 42.246 42.183 42.423 42.961 43.526 44.088 45.791 48.606 47.203 45.673 45.516 45.383 45.196 45.023 44.923 44.813 44.711 44.628 44.505 44.37 44.235 44.085 43.913 43.768 43.623 43.468 43.298 43.175 43.02 42.858 42.725 42.545 42.39 42.265
92.165 92.002 91.807 91.612 91.452 91.302 91.237 91.102 90.995 90.915 90.867 90.782 90.57 90.442 90.344 90.172 90.062 89.932 89.759 89.649 89.527 89.409 89.217 89.084 88.957 88.812 88.687 88.604 88.532 88.434 88.339 88.214 88.079 87.972 87.934 87.997 88.009 87.977 87.982 87.934 87.892 87.777 87.682 87.542 87.449 87.292 87.077 86.777 86.392 86.014 85.824 85.664 85.464 85.284 85.104 84.877 84.969 85.507 85.469 85.334 85.224 85.234 85.227 84.912 84.159 83.512 83.249 83.029 83.194 83.324 82.704 82.542 82.387 82.197 82.029 81.862 81.704 81.497 81.349 81.184 81.107 81.067 81.109 81.104 81.054 80.972 80.929 80.922 80.847 80.807 80.784 80.769 80.784 80.742 80.687 80.612 80.574 80.584 80.509 80.399 80.297 80.217 79.884 79.614 79.219 78.657 78.062 77.339 76.699 76.234 75.827 75.574 75.582 75.439 75.319 75.232 75.127 75.017 74.889 74.742 74.632 74.472 74.329 74.182 74.082 73.967 73.834 73.712 73.574 73.487 73.314 73.137 72.997 72.882 72.742 72.622 72.464 72.304 72.109 71.982 71.844 71.722 71.539 71.387 71.217 71.124 71.024 70.864 70.749 70.637 70.567 70.517 70.459 70.424 70.407 70.399 70.397 70.409 70.379 70.327 70.337 70.337 70.292 70.246 70.171 70.024 69.894 69.744 69.611 69.449 69.301 69.139 69.004 68.839 68.669 68.531 68.396 68.209 68.046 67.814 67.624 67.451 67.266 67.059 66.841 66.639 66.439 66.241 66.009 65.764 65.546 65.279 65.081 64.871 64.621 64.434 64.296 64.174 64.034 64.529 65.349 65.776 66.166 66.271 66.289 66.301 66.226 66.194 66.241 66.206 66.011 65.074 64.266 62.934 61.936 61.624 61.399 61.216 60.374 59.569 58.904 58.234 57.924 57.844 57.736 57.699 57.456 57.179 56.894 56.674 56.376 56.054 55.766 55.396 55.579 54.741 54.401 54.101 53.839 53.659 53.436 53.166 52.994 52.776 52.509 52.136 51.754 51.116 50.836 50.471 49.999 49.661 49.214 48.981 48.736 48.539 48.334 48.096 47.829 47.516 46.784 46.121 45.639 45.673 46.596 47.571 48.403 45.541 46.251 44.818 44.146 46.556 49.106 45.381 42.993 44.163 44.748 45.723 46.586 46.918 47.233 47.491 47.811 48.196 48.506 48.803 49.098 49.406 49.706 49.968 50.106 50.333 50.623 50.901 51.318 51.951 52.211 52.126 52.326 52.453 52.766 53.106 53.691 54.163 54.423 54.778 55.363 55.658 55.851 56.093 56.113 56.183 56.516 56.253 56.216 56.173 56.131 56.076 56.043 56.353 56.478 56.538 55.816 57.546 57.191 57.313 55.728 56.368 58.556 58.816 55.733 54.881 54.526 54.243 54.071 54.056 54.888 53.976 54.123 54.241 53.161 52.808 52.801 52.978 52.878 52.661 54.373 53.158 52.428 52.341 51.953 52.151 51.766 51.508 51.946 51.291 52.256 52.611 51.328 53.296 53.623 51.928 51.473 50.586 50.346 50.256 50.183 51.101 52.121 50.428 51.331 50.528 49.878 49.833 49.833 49.846 49.933 51.591 51.273 50.833 49.638 51.586 47.506 46.011 45.288 44.823 45.038 44.211 43.703 43.071 42.496 42.248 42.236 42.036 41.718 41.843 41.696 41.411 41.876 42.556 43.116 43.581 44.303 46.938 45.891 45.558 45.373 45.246 45.086 44.926 44.798 44.681 44.578 44.495 44.378 44.233 44.095 43.953 43.805 43.65 43.49 43.358 43.195 43.055 42.93 42.783 42.618 42.478 42.348 42.218
92.117 91.97 91.777 91.625 91.5 91.422 91.297 91.185 91.135 91.06 90.915 90.707 90.517 90.402 90.379 90.167 90.049 89.967 89.734 89.644 89.539 89.382 89.267 89.142 89.024 88.902 88.774 88.707 88.584 88.479 88.397 88.262 88.137 88.057 88.037 88.057 88.039 88.017 88.004 87.922 87.847 87.759 87.657 87.552 87.412 87.239 87.024 86.762 86.409 86.137 85.944 85.777 86.272 85.659 85.522 85.147 85.182 85.384 85.462 85.377 85.227 85.169 85.119 85.094 84.897 84.239 83.437 83.019 82.947 82.832 82.749 82.489 82.494 82.144 82.022 82.012 81.927 81.747 81.509 81.244 81.044 80.942 80.912 80.837 80.782 80.689 80.609 80.544 80.432 80.347 80.317 80.304 80.237 80.157 80.082 80.007 79.964 79.979 79.927 79.844 79.747 79.722 79.272 79.057 78.757 78.274 77.609 76.904 76.269 75.877 75.509 75.434 75.364 75.254 75.149 75.079 74.979 74.889 74.737 74.604 74.462 74.309 74.144 73.999 73.889 73.802 73.704 73.512 73.407 73.339 73.159 72.979 72.829 72.689 72.539 72.412 72.237 72.074 71.894 71.767 71.667 71.504 71.324 71.182 71.032 70.927 70.784 70.632 70.537 70.462 70.387 70.377 70.279 70.212 70.184 70.204 70.209 70.224 70.187 70.164 70.142 70.142 70.127 70.079 69.969 69.836 69.684 69.544 69.411 69.249 69.081 68.946 68.829 68.669 68.536 68.374 68.249 68.089 67.884 67.714 67.486 67.361 67.186 67.009 66.804 66.596 66.426 66.211 66.006 65.756 65.559 65.359 65.114 64.904 64.669 64.476 64.344 64.184 64.206 65.034 65.534 66.046 66.299 66.314 66.296 66.276 66.146 66.264 66.219 66.174 65.621 64.656 63.524 62.311 61.711 61.471 61.344 60.866 59.931 59.276 58.609 58.036 57.854 57.779 57.696 57.656 57.486 57.141 56.891 56.644 56.536 56.156 55.764 55.604 56.026 55.144 54.424 54.116 53.804 53.559 53.299 53.059 52.879 52.654 52.341 51.986 51.656 51.031 50.596 50.321 49.916 49.826 49.354 48.991 48.779 48.494 48.339 48.006 47.749 47.409 47.339 46.194 45.664 45.753 45.678 46.961 46.908 45.191 44.848 44.481 45.143 47.436 43.881 48.673 46.086 43.918 44.583 45.693 46.646 46.838 47.101 47.436 47.828 48.068 48.343 48.621 48.893 49.158 49.476 49.748 49.923 50.026 50.266 50.333 50.381 50.563 50.626 50.903 51.131 51.461 51.921 52.278 52.908 53.691 53.831 54.471 54.963 55.486 55.821 56.026 56.006 56.008 56.278 56.131 56.091 56.443 56.293 56.758 56.453 59.093 57.743 58.073 57.576 56.791 56.756 59.171 56.053 55.683 56.088 57.043 54.958 54.723 54.991 54.548 54.188 55.653 55.226 54.986 53.801 55.348 55.071 53.286 53.043 52.806 52.683 52.603 53.666 53.198 52.186 51.901 51.871 51.711 52.101 51.576 51.313 51.721 53.636 51.266 52.001 52.788 53.288 51.073 50.443 50.353 50.283 50.471 50.186 50.148 50.146 50.858 49.981 49.908 49.888 49.836 49.816 49.823 49.836 51.901 52.571 50.801 51.738 48.328 48.753 45.491 44.688 44.058 43.836 43.611 42.991 42.478 41.988 41.616 41.293 41.143 40.901 40.778 40.746 40.993 41.348 42.098 42.958 43.463 45.096 47.861 47.053 45.481 45.281 45.116 44.963 44.821 44.711 44.591 44.456 44.363 44.24 44.12 43.973 43.785 43.65 43.52 43.383 43.275 43.118 42.98 42.85 42.73 42.565 42.405 42.283 42.158
92.095 91.967 91.837 91.722 91.61 91.49 91.405 91.337 91.225 91.025 90.835 90.645 90.502 90.409 90.299 90.144 89.989 89.862 89.744 89.712 89.609 89.519 89.404 89.324 89.214 89.077 88.994 88.849 88.724 88.634 88.507 88.367 88.277 88.159 88.134 88.127 88.114 88.049 87.974 87.889 87.767 87.674 87.584 87.464 87.314 87.089 86.889 86.682 86.482 86.282 86.094 85.987 85.854 85.812 85.739 85.264 85.007 85.102 85.219 85.374 85.262 85.152 85.052 84.964 84.947 84.817 84.179 83.254 82.937 82.767 82.522 82.372 82.329 82.047 82.077 82.142 82.139 82.127 81.874 81.514 81.184 80.874 80.744 80.552 80.479 80.339 80.224 80.074 79.944 79.824 79.767 79.729 79.622 79.482 79.387 79.342 79.367 79.329 79.282 79.234 79.154 79.222 78.769 78.552 78.324 77.912 77.249 76.492 75.894 75.562 75.314 75.297 75.227 75.134 75.014 74.952 74.842 74.734 74.597 74.467 74.349 74.179 74.019 73.849 73.749 73.639 73.532 73.379 73.242 73.149 72.992 72.819 72.687 72.517 72.347 72.204 72.079 71.874 71.687 71.567 71.482 71.329 71.154 70.982 70.884 70.732 70.552 70.477 70.369 70.297 70.209 70.174 70.099 70.062 70.064 70.039 70.032 70.044 70.009 69.949 69.944 69.964 69.957 69.864 69.741 69.584 69.444 69.304 69.189 69.046 68.889 68.744 68.641 68.504 68.366 68.219 68.091 67.964 67.799 67.621 67.434 67.286 67.119 66.971 66.754 66.564 66.341 66.149 65.976 65.764 65.564 65.371 65.159 64.929 64.689 64.536 64.396 64.149 64.516 65.361 65.736 66.226 66.269 66.334 66.274 66.259 66.149 66.289 66.274 65.989 65.139 64.119 62.839 61.839 61.576 61.446 61.124 60.339 59.441 58.896 58.404 57.876 57.834 57.691 57.671 57.561 57.349 57.084 58.776 56.851 56.399 56.129 55.864 58.444 61.311 55.814 54.454 54.109 53.779 53.469 53.216 52.969 52.674 52.434 52.196 51.836 51.449 50.909 50.436 50.821 49.776 49.434 49.901 49.059 48.694 48.516 48.159 47.939 47.709 47.309 47.191 46.336 45.789 45.218 44.868 44.968 44.931 44.611 44.396 44.593 46.921 47.346 46.048 44.956 43.566 43.876 44.588 45.561 46.408 46.676 46.943 47.253 47.581 47.898 48.181 48.498 48.773 48.891 48.956 49.031 48.856 48.731 48.893 48.933 49.051 49.281 49.928 49.943 50.438 50.853 51.371 51.886 52.471 53.141 53.696 54.198 54.638 54.973 55.421 55.898 55.911 55.886 56.221 56.021 56.036 56.128 56.388 56.131 57.361 56.523 55.813 58.578 58.203 56.036 58.581 55.866 55.703 55.383 56.086 55.663 54.666 54.893 56.311 54.346 54.478 56.858 53.653 54.701 53.383 54.743 54.281 53.408 53.881 52.848 52.686 52.351 52.236 52.338 52.221 52.013 51.798 51.921 51.538 51.431 52.136 52.883 53.403 52.066 52.853 52.208 50.713 50.468 50.361 50.298 50.261 50.241 50.133 50.013 50.633 51.376 51.996 51.138 50.043 50.041 50.503 50.273 49.788 50.563 49.126 48.483 47.151 46.708 52.281 46.036 45.391 43.393 43.343 42.816 42.136 41.638 41.386 41.008 40.703 40.363 40.388 40.401 40.616 40.593 41.096 41.956 42.771 43.536 44.428 47.881 47.193 45.311 45.161 45.011 44.881 44.721 44.568 44.453 44.396 44.295 44.15 44.028 43.875 43.678 43.548 43.373 43.27 43.165 43.028 42.905 42.755 42.605 42.498 42.368 42.215 42.103
92.165 92.06 91.935 91.797 91.692 91.627 91.535 91.38 91.157 90.977 90.795 90.67 90.532 90.399 90.287 90.187 90.074 89.972 89.932 89.872 89.807 89.729 89.642 89.547 89.457 89.332 89.312 89.362 89.352 88.957 88.847 88.689 88.512 88.427 88.324 88.262 88.179 88.077 87.962 88.139 87.724 87.617 87.484 87.312 87.159 86.989 86.854 86.709 86.569 86.394 86.202 86.124 85.964 85.879 85.564 85.924 85.354 85.242 84.939 85.892 85.244 85.092 84.997 84.909 84.789 84.742 84.567 84.082 83.442 82.717 82.532 82.359 82.124 81.967 81.932 82.202 82.362 82.214 81.927 81.502 81.057 80.817 80.642 80.484 80.317 80.209 80.049 80.254 79.762 79.574 79.347 79.179 79.132 79.032 78.937 78.912 78.819 78.747 78.694 78.647 78.589 78.464 78.229 78.062 77.909 77.624 76.892 76.189 75.717 75.472 75.164 75.167 75.122 75.012 74.904 74.817 74.694 74.582 74.454 74.317 74.197 74.027 73.867 73.752 73.634 73.477 73.379 73.222 73.062 72.967 72.827 72.679 72.539 72.337 72.147 71.972 71.824 71.664 71.509 71.364 71.254 71.127 70.962 70.824 70.702 70.602 70.459 70.364 70.269 70.182 70.097 70.017 69.944 69.934 69.897 69.887 69.897 69.832 69.787 69.757 69.727 69.742 69.714 69.601 69.489 69.349 69.219 69.091 68.999 68.859 68.709 68.559 68.434 68.311 68.176 68.031 67.901 67.799 67.669 67.499 67.324 67.199 67.056 66.901 66.711 66.551 66.309 66.099 65.929 65.736 65.521 65.389 65.181 64.951 64.739 64.601 64.401 64.206 64.906 65.641 66.036 66.294 66.331 66.304 66.266 66.181 66.264 66.234 66.179 65.631 64.671 63.459 62.221 61.791 61.559 61.574 60.656 59.804 59.016 58.754 58.264 57.786 57.719 57.616 57.544 57.396 57.181 57.151 62.471 57.719 58.746 56.209 55.906 56.171 57.214 55.156 54.546 54.156 53.779 53.439 53.316 52.891 52.556 52.316 52.061 51.721 51.331 50.779 50.136 49.819 49.514 49.276 49.146 48.901 48.679 48.356 48.014 47.889 47.684 47.371 46.951 46.499 46.026 45.523 45.078 44.753 44.273 44.073 43.828 43.628 43.441 43.038 42.476 43.436 42.581 43.488 43.863 45.643 46.691 46.826 46.763 47.076 47.391 47.763 47.976 47.868 48.103 47.461 47.421 47.541 47.628 47.976 48.043 48.263 48.743 49.101 49.771 49.963 50.441 50.898 51.441 51.723 52.241 52.726 53.218 53.771 54.298 54.698 55.446 55.736 55.783 55.676 56.008 55.923 55.911 55.841 55.833 55.701 56.358 59.101 58.633 56.191 56.451 55.353 56.561 55.341 55.233 55.148 55.621 55.503 56.518 55.193 54.211 54.061 54.711 54.196 53.726 53.461 53.326 53.203 52.971 55.638 55.578 52.613 52.746 52.346 52.248 52.153 51.906 52.201 52.418 52.746 52.838 53.848 51.576 51.078 52.471 52.508 51.083 51.081 50.503 50.393 50.326 50.248 50.566 50.436 50.108 50.103 50.071 49.913 51.256 50.153 50.038 49.881 49.978 50.041 50.056 49.411 48.846 48.121 46.656 45.843 45.163 44.306 43.741 42.786 42.563 41.951 41.671 41.361 40.731 40.846 40.141 39.733 39.988 40.406 40.308 40.378 40.931 41.683 42.721 43.773 44.213 46.826 46.063 45.181 45.058 44.906 44.771 44.631 44.468 44.368 44.288 44.18 44.053 43.923 43.823 43.638 43.508 43.308 43.215 43.085 42.993 42.858 42.67 42.56 42.45 42.278 42.143 42.038
92.207 92.085 91.99 91.9 91.827 91.67 91.485 91.312 91.157 90.982 90.822 90.69 90.6 90.459 90.407 90.337 90.274 90.269 90.212 90.177 90.117 90.124 90.012 89.919 89.834 89.787 89.732 89.627 89.522 89.419 89.504 89.104 89.022 88.892 88.777 88.654 88.512 88.397 88.267 88.117 88.032 87.829 87.597 87.379 87.162 87.042 86.944 86.797 86.634 86.467 86.299 86.174 86.054 85.807 86.244 86.352 86.369 86.319 86.052 85.449 85.187 85.064 84.962 84.934 84.792 84.732 84.652 84.764 84.769 83.399 83.054 83.144 83.477 84.064 82.414 83.199 82.692 82.447 82.254 81.619 81.209 80.762 80.609 80.632 80.294 79.997 79.987 80.754 79.554 79.417 79.142 78.959 78.834 78.727 78.679 78.589 78.524 78.452 78.382 78.304 78.262 78.117 77.884 77.699 77.574 77.242 76.734 75.899 75.594 75.357 75.074 75.084 75.019 74.917 74.879 74.682 74.554 74.389 74.249 74.134 74.004 73.852 73.702 73.559 73.412 73.279 73.132 73.042 72.899 72.784 72.644 72.512 72.342 72.172 71.967 71.764 71.619 71.467 71.339 71.212 71.087 70.959 70.799 70.694 70.569 70.427 70.342 70.232 70.157 70.039 69.957 69.857 69.829 69.797 69.742 69.702 69.694 69.629 69.539 69.482 69.499 69.499 69.474 69.354 69.236 69.136 69.004 68.889 68.811 68.639 68.491 68.346 68.251 68.131 68.011 67.876 67.759 67.664 67.526 67.404 67.251 67.106 66.974 66.806 66.616 66.431 66.254 66.094 65.939 65.739 65.539 65.401 65.181 64.956 64.831 64.664 64.374 64.399 65.201 65.836 66.254 66.286 66.294 66.251 66.211 66.226 66.274 66.241 65.949 65.186 64.146 62.901 62.339 61.671 61.594 61.006 60.814 59.684 58.779 58.269 57.819 57.741 57.589 57.534 57.421 57.364 57.161 56.961 57.316 58.521 59.489 56.356 55.879 55.606 55.311 55.021 54.666 54.501 54.679 53.416 53.376 52.729 52.464 52.184 51.916 51.529 51.124 50.456 50.009 49.651 49.351 49.194 49.041 48.919 48.406 48.336 48.056 47.946 47.686 47.451 47.079 46.649 46.181 45.746 45.386 44.971 44.438 43.946 43.458 43.268 43.353 42.648 42.288 42.293 42.916 43.951 44.311 45.823 47.216 46.308 46.626 46.971 46.873 46.806 46.803 46.528 46.508 46.526 46.818 47.108 47.243 47.691 48.008 48.376 48.871 49.328 49.656 50.256 50.608 50.893 51.183 51.506 51.981 52.393 52.788 53.221 53.403 53.766 54.881 55.628 55.628 55.678 56.261 55.823 55.808 55.738 56.018 55.701 55.893 58.918 57.036 57.826 58.231 55.796 55.358 55.893 54.858 54.693 54.618 55.528 57.091 54.951 55.891 55.898 56.536 55.418 54.471 53.703 53.358 53.426 53.886 55.431 55.376 53.626 53.966 52.736 52.098 52.128 51.928 51.816 51.696 52.928 52.246 51.973 51.938 51.038 51.651 51.553 50.713 50.601 50.496 50.633 50.326 50.476 52.756 52.871 50.633 51.843 50.743 51.298 49.863 49.801 49.963 49.778 49.666 49.638 49.553 49.308 48.086 49.261 47.736 49.666 44.933 43.928 43.216 42.648 42.171 41.898 42.023 43.823 43.106 40.953 39.751 39.506 39.961 40.276 40.293 40.636 40.596 41.758 44.838 48.038 45.373 48.763 45.296 45.058 44.961 44.796 44.671 44.543 44.413 44.276 44.213 44.103 43.965 43.825 43.68 43.588 43.438 43.32 43.153 43.055 42.92 42.785 42.645 42.495 42.37 42.255 42.108 41.985
92.252 92.212 92.127 91.977 91.805 91.63 91.462 91.347 91.182 91.015 90.895 90.82 90.782 90.702 90.689 90.679 90.669 90.659 90.597 90.557 90.557 90.559 90.449 90.364 90.332 90.362 90.174 90.089 89.977 89.884 89.747 89.599 89.512 89.369 89.287 89.142 89.032 88.927 88.802 88.619 88.539 88.347 88.049 87.792 87.474 87.167 87.037 86.902 86.737 86.552 86.397 86.252 86.149 86.024 86.249 85.897 86.159 85.689 85.784 85.454 85.424 85.242 85.049 84.959 84.859 84.744 84.642 84.529 84.517 84.264 83.917 83.832 83.879 85.074 83.597 83.494 82.889 82.652 82.912 84.249 81.837 84.017 82.069 81.519 80.424 80.064 80.177 79.897 79.544 79.404 79.142 78.932 78.912 78.787 78.572 78.457 78.339 78.282 78.204 78.154 77.999 77.819 77.792 77.467 77.339 77.104 76.722 75.964 75.269 75.167 75.119 75.107 75.014 74.907 74.752 74.609 74.464 74.324 74.172 74.029 73.897 73.734 73.587 73.432 73.249 73.097 72.972 72.824 72.709 72.589 72.469 72.299 72.144 71.977 71.784 71.617 71.414 71.294 71.187 71.072 70.932 70.752 70.649 70.532 70.434 70.299 70.197 70.114 70.032 69.879 69.822 69.709 69.657 69.659 69.612 69.539 69.489 69.417 69.344 69.272 69.279 69.264 69.209 69.084 68.964 68.876 68.754 68.664 68.591 68.456 68.261 68.119 68.069 67.951 67.826 67.726 67.604 67.514 67.379 67.261 67.106 66.991 66.876 66.746 66.556 66.369 66.194 66.091 65.924 65.716 65.541 65.384 65.149 64.994 64.891 64.699 64.624 65.244 65.741 66.186 66.281 66.336 66.279 66.266 66.166 66.289 66.241 66.129 65.546 64.656 63.511 62.596 62.389 61.684 61.306 60.609 59.826 59.269 58.676 58.139 57.676 57.591 57.501 57.374 57.284 57.369 57.196 56.956 56.674 56.699 56.666 56.246 55.906 55.641 55.379 55.249 54.881 54.764 54.734 53.409 52.986 52.614 52.354 52.046 51.736 51.361 50.784 50.209 49.891 49.556 49.311 49.041 48.999 48.871 48.616 48.531 52.261 50.369 48.379 47.476 47.204 46.839 46.366 45.941 45.408 45.068 44.628 44.091 43.673 42.676 42.748 42.471 42.221 42.351 43.638 44.438 45.386 45.783 45.833 46.096 46.131 45.986 45.988 46.021 46.323 46.271 46.338 46.566 46.816 47.196 47.506 47.813 48.141 48.416 48.816 49.613 49.476 49.818 50.076 50.508 51.053 51.303 51.548 51.876 52.211 52.618 52.978 53.596 54.978 55.571 55.498 55.491 55.778 56.043 55.688 56.028 56.826 55.888 56.486 56.728 55.393 55.516 55.241 55.051 55.978 55.713 54.683 54.406 54.436 54.338 54.331 55.256 55.893 54.446 54.411 54.898 54.338 54.501 53.333 54.766 55.558 53.461 53.968 55.191 54.236 52.436 52.096 51.936 51.971 52.288 52.146 51.456 51.291 51.171 51.046 50.986 51.306 51.178 50.673 50.951 52.073 50.838 50.233 51.571 54.176 52.331 52.406 51.851 52.178 50.873 49.841 49.716 50.418 50.688 49.628 49.686 49.078 47.778 47.363 47.768 48.338 48.738 44.746 44.048 43.531 42.531 41.986 41.908 41.693 41.683 41.038 40.288 39.373 39.261 39.383 39.648 40.671 41.788 41.323 43.836 44.051 43.673 44.553 45.178 45.111 44.958 44.828 44.691 44.568 44.473 44.328 44.253 44.176 44.058 43.925 43.778 43.62 43.48 43.355 43.223 43.118 43.018 42.875 42.728 42.6 42.465 42.333 42.21 42.085 41.943
92.382 92.262 92.097 91.947 91.795 91.695 91.537 91.4 91.275 91.172 91.15 91.092 91.105 91.067 91.034 91.032 91.077 91.074 91.022 91.014 91.047 90.977 90.942 90.887 90.834 90.749 90.714 90.634 90.502 90.347 90.282 90.184 90.059 89.964 89.872 89.749 89.622 89.479 89.359 89.199 89.059 88.774 88.489 88.327 87.929 87.624 87.334 87.069 86.872 86.674 86.489 86.327 86.204 86.132 86.042 85.897 85.832 85.682 85.589 85.494 85.472 85.402 85.152 84.957 84.959 84.712 84.592 84.474 84.354 84.282 84.202 84.054 83.869 83.732 83.542 83.274 82.997 82.842 82.692 82.409 82.129 82.477 82.164 81.382 81.394 80.607 81.954 81.087 80.034 79.687 79.424 79.152 79.574 79.419 78.632 78.457 78.264 78.132 78.047 77.907 77.757 77.577 77.327 77.149 77.057 76.922 76.769 76.377 75.797 75.272 75.139 74.972 74.934 74.689 74.347 74.137 74.132 74.024 73.914 73.797 73.717 73.664 73.524 73.382 73.129 72.987 72.902 72.757 72.612 72.459 72.284 72.167 71.969 71.789 71.639 71.467 71.274 71.144 71.022 70.914 70.744 70.582 70.477 70.394 70.269 70.124 70.004 69.904 69.824 69.757 69.682 69.584 69.519 69.487 69.439 69.342 69.257 69.202 69.099 69.044 69.022 68.959 68.887 68.786 68.671 68.569 68.511 68.399 68.344 68.199 68.051 67.939 67.809 67.719 67.616 67.536 67.444 67.361 67.246 67.146 67.006 66.844 66.726 66.596 66.476 66.311 66.136 66.034 65.861 65.694 65.516 65.314 65.141 65.031 64.939 64.976 65.401 66.094 66.136 66.319 66.279 66.309 66.281 66.214 66.211 66.269 66.284 65.904 65.051 64.019 62.786 62.064 61.719 61.589 61.186 60.194 59.476 59.199 59.571 58.224 57.599 57.514 57.879 57.276 57.236 58.476 57.551 56.806 56.611 56.431 56.424 56.401 56.061 55.726 55.476 55.131 54.774 54.511 53.914 53.456 53.009 52.621 52.279 51.961 51.629 51.226 50.654 50.066 49.659 49.431 49.394 49.256 48.954 48.909 48.861 48.601 52.746 54.359 52.201 48.201 47.334 46.954 46.471 45.898 45.293 45.248 45.353 47.753 44.931 45.973 42.173 42.186 42.301 42.958 44.643 45.383 45.458 45.556 45.578 45.611 45.656 45.756 45.968 45.728 45.918 46.171 46.476 46.963 47.243 47.458 47.646 47.831 48.583 48.351 48.661 49.078 49.401 49.848 50.218 50.583 50.996 51.088 51.243 51.583 51.751 52.003 52.078 53.281 54.843 55.523 55.448 55.411 55.636 55.763 55.701 56.653 55.863 56.476 55.291 55.218 55.241 55.893 58.658 55.358 57.398 54.838 54.436 54.283 54.256 54.171 54.188 56.406 56.251 54.106 54.051 53.806 56.526 54.906 53.936 55.718 55.413 53.236 53.473 53.541 52.483 52.248 52.406 52.096 51.618 53.296 52.838 51.853 51.253 51.086 50.928 51.056 50.923 50.696 50.738 51.493 52.908 52.076 50.143 51.141 51.461 50.871 50.013 49.876 49.733 50.681 49.843 50.978 49.676 49.806 49.426 49.301 49.068 47.586 46.761 46.213 45.656 44.733 43.946 43.378 43.101 42.858 42.091 41.258 40.891 40.591 40.221 39.616 39.006 38.918 39.036 39.436 40.391 40.958 42.643 42.296 42.598 44.361 45.386 45.256 44.971 44.831 44.718 44.593 44.466 44.358 44.253 44.196 44.088 43.96 43.828 43.683 43.545 43.418 43.298 43.16 43.048 42.893 42.805 42.65 42.53 42.408 42.298 42.155 42.06 41.923
92.37 92.245 92.12 91.952 91.852 91.76 91.657 91.572 91.51 91.495 91.507 91.555 91.447 91.427 91.394 91.404 91.409 91.397 91.392 91.377 91.387 91.367 91.319 91.324 91.322 91.247 91.192 91.129 91.134 90.952 90.864 90.767 90.712 90.559 90.479 90.332 90.247 90.077 89.977 89.759 89.559 89.294 89.002 88.749 88.684 88.452 87.909 87.502 87.142 86.792 86.602 86.407 86.257 86.139 86.047 85.942 85.884 85.772 85.679 85.547 85.464 85.364 85.202 85.107 84.932 84.739 84.677 84.509 84.324 84.217 84.162 84.099 83.967 83.647 83.404 83.257 83.074 82.889 82.627 82.422 82.202 81.919 81.704 81.439 81.254 80.917 80.594 80.322 80.069 79.817 79.544 79.299 79.057 78.829 78.624 78.437 78.249 78.037 77.842 77.614 77.452 77.259 77.097 76.922 76.747 76.527 76.349 76.014 75.684 75.387 75.294 75.214 74.954 75.392 76.979 76.409 75.652 76.407 75.189 73.647 73.627 75.129 73.937 73.014 73.089 72.567 72.234 72.199 72.192 72.094 71.974 71.924 71.884 71.732 71.539 71.439 71.272 71.069 70.937 70.774 70.632 70.479 70.344 70.257 70.149 69.987 69.839 69.752 69.687 69.607 69.564 69.462 69.382 69.299 69.232 69.169 69.067 68.994 68.917 68.889 68.829 68.769 68.674 68.539 68.419 68.319 68.291 68.224 68.139 68.021 67.861 67.746 67.631 67.516 67.389 67.326 67.291 67.151 67.061 66.966 66.859 66.769 66.634 66.491 66.331 66.234 66.094 65.939 65.794 65.636 65.491 65.249 65.116 65.054 64.991 65.224 65.856 66.431 66.339 67.664 66.359 66.321 66.269 66.174 66.246 66.259 66.114 65.346 64.656 63.431 62.241 62.256 61.989 61.514 61.866 59.739 59.304 59.011 58.381 59.161 58.094 57.409 57.674 57.176 56.986 57.704 58.251 56.579 56.439 56.366 56.196 56.029 55.821 55.599 55.381 55.204 54.764 54.384 53.989 53.661 53.056 52.624 52.284 51.916 51.634 51.236 50.569 49.941 49.644 49.366 49.136 49.024 48.881 48.974 49.009 48.809 48.534 49.371 47.891 47.529 47.349 46.981 46.446 45.803 45.246 44.848 45.518 44.028 42.793 41.998 42.043 42.653 43.241 44.443 44.983 45.128 45.208 45.386 45.653 45.618 45.781 45.991 45.648 45.036 45.313 45.731 46.083 46.806 46.976 47.076 47.376 47.673 48.011 48.246 48.656 49.043 49.408 49.766 50.156 50.531 50.788 50.783 50.906 51.083 51.286 51.356 52.023 53.406 54.853 55.513 55.398 55.271 55.928 55.866 55.476 55.616 57.173 59.048 55.153 55.058 57.123 56.943 57.153 54.768 55.308 54.533 54.366 54.243 54.196 54.098 53.996 54.256 55.476 54.346 54.311 53.281 53.363 54.178 53.838 53.573 54.196 52.988 52.553 52.353 52.506 54.146 53.966 52.918 51.836 53.071 54.048 52.486 52.713 51.986 50.891 51.481 52.061 51.443 50.533 51.003 50.538 50.928 51.151 50.106 52.526 52.481 51.723 50.581 50.156 49.581 50.401 51.853 49.753 49.443 49.206 49.313 49.648 48.013 46.723 45.533 44.776 44.076 43.346 42.893 42.806 42.128 41.386 41.626 41.578 41.321 40.148 39.351 38.861 38.681 38.761 39.183 40.123 41.448 41.376 41.871 44.053 45.661 46.323 45.053 44.876 44.741 44.618 44.478 44.358 44.243 44.131 44.078 43.976 43.833 43.728 43.613 43.468 43.318 43.223 43.068 42.928 42.81 42.728 42.6 42.495 42.35 42.245 42.09 41.995 41.888
92.43 92.297 92.175 92.092 92.022 91.972 91.91 91.87 91.845 91.85 91.83 91.785 91.88 91.762 91.749 91.787 91.779 91.737 91.747 91.737 91.727 91.814 91.707 91.724 91.739 91.694 91.649 91.597 91.619 91.494 91.392 91.652 91.497 91.157 91.062 90.919 90.814 90.642 90.739 90.342 90.167 89.987 89.489 89.197 88.854 88.474 88.477 87.764 87.804 87.074 86.777 86.529 86.347 86.232 86.137 86.022 85.904 85.799 85.679 85.534 85.457 85.332 85.207 85.087 84.952 84.814 84.839 84.699 84.324 84.192 84.089 83.999 83.959 83.824 83.609 83.309 83.144 82.924 82.684 82.419 82.204 81.949 81.734 81.432 81.144 80.909 80.649 80.317 80.069 79.857 79.599 79.362 79.074 78.837 78.622 78.454 78.272 78.059 77.849 77.612 77.419 77.214 77.062 76.749 76.519 76.304 76.062 75.817 75.439 75.099 74.884 74.627 74.339 74.292 74.697 73.702 73.852 74.337 73.804 73.272 73.417 74.407 73.874 73.282 74.479 72.939 72.699 73.897 72.064 71.757 71.622 71.519 71.504 71.932 71.279 70.879 70.772 70.672 70.632 70.604 70.437 70.347 70.212 70.122 70.052 69.912 69.784 69.692 69.599 69.534 69.447 69.419 69.304 69.184 69.057 68.987 68.912 68.847 68.757 68.704 68.664 68.602 68.479 68.334 68.234 68.151 68.084 68.036 67.934 67.806 67.686 67.549 67.434 67.336 67.211 67.154 67.084 66.979 66.886 66.814 66.746 66.681 66.531 66.389 66.189 66.074 65.974 65.821 65.676 65.504 65.349 65.184 65.129 65.104 65.144 65.491 65.926 66.149 66.296 66.346 66.374 66.321 66.206 66.236 66.294 66.289 65.851 64.806 64.369 63.266 62.894 62.726 61.509 61.214 60.764 59.541 59.346 58.909 58.236 58.701 57.424 57.276 57.229 57.041 58.446 59.396 58.519 56.464 56.314 56.286 56.089 55.874 55.789 55.566 55.486 55.176 54.786 54.399 53.989 53.611 53.141 52.696 52.336 51.931 51.556 51.071 50.424 49.901 49.541 49.301 49.239 48.944 48.846 48.896 49.026 48.761 48.544 48.209 47.766 47.424 47.184 47.046 46.441 45.788 45.203 44.788 44.293 43.771 42.131 41.791 42.116 43.391 45.116 44.601 44.768 45.081 45.211 45.351 45.338 45.653 45.793 45.733 45.098 44.551 44.731 44.868 45.091 45.773 46.341 46.343 46.321 47.003 47.558 47.986 48.511 49.028 49.301 49.623 49.991 50.398 50.561 50.606 50.616 50.681 50.743 50.953 51.973 53.301 54.941 55.491 55.393 55.111 55.241 55.421 57.438 58.126 56.878 56.651 54.963 54.921 55.083 55.958 56.998 57.028 54.601 54.378 54.281 54.196 54.053 53.941 53.823 53.778 55.226 54.878 53.278 53.128 53.033 53.506 53.373 53.986 55.266 54.391 52.418 52.268 52.473 54.561 54.818 52.286 53.691 52.453 51.471 51.173 52.288 52.758 51.376 51.766 52.701 52.416 50.516 50.268 50.701 51.266 50.216 50.716 50.721 51.753 51.031 49.663 49.668 49.431 49.391 50.238 49.391 51.538 48.981 49.031 49.136 48.238 47.968 46.273 45.183 44.543 43.711 42.716 42.086 42.061 41.226 41.713 42.343 40.538 40.036 39.276 39.273 38.658 38.698 39.196 40.126 40.553 40.938 41.948 43.171 46.541 48.491 44.923 44.748 44.626 44.506 44.378 44.248 44.163 44.038 43.961 43.858 43.74 43.62 43.49 43.333 43.213 43.08 42.955 42.873 42.735 42.608 42.52 42.443 42.308 42.203 42.073 41.97 41.848
92.48 92.427 92.367 92.33 92.295 92.26 92.25 92.215 92.202 92.202 92.177 92.185 92.165 92.132 92.107 92.142 92.119 92.107 92.082 92.079 92.442 92.029 92.034 91.997 91.989 91.934 91.909 91.849 91.804 91.727 91.659 91.599 91.529 91.502 91.429 91.319 91.229 91.087 90.947 90.887 90.934 90.582 90.157 89.702 89.257 88.837 88.507 88.134 87.854 87.499 87.212 86.769 86.547 86.382 86.272 86.157 86.054 85.962 85.839 85.704 85.572 85.417 85.304 85.217 85.092 84.897 84.887 84.852 84.769 84.402 84.112 83.999 83.909 83.877 83.857 83.487 83.212 82.967 82.754 82.499 82.279 82.034 81.802 81.419 81.132 80.917 80.639 80.302 80.062 79.809 79.552 79.327 79.057 78.804 78.577 78.372 78.157 77.972 77.794 77.579 77.384 77.172 76.937 76.702 76.419 76.187 75.924 75.647 75.362 75.094 74.869 74.587 74.374 74.072 73.864 73.637 73.427 73.232 73.037 72.769 72.669 72.487 72.334 72.322 72.492 72.014 72.209 72.242 71.682 71.489 71.442 71.184 71.452 72.447 71.304 71.184 71.024 71.187 70.827 70.324 70.389 70.162 70.239 70.379 69.714 69.689 69.539 69.557 69.424 69.419 69.307 69.314 69.189 69.082 68.937 68.842 68.787 68.727 68.644 68.554 68.507 68.434 68.322 68.194 68.071 67.966 67.909 67.844 67.724 67.629 67.516 67.374 67.296 67.211 67.099 66.984 66.876 66.806 66.721 66.649 66.606 66.531 66.399 66.234 66.066 65.944 65.834 65.731 65.591 65.431 65.284 65.156 65.124 65.104 65.054 65.509 65.994 66.236 66.331 66.359 66.296 66.271 66.219 66.346 66.286 66.269 65.526 64.446 63.481 62.536 62.036 61.584 61.331 60.826 59.884 59.239 59.111 58.344 57.776 57.549 57.346 57.264 58.264 56.964 56.826 57.451 58.286 57.169 56.204 56.041 55.934 55.816 55.716 55.689 55.251 55.026 54.756 54.499 54.131 53.674 53.236 52.801 52.411 52.021 51.579 51.029 50.436 49.921 49.506 49.209 48.994 48.764 48.726 48.876 48.896 48.711 48.401 48.344 47.761 47.489 47.201 46.856 46.379 45.808 45.236 44.733 43.943 43.393 42.566 41.863 42.141 43.508 44.148 44.501 44.648 44.811 44.923 45.078 45.156 45.463 45.278 44.498 44.173 43.991 44.188 44.538 44.786 45.113 45.283 45.453 45.726 46.046 46.686 47.151 47.986 49.023 49.148 49.426 49.871 50.213 50.211 50.386 50.358 50.396 50.476 50.776 51.788 53.486 54.906 55.356 55.328 54.986 55.068 55.273 57.673 57.798 55.103 54.898 54.801 54.781 54.838 57.461 58.796 56.126 54.381 54.226 54.123 54.061 53.908 53.783 53.681 53.563 53.553 53.798 53.136 53.286 53.673 56.771 55.176 54.353 54.153 53.476 52.276 52.143 51.998 53.571 54.106 52.721 54.163 51.878 51.096 51.128 53.408 51.898 50.961 51.026 51.508 50.806 50.386 50.588 52.798 53.286 49.963 50.808 53.556 50.883 49.853 49.411 50.346 49.361 49.376 49.168 49.603 49.256 48.791 48.871 48.801 48.078 48.638 47.743 46.251 44.951 45.113 44.078 43.373 41.611 41.851 41.458 41.036 40.526 40.523 40.858 38.783 38.748 38.916 40.156 40.551 40.273 41.141 42.311 43.623 44.651 46.258 44.786 44.643 44.523 44.408 44.248 44.138 43.998 43.943 43.858 43.743 43.63 43.503 43.385 43.263 43.123 42.998 42.92 42.82 42.653 42.538 42.445 42.35 42.205 42.125 42.01 41.883 41.8
92.695 92.697 92.65 92.62 92.57 92.53 92.517 92.572 92.527 92.517 92.48 92.495 92.452 92.359 92.332 92.309 92.277 92.244 92.199 92.177 92.137 92.109 92.084 92.042 92.029 91.974 91.949 91.902 91.867 91.794 91.754 91.677 91.629 91.602 91.517 91.427 91.369 91.292 91.164 91.074 91.072 90.832 90.619 90.089 89.662 89.287 89.227 88.479 88.194 87.772 87.862 87.837 86.822 86.602 86.424 86.279 86.189 86.119 86.099 85.887 85.732 85.564 85.444 85.317 85.204 85.037 85.009 84.887 84.859 84.922 84.462 84.057 83.862 83.824 83.837 83.772 83.577 83.122 82.884 82.622 82.397 82.122 81.849 81.549 81.262 80.987 80.694 80.379 80.117 79.829 79.579 79.319 79.072 78.799 78.577 78.374 78.152 77.939 77.772 77.577 77.354 77.134 76.922 76.652 76.399 76.117 75.832 75.517 75.209 74.982 74.682 74.424 74.182 73.942 73.694 73.444 73.232 73.004 72.827 72.684 72.497 72.362 72.249 72.124 71.997 71.842 71.734 71.622 71.442 71.239 71.144 70.992 70.824 70.674 70.524 70.422 70.282 70.309 70.282 69.947 69.912 69.747 69.914 69.852 69.687 69.672 70.672 71.669 70.062 69.627 70.329 69.029 68.862 68.919 68.687 68.579 68.627 68.582 68.534 68.502 68.389 68.297 68.172 68.054 67.916 67.819 67.719 67.674 67.614 67.494 67.346 67.241 67.166 67.089 66.969 66.824 66.716 66.664 66.569 66.476 66.411 66.319 66.236 66.114 65.946 65.811 65.659 65.531 65.404 65.279 65.176 65.144 65.096 64.911 65.256 65.811 66.006 66.294 66.311 66.359 66.286 66.244 66.244 66.329 66.296 65.971 64.879 63.901 62.509 61.779 61.584 61.571 61.096 60.219 59.604 59.209 58.701 58.006 57.591 57.446 57.291 57.241 57.076 56.831 56.854 56.696 56.614 56.231 56.214 55.951 55.996 55.766 55.659 55.421 55.554 55.021 54.719 54.501 54.109 53.741 53.349 52.914 52.551 52.139 51.786 51.096 50.536 49.991 49.591 49.201 48.966 48.809 48.716 48.641 48.619 48.604 48.399 48.316 47.771 47.354 47.124 46.821 46.319 45.838 45.316 44.788 43.841 43.643 41.766 41.801 42.083 43.463 43.881 44.306 44.391 44.548 44.666 44.706 44.898 44.948 44.073 43.786 43.578 43.571 43.708 44.176 44.573 44.738 44.778 45.083 45.366 45.993 46.303 46.776 47.448 48.376 48.888 49.236 49.681 50.261 49.956 50.141 50.188 50.263 50.308 51.376 52.088 53.466 54.601 55.038 55.158 54.913 54.938 55.128 55.311 55.346 54.866 54.788 54.626 54.771 54.663 54.886 58.751 55.756 54.166 54.516 54.128 53.886 53.758 53.626 53.526 53.386 54.603 55.663 53.258 53.508 53.058 53.646 54.671 56.538 53.258 52.916 52.158 52.566 53.098 51.983 52.508 52.711 53.288 52.641 51.256 52.023 53.161 51.423 50.513 50.953 52.298 50.638 54.658 51.673 52.836 51.993 52.453 51.636 52.328 52.641 52.841 50.913 50.456 49.286 49.703 48.908 49.878 49.688 48.616 48.746 49.308 49.291 47.778 47.378 46.248 45.011 44.011 42.861 42.023 41.458 41.898 41.173 40.711 41.146 40.311 39.118 38.583 38.871 38.778 39.608 40.963 40.838 41.393 42.448 43.761 45.028 44.913 44.641 44.503 44.381 44.236 44.123 43.986 43.873 43.823 43.723 43.583 43.49 43.4 43.255 43.123 43.02 42.898 42.778 42.675 42.548 42.408 42.323 42.205 42.103 41.995 41.913 41.813 41.688
92.912 92.895 92.827 92.815 92.767 92.745 92.695 92.645 92.597 92.58 92.522 92.477 92.455 92.402 92.357 92.334 92.257 92.219 92.204 92.157 92.134 92.122 92.107 92.092 92.047 92.032 92.012 91.979 91.934 91.874 91.839 91.779 91.709 91.672 91.587 91.497 91.427 91.337 91.249 91.194 91.072 90.979 90.774 90.607 90.102 89.704 89.299 88.897 88.502 88.097 87.687 87.397 87.054 86.797 86.599 86.454 86.364 86.307 86.362 86.127 85.974 85.747 85.594 85.462 85.349 85.242 85.107 85.017 84.939 84.944 84.954 84.634 84.009 83.797 83.734 83.712 83.699 83.552 83.074 82.829 82.559 82.339 82.019 81.689 81.357 81.019 80.732 80.412 80.139 79.854 79.577 79.339 79.107 78.872 78.624 78.417 78.127 77.934 77.767 77.524 77.372 77.154 76.919 76.697 76.429 76.102 75.802 75.517 75.187 74.912 74.642 74.404 74.114 73.869 73.582 73.374 73.164 72.944 72.759 72.572 72.434 72.262 72.117 71.979 71.837 71.684 71.544 71.432 71.257 71.144 70.982 70.827 70.699 70.569 70.429 70.257 70.107 70.004 69.857 69.689 69.577 69.404 69.237 69.119 69.012 68.959 68.944 69.072 68.834 68.807 69.069 69.137 69.072 69.874 70.937 69.567 68.327 68.029 67.932 68.167 68.264 67.909 67.897 67.869 67.751 67.686 67.561 67.499 67.406 67.321 67.231 67.111 67.029 66.941 66.814 66.704 66.571 66.491 66.404 66.334 66.266 66.189 66.101 65.959 65.801 65.674 65.509 65.371 65.244 65.154 65.104 65.091 65.114 65.174 65.514 66.291 66.209 66.326 66.359 66.371 66.286 66.209 66.324 66.234 66.096 65.244 64.366 63.179 61.979 61.524 61.479 61.371 60.644 59.896 59.646 59.114 58.249 57.651 57.466 57.576 57.291 57.011 56.889 56.661 56.651 56.526 56.931 56.114 56.101 55.941 55.734 55.644 55.541 55.406 55.226 55.049 54.761 54.459 54.149 53.786 53.464 53.099 52.729 52.279 51.966 51.134 50.926 50.689 49.624 49.216 48.936 48.819 48.764 48.616 48.606 48.514 48.379 48.209 47.784 47.366 46.976 46.594 46.236 45.848 45.438 44.911 45.806 46.986 42.433 41.691 41.981 43.118 43.621 43.953 44.166 44.298 44.458 44.461 44.401 43.951 43.246 43.286 43.118 42.961 43.153 43.356 43.808 44.171 44.653 44.816 46.641 46.231 45.781 46.373 47.033 48.043 48.901 48.991 49.203 49.526 49.611 49.883 49.893 50.176 50.133 51.043 51.956 53.188 53.916 54.831 55.151 54.898 54.791 55.153 54.868 54.793 54.688 54.618 54.516 54.611 54.471 54.551 54.441 55.498 54.118 55.183 54.601 53.706 53.643 53.451 53.368 53.226 53.558 55.056 54.226 53.678 55.281 54.623 54.631 54.613 52.583 55.286 53.056 53.436 55.281 53.091 51.806 52.966 52.553 51.693 51.468 51.293 52.678 51.163 50.371 50.508 52.001 50.928 50.591 51.828 50.913 52.848 53.438 52.006 51.206 49.543 49.718 49.151 49.511 49.256 49.363 49.186 50.011 48.971 48.276 48.561 48.773 47.708 47.598 47.336 46.196 45.198 45.001 42.963 42.011 41.401 40.993 40.813 40.138 40.816 39.963 38.871 39.286 38.763 39.833 40.826 39.883 41.168 41.743 42.438 43.803 46.546 44.683 44.511 44.391 44.258 44.116 43.993 43.871 43.758 43.711 43.601 43.466 43.33 43.233 43.13 43.008 42.865 42.778 42.653 42.538 42.435 42.26 42.135 42.018 41.963 41.858 41.76 41.69 41.603
92.942 92.93 92.87 92.82 92.78 92.73 92.71 92.655 92.607 92.565 92.525 92.49 92.455 92.454 92.419 92.412 92.359 92.314 92.269 92.249 92.224 92.187 92.172 92.159 92.127 92.082 92.049 92.017 91.982 91.929 91.912 91.869 91.814 91.747 91.667 91.579 91.517 91.464 91.354 91.239 91.119 91.012 90.899 90.737 90.524 90.057 89.692 89.292 88.829 88.399 87.959 87.724 87.594 87.032 86.762 86.584 86.519 86.447 86.569 86.369 86.272 86.082 85.794 85.634 85.494 85.404 85.277 85.159 85.047 84.972 84.912 85.162 86.622 84.139 83.719 83.677 83.627 83.637 83.502 83.014 82.669 82.492 82.187 81.839 81.502 81.167 80.872 80.549 80.272 79.967 79.684 79.407 79.144 78.919 78.684 78.434 78.207 77.977 77.774 77.539 77.359 77.167 76.894 76.672 76.379 76.082 75.784 75.494 75.154 74.914 74.644 74.362 74.092 73.854 73.574 73.374 73.132 72.937 72.719 72.517 72.364 72.172 72.014 71.879 71.722 71.564 71.467 71.329 71.159 71.019 70.872 70.752 70.604 70.449 70.322 70.182 70.032 69.862 69.714 69.567 69.414 69.284 69.142 68.979 68.829 68.742 68.624 68.434 68.314 68.217 68.104 68.129 68.129 67.964 68.832 68.692 69.049 68.019 68.292 69.409 70.042 69.282 67.464 67.289 67.294 67.246 67.181 67.156 67.026 66.991 67.056 66.911 66.826 66.769 66.664 66.564 66.449 66.364 66.256 66.184 66.114 66.069 65.966 65.849 65.694 65.551 65.369 65.221 65.076 65.036 64.996 64.974 64.926 65.444 65.984 66.226 66.286 66.416 66.369 66.329 66.229 66.284 66.319 66.271 65.909 64.754 63.781 62.419 61.731 61.446 61.394 60.936 60.126 59.379 59.196 58.606 57.854 57.506 57.356 57.189 57.026 56.859 56.676 56.704 56.589 56.294 56.091 55.991 55.924 55.756 55.644 55.511 55.386 55.469 55.241 54.901 54.681 54.446 54.246 53.904 53.594 53.286 52.836 52.511 52.211 51.259 51.119 50.331 49.604 49.081 48.821 48.666 48.961 48.606 48.489 48.434 48.324 48.141 47.789 47.394 47.064 46.551 46.146 45.801 45.428 44.941 45.646 44.271 43.143 41.783 41.806 42.778 43.236 43.578 43.901 44.021 44.143 44.576 43.673 42.833 42.553 42.621 42.506 42.628 42.811 42.868 43.183 43.621 43.843 44.191 44.506 44.988 45.231 45.636 46.383 47.306 48.153 48.681 49.063 49.263 49.586 49.536 49.616 49.891 49.641 50.416 51.858 53.021 53.881 54.483 55.036 54.826 54.616 55.348 54.708 54.673 54.578 54.461 54.323 54.288 54.178 54.158 54.681 54.626 54.263 53.726 53.653 53.553 53.451 53.293 53.243 53.106 53.141 54.441 53.556 54.406 52.898 53.063 54.998 53.541 52.906 53.241 53.308 54.551 53.956 53.373 51.996 52.086 51.041 50.888 50.748 50.711 50.678 50.381 50.266 50.168 50.128 50.771 52.701 50.773 50.593 51.051 51.878 51.148 51.276 49.153 48.991 48.983 49.231 48.613 48.501 48.438 48.413 48.121 47.981 48.938 48.678 47.456 47.343 47.181 46.378 45.386 44.651 43.161 42.071 41.351 40.648 40.178 39.981 39.778 39.336 38.968 38.636 38.291 39.166 39.596 40.021 40.843 41.673 42.578 43.761 45.658 44.498 44.351 44.236 44.106 43.971 43.843 43.736 43.633 43.586 43.486 43.336 43.205 43.085 42.975 42.843 42.703 42.59 42.51 42.39 42.27 42.085 41.995 41.895 41.813 41.723 41.605 41.49 41.423
92.975 92.957 92.885 92.857 92.852 92.79 92.73 92.722 92.685 92.655 92.607 92.572 92.545 92.554 92.539 92.507 92.424 92.404 92.349 92.302 92.254 92.234 92.207 92.184 92.149 92.114 92.062 92.047 91.999 91.932 91.899 91.869 91.819 91.769 91.714 91.664 91.624 91.569 91.472 91.364 91.247 91.069 90.899 90.794 90.614 90.414 90.347 89.982 89.204 88.754 88.352 87.949 87.574 87.227 86.944 86.702 86.654 86.772 86.527 86.427 86.379 86.309 86.034 85.837 85.697 85.559 85.437 85.349 85.222 85.092 84.984 85.277 86.357 85.319 84.087 83.659 83.579 83.554 83.569 83.422 82.884 82.547 82.297 82.019 81.634 81.299 80.959 80.667 80.327 80.042 79.762 79.487 79.217 78.972 78.717 78.492 78.242 78.064 77.817 77.569 77.372 77.159 76.912 76.657 76.369 76.092 75.782 75.482 75.199 74.889 74.617 74.309 74.052 73.794 73.564 73.332 73.084 72.899 72.682 72.484 72.259 72.114 71.944 71.789 71.637 71.489 71.399 71.232 71.102 70.967 70.802 70.664 70.539 70.404 70.274 70.109 69.957 69.809 69.637 69.469 69.334 69.179 69.022 68.844 68.719 68.569 68.439 68.299 68.154 68.017 67.867 67.757 67.629 67.549 67.419 67.492 67.267 67.239 67.172 67.224 67.742 67.314 67.004 66.849 68.101 68.416 67.036 66.744 67.189 69.404 67.541 66.381 66.406 66.241 66.236 66.191 66.156 66.154 66.151 66.074 66.056 65.949 65.846 65.716 65.556 65.434 65.254 65.106 64.974 64.906 64.901 64.834 64.944 65.696 66.124 66.284 66.311 66.389 66.371 66.326 66.216 66.326 66.304 66.136 65.361 64.384 63.066 61.886 61.596 61.374 61.321 60.454 59.691 59.379 58.964 58.191 57.559 57.331 57.191 57.066 56.889 56.736 56.531 56.356 56.211 56.076 55.971 55.854 55.841 55.756 55.544 55.464 55.301 55.144 55.006 54.836 54.621 54.396 54.174 53.931 53.666 53.446 53.076 52.784 52.569 51.266 50.746 50.184 49.656 48.959 48.604 48.449 48.339 48.431 50.776 57.084 50.179 47.861 47.679 47.281 46.861 46.574 46.059 45.718 45.363 44.901 46.566 45.578 42.983 41.976 41.671 42.453 42.843 43.251 43.513 43.653 44.571 43.673 42.756 42.246 42.163 42.356 42.286 42.448 42.473 42.606 42.868 43.033 43.436 43.753 43.938 44.463 44.853 45.218 45.823 46.736 47.658 48.583 49.236 49.046 49.263 49.391 49.503 49.578 49.438 50.288 51.436 52.816 53.466 54.291 54.711 54.748 54.486 54.628 54.556 54.518 54.446 54.328 54.191 54.056 54.298 53.948 53.876 53.758 53.701 53.648 54.608 53.956 53.431 53.241 55.251 53.918 52.811 52.708 52.513 52.426 52.468 52.321 52.266 55.358 53.213 52.626 52.976 52.953 51.978 51.413 51.681 51.526 50.911 50.768 50.791 50.591 50.411 50.238 50.131 50.018 49.983 50.163 51.998 50.521 51.861 50.058 49.658 51.816 49.286 49.021 48.986 50.526 50.196 48.501 48.248 48.316 48.081 48.036 47.663 47.843 47.851 47.181 47.106 47.478 46.656 45.481 44.758 43.583 42.166 41.341 40.983 41.093 40.083 40.763 39.603 38.966 38.348 38.278 38.791 39.346 40.156 40.813 41.671 42.778 45.991 45.403 44.321 44.178 44.038 43.918 43.791 43.676 43.556 43.466 43.398 43.323 43.181 43.075 42.933 42.81 42.703 42.598 42.463 42.368 42.263 42.103 41.965 41.878 41.818 41.79 41.73 41.59 41.438 41.295
93.005 92.995 92.927 92.902 92.895 92.872 92.825 92.767 92.722 92.69 92.622 92.575 92.577 92.559 92.552 92.507 92.472 92.409 92.359 92.314 92.252 92.212 92.202 92.162 92.132 92.107 92.072 92.034 91.987 91.957 91.899 91.879 91.824 91.789 91.724 91.674 91.634 91.587 91.524 91.487 91.412 91.269 91.072 90.822 90.632 90.537 91.002 90.494 89.554 89.137 88.639 88.332 87.769 87.434 87.154 86.892 86.824 86.799 86.699 86.572 86.469 86.364 86.229 86.057 85.889 85.757 85.627 85.509 85.404 85.264 85.164 85.052 84.964 84.977 84.862 84.059 83.579 83.519 83.469 83.514 83.349 82.787 82.444 82.157 81.817 81.449 81.094 80.764 80.442 80.149 79.832 79.559 79.264 78.989 78.744 78.542 78.309 78.087 77.874 77.629 77.412 77.192 76.932 76.694 76.409 76.127 75.799 75.457 75.174 74.904 74.607 74.312 74.022 73.757 73.522 73.322 73.072 72.877 72.637 72.429 72.234 72.052 71.889 71.712 71.574 71.409 71.294 71.139 70.984 70.872 70.707 70.587 70.414 70.262 70.177 70.032 69.877 69.729 69.577 69.434 69.262 69.129 68.959 68.814 68.644 68.497 68.344 68.202 68.049 67.892 67.719 67.607 67.467 67.312 67.172 67.122 66.974 66.894 66.884 66.757 66.682 66.577 66.544 66.411 66.674 66.979 66.214 66.179 65.981 67.116 65.956 65.976 67.659 66.701 65.946 66.016 65.936 65.844 65.711 65.559 65.491 65.551 65.339 65.249 65.244 65.204 65.096 64.996 64.891 64.831 64.836 64.644 65.244 65.949 66.231 66.351 66.369 66.426 66.354 66.244 66.314 66.336 66.309 65.779 64.759 63.664 62.309 61.641 61.454 61.269 60.736 59.996 59.624 59.389 58.704 57.826 57.514 57.261 57.139 56.941 56.784 56.576 56.409 56.519 56.069 55.944 55.786 56.136 56.486 55.634 55.584 55.861 55.219 55.039 54.886 54.686 54.544 54.409 54.166 53.961 53.719 53.589 53.176 52.954 52.264 51.339 50.716 50.159 49.534 48.949 48.471 48.199 48.154 48.184 51.344 53.876 49.111 47.491 47.286 47.051 46.706 46.441 45.949 45.581 45.223 45.991 46.818 44.456 43.158 42.408 42.991 42.441 42.488 42.908 43.201 43.303 43.426 43.123 42.271 42.068 41.973 42.076 42.111 42.173 42.356 42.493 42.611 42.636 43.011 43.346 43.673 44.093 44.326 44.736 45.416 46.223 47.216 47.701 48.318 48.691 48.993 49.106 49.341 49.263 49.138 49.888 51.183 52.541 53.248 54.316 54.488 54.548 54.298 54.483 54.461 54.366 54.278 54.133 54.003 54.103 57.158 53.991 53.663 53.608 53.508 53.521 55.896 55.681 54.361 53.168 55.418 53.976 52.676 52.488 52.376 52.406 54.298 52.358 52.136 52.556 52.113 54.198 54.218 52.503 51.423 51.268 51.318 51.318 50.773 51.671 51.238 50.716 50.301 50.078 49.983 49.863 49.776 49.681 50.026 50.271 49.756 49.953 49.913 49.548 48.968 49.568 51.276 48.806 50.233 48.068 48.773 47.878 47.616 47.398 47.421 47.848 51.116 50.656 46.863 46.646 47.021 45.906 44.858 43.938 42.621 41.531 41.041 40.858 39.998 40.011 39.488 38.931 38.563 38.516 38.658 39.531 40.051 40.818 41.673 42.983 44.298 44.233 44.138 43.998 43.856 43.728 43.578 43.506 43.371 43.331 43.248 43.156 43.016 42.893 42.778 42.655 42.535 42.433 42.31 42.203 42.078 41.99 41.855 41.753 41.74 41.775 41.773 41.635 41.41 41.275
93.03 92.99 92.942 92.915 92.855 92.832 92.807 92.762 92.725 92.672 92.617 92.582 92.55 92.542 92.534 92.504 92.467 92.392 92.367 92.307 92.244 92.219 92.197 92.152 92.127 92.109 92.069 92.022 92.009 91.957 91.894 91.857 91.832 91.787 91.742 91.699 91.652 91.599 91.594 91.534 91.472 91.399 91.244 91.024 90.772 90.594 90.459 90.507 90.042 89.374 89.037 88.367 87.994 87.824 87.359 87.087 86.952 86.912 86.902 86.752 86.677 86.549 86.449 86.277 86.087 85.934 85.809 85.702 85.569 85.449 85.334 85.219 85.072 84.977 84.939 84.777 84.117 83.552 83.442 83.412 83.419 83.269 82.779 82.317 81.992 81.682 81.294 80.942 80.589 80.274 79.972 79.674 79.387 79.112 78.842 78.629 78.352 78.152 77.927 77.717 77.457 77.229 76.964 76.729 76.414 76.107 75.809 75.469 75.142 74.854 74.562 74.267 73.994 73.742 73.464 73.262 73.019 72.812 72.624 72.409 72.224 72.019 71.847 71.689 71.527 71.387 71.204 71.074 70.924 70.782 70.632 70.474 70.332 70.197 70.084 69.952 69.802 69.634 69.507 69.347 69.177 69.002 68.852 68.712 68.557 68.399 68.267 68.089 67.982 67.802 67.644 67.492 67.342 67.212 67.079 66.944 66.822 66.722 66.632 66.559 66.417 66.274 66.234 66.119 65.986 65.916 65.911 65.801 65.666 65.461 65.469 65.441 65.411 65.439 65.294 65.259 65.284 65.321 65.461 65.329 65.406 65.484 65.514 65.509 65.436 65.129 64.836 64.826 64.734 64.666 64.686 64.766 65.574 66.071 66.364 66.336 66.399 66.419 66.354 66.261 66.416 66.389 66.176 65.244 64.246 63.031 61.834 61.531 61.466 61.124 60.384 59.734 59.561 59.056 58.276 57.864 57.419 57.204 57.069 56.934 56.689 56.484 56.224 56.496 55.991 55.861 55.841 57.626 57.824 56.124 56.706 58.409 55.076 54.901 54.769 54.566 54.449 54.291 54.096 53.936 53.741 53.516 53.251 53.021 52.274 51.366 50.731 50.136 49.551 48.946 48.454 48.874 48.024 47.934 47.914 47.856 47.551 47.316 47.066 46.756 46.394 46.176 45.786 45.413 45.403 46.871 44.331 43.746 43.278 42.976 41.731 41.526 42.221 42.481 42.818 42.986 43.126 43.203 42.151 41.863 41.808 41.806 41.878 41.921 42.078 42.326 42.391 42.468 43.006 43.278 43.698 43.993 44.111 44.316 45.048 45.738 46.631 47.273 47.803 47.686 47.861 48.461 49.196 49.016 48.973 49.751 51.086 52.386 53.136 53.543 54.206 54.496 54.168 54.253 54.313 54.228 54.161 53.991 53.866 54.903 55.848 54.101 53.576 53.416 53.386 53.518 55.088 55.981 53.616 53.611 53.461 52.661 52.511 52.361 52.268 52.516 54.998 52.381 52.781 53.966 52.136 54.468 54.833 52.708 52.321 51.533 53.011 51.231 51.293 53.516 51.241 50.493 50.143 49.926 49.763 49.703 51.341 51.343 51.183 52.211 51.151 50.283 49.438 48.793 49.128 49.341 49.431 48.536 48.676 50.131 48.918 48.031 47.891 47.036 47.031 47.448 48.026 46.948 46.401 46.336 46.283 45.581 44.928 44.046 42.593 41.358 40.821 40.363 40.291 39.628 39.188 38.683 38.591 38.128 38.561 39.391 40.083 40.821 41.898 43.756 44.243 44.023 43.923 43.803 43.658 43.533 43.436 43.306 43.226 43.151 43.043 42.916 42.803 42.718 42.588 42.468 42.363 42.213 42.14 42.013 41.908 41.82 41.743 41.68 41.638 41.683 41.66 41.493 41.363 41.215
