ncols 430
nrows 32
xllcorner    427036
yllcorner    540450
cellsize     2
NODATA_value -9999
86.432 87.119 87.247 86.427 86.047 87.179 93.519 94.094 94.177 93.989 94.182 92.494 89.094 86.964 87.537 87.952 90.462 93.689 95.939 96.524 96.422 96.034 95.641 93.721 91.586 88.929 88.023 87.729 87.673 87.701 87.969 88.039 87.986 88.257 88.109 88.105 88.048 88.009 88.014 88.069 88.054 88.034 88.032 87.794 87.774 87.872 87.734 89.828 94.233 95.217 96.117 96.265 95.516 94.514 92.25 88.166 87.838 88.389 88.665 88.672 88.693 89.551 88.576 87.604 87.498 87.315 87.16 86.953 86.67 86.5 85.953 85.143 84.83 84.757 84.663 84.638 84.582 84.618 84.65 86.61 93.569 96.65 97.446 98.276 98.51 97.91 97.202 96.443 95.397 93.438 89.147 85.403 84.783 84.915 84.827 84.835 84.81 85.609 85.404 86.553 84.864 84.879 84.565 84.4 84.389 84.448 84.553 84.769 84.009 83.535 82.688 82.144 81.785 81.75 82.043 81.593 81.535 81.188 81.048 80.927 80.838 80.66 80.499 81.63 82.708 82.444 81.685 79.96 79.498 79.26 78.84 78.597 78.36 78.171 77.978 77.711 77.541 77.307 77.023 76.695 76.708 76.448 76.202 76.011 75.842 75.605 75.291 75.043 74.838 74.704 74.471 74.148 73.727 74.246 78.646 80.757 83.141 83.176 83.576 85.066 85.768 86.821 85.969 85.481 85.526 81.102 82.647 82.83 81.855 82.824 83.319 83.942 82.957 81.007 67.309 68.991 69.541 67.086 70.371 74.056 75.083 75.016 79.138 78.887 82.103 76.966 79.992 80.133 84.101 92.355 89.461 85.333 82.761 91.297 86.328 92.408 85.593 91.31 91.108 91.851 88.271 87.986 88.586 90.335 90.896 91.193 91.188 87.908 84.828 81.563 77.363 80.866 80.497 84.391 82.429 81.608 94.873 95.811 90.566 93.881 92.711 83.191 82.781 69.856 71.411 79.606 81.274 87.929 87.986 91.223 91.248 91.238 89.787 88.231 88.143 88.386 88.371 80.944 89.125 88.566 81.728 85.805 84.893 78.08 87.22 87.275 85.973 86.478 85.109 85.486 85.156 83.248 81.081 81.678 79.126 78.78 77.067 76.241 73.444 71.622 70.832 68.706 64.456 62.281 62.317 62.184 62.683 49.698 45.216 45.156 45.041 44.856 44.684 44.578 44.489 44.417 44.346 44.297 44.241 44.156 44.093 44.047 43.941 43.868 43.771 43.691 43.604 43.483 43.359 43.303 43.223 43.136 43.039 42.981 42.958 42.862 42.826 42.726 42.613 42.598 42.494 42.443 42.388 42.288 42.216 42.156 42.028 41.965 41.893 41.868 41.823 41.783 41.788 41.748 41.694 41.635 41.576 41.528 41.48 41.441 41.388 41.313 41.241 41.241 41.181 41.088 41.101 41.089 41.067 41.046 41.01 41.001 40.969 40.937 40.921 40.831 40.798 40.823 40.826 40.791 40.772 40.704 40.678 40.656 40.681 40.638 40.612 40.609 40.621 40.546 40.493 40.454 40.473 40.428 40.454 40.463 40.446 40.416 40.485 40.504 40.51 40.457 40.425 40.383 40.392 40.296 40.293 40.306 40.303 40.252 40.307 40.325 40.365 40.411 40.426 40.435 40.44 40.443 40.474 40.447 40.498 40.498 40.536 40.542 40.546 40.623 40.625 40.63 40.651 40.634 40.671 40.673 40.641 40.657 40.675 40.653 40.673 40.65 40.671 40.71 40.746 40.767 40.697 40.723 40.786 40.716 40.726 40.696 40.721 40.759 40.753 40.763 40.678 40.707 40.686 40.668 40.691 40.674 40.658 40.656 40.602 41.404 41.896 40.728 42.692 41.266 40.068 39.921 39.851 39.694
87.849 87.274 87.137 86.509 87.187 92.239 93.852 93.952 94.672 94.869 94.762 94.139 92.437 88.127 87.237 87.764 87.979 90.059 95.089 96.059 96.462 96.482 96.225 95.782 97.05 94.628 91.618 90.078 89.292 88.461 88.673 88.827 88.135 89.231 89.581 88.655 87.947 87.942 87.917 87.909 87.904 88.047 88.069 87.834 87.737 87.769 87.707 87.76 93.029 94.926 95.92 96.512 95.765 94.798 93.099 88.837 89.477 91.185 91.863 93.229 93.437 93.993 93.109 87.659 87.47 87.38 87.007 86.74 86.566 86.278 86.154 85.795 85.022 84.747 84.715 84.666 84.622 84.65 84.627 92.804 96.565 97.33 98.258 98.917 99.273 98.538 97.858 97.125 95.979 93.849 91.528 85.478 84.9 84.877 84.828 84.794 84.755 84.828 86.863 88.215 84.858 84.792 84.484 84.408 84.376 84.38 84.703 84.628 83.96 83.018 82.315 81.868 81.805 81.783 81.715 81.705 81.748 81.196 81.03 80.925 80.73 80.62 81.038 82.748 82.665 82.519 80.438 79.653 79.46 79.23 78.875 78.59 78.286 78.111 78.023 77.733 77.391 77.301 77.041 76.731 76.391 76.348 76.189 75.956 75.707 75.518 75.337 75.101 74.881 74.636 74.423 74.126 73.749 73.594 76.853 80.553 82.418 82.862 82.027 84.47 84.829 85.921 85.345 84.873 82.848 82.261 73.2 84.001 77.175 77.707 81.43 84.251 83.178 71.671 70.781 72.981 70.128 75.723 74.333 75.021 71.131 75.978 75.961 72.16 78.774 81.795 78.715 81.343 80.328 86.103 88.743 88.211 91.316 91.216 92.747 85.239 94.833 93.018 91.981 91.806 91.131 89.661 89.905 92.212 92.309 92.908 92.703 89.963 85.588 86.431 79.236 75.437 76.296 75.988 85.286 92.301 93.855 95.326 95.018 93.518 94.016 92.483 90.918 84.861 79.46 76.87 90.171 92.077 92.725 93.421 92.518 91.466 88.378 87.091 79.195 86.713 82.409 84.683 81.076 88.028 87.056 84.748 85.378 84.163 87.073 86.229 86.385 84.979 84.893 85.239 84.803 82.556 80.266 80.12 79.038 77.881 74.956 73.066 71.465 71.746 69.869 63.039 67.22 62.946 60.733 55.851 58.05 54.758 46.046 45.101 44.991 44.801 44.651 44.501 44.408 44.331 44.241 44.208 44.186 44.111 43.984 43.931 43.863 43.807 43.716 43.598 43.531 43.441 43.321 43.23 43.154 43.073 42.991 42.927 42.901 42.816 42.74 42.693 42.593 42.531 42.496 42.411 42.316 42.248 42.216 42.096 41.979 41.923 41.868 41.841 41.783 41.749 41.757 41.683 41.65 41.588 41.546 41.491 41.458 41.411 41.368 41.306 41.246 41.173 41.14 41.078 41.068 41.056 41.046 40.958 40.953 40.936 40.928 40.854 40.843 40.796 40.779 40.793 40.75 40.738 40.724 40.689 40.668 40.639 40.603 40.61 40.618 40.555 40.611 40.562 40.47 40.427 40.412 40.37 40.405 40.421 40.406 40.411 40.455 40.481 40.428 40.436 40.422 40.39 40.324 40.323 40.306 40.286 40.312 40.279 40.3 40.279 40.342 40.344 40.448 40.443 40.438 40.436 40.483 40.495 40.498 40.498 40.523 40.516 40.521 40.541 40.6 40.612 40.616 40.648 40.636 40.641 40.633 40.663 40.665 40.673 40.658 40.666 40.697 40.695 40.767 40.778 40.694 40.796 40.728 40.716 40.712 40.721 40.773 40.773 40.719 40.759 40.756 40.731 40.706 40.691 40.713 40.655 40.629 40.601 40.56 40.813 41.289 40.581 42.305 41.327 39.939 39.88 39.785 39.62
87.169 87.217 86.852 86.172 86.382 88.057 88.154 93.682 94.527 94.897 94.584 94.067 91.264 87.402 87.122 87.497 87.654 87.884 90.799 94.494 95.977 96.387 96.429 95.458 95.953 95.63 94.878 94.408 93.743 92.074 90.243 88.403 87.642 89.39 89.481 88.674 87.882 87.922 88.032 87.932 87.814 87.774 87.832 87.757 87.716 87.74 87.718 87.717 91.54 94.611 95.63 96.454 96.042 95.068 94.032 91.669 92.881 94.054 94.348 94.599 94.85 94.747 93.845 89.913 87.613 87.346 86.92 86.638 86.437 86.227 86.048 85.892 85.52 85.03 84.827 84.722 84.679 84.682 85.268 92.619 96.46 97.041 97.782 98.503 98.858 98.137 97.608 97.081 95.692 94.583 93.285 89.47 84.838 84.95 84.815 84.77 84.751 84.768 84.803 84.839 84.965 84.698 84.438 84.354 84.348 84.385 84.955 84.14 83.58 82.64 81.955 82.16 81.796 81.753 81.678 81.867 81.383 81.185 81.054 80.96 80.783 80.581 82.238 82.653 82.523 82.452 79.707 79.605 79.463 79.085 78.793 78.555 78.248 78.023 77.911 77.863 77.556 77.191 77.049 76.773 76.576 76.241 76.041 75.906 75.738 75.477 75.229 75.051 74.925 74.418 74.151 73.998 73.741 73.422 75.961 80.092 81.684 84.138 80.353 82.381 82.268 83.572 81.628 79.104 80.007 74.901 83.136 80.255 86.195 83.174 82.626 83.771 83.656 75.438 69.399 68.73 65.593 77.63 76.043 70.829 68.656 75.201 76.562 74.101 75.941 76.632 78.322 80.708 83.639 91.103 91.051 88.689 86.601 82.341 91.281 86.083 93.062 93.015 90.483 90.666 91.882 89.406 90.021 89.343 92.183 92.251 92.444 93.041 92.188 88.721 87.176 78.123 74.397 71.929 76.249 89.41 95.463 90.036 95.144 95.111 94.483 94.448 88.881 90.281 88.641 88.503 84.518 92.536 94.037 94.656 93.921 92.871 90.503 83.381 73.156 84.814 71.668 78.857 79.633 86.746 80.378 85.848 82.617 82.611 83.63 86.673 86.972 86.453 83.649 84.272 83.594 83.476 82.236 73.063 71.013 68.333 57.883 72.155 72.214 74.386 74.321 70.369 56.698 54.627 57.323 54.457 56.69 59.972 57.711 45.048 46.126 44.816 44.686 44.475 44.358 44.245 44.168 44.118 44.046 44.006 43.911 43.841 43.777 43.722 43.636 43.523 43.444 43.351 43.266 43.151 43.081 43.011 42.946 42.859 42.804 42.753 42.692 42.589 42.558 42.493 42.419 42.373 42.296 42.205 42.143 42.036 41.933 41.873 41.826 41.806 41.769 41.741 41.706 41.648 41.616 41.56 41.516 41.463 41.415 41.401 41.363 41.296 41.231 41.159 41.092 41.069 41.016 40.986 40.981 40.933 40.908 40.893 40.891 40.828 40.805 40.747 40.734 40.716 40.721 40.686 40.681 40.621 40.624 40.581 40.586 40.598 40.551 40.552 40.534 40.544 40.468 40.401 40.42 40.392 40.384 40.411 40.371 40.392 40.397 40.44 40.443 40.406 40.354 40.372 40.326 40.312 40.27 40.261 40.274 40.273 40.303 40.308 40.346 40.403 40.419 40.419 40.437 40.473 40.415 40.458 40.448 40.486 40.555 40.546 40.527 40.541 40.613 40.592 40.6 40.606 40.642 40.641 40.655 40.641 40.608 40.653 40.683 40.686 40.699 40.736 40.755 40.733 40.711 40.773 40.664 40.631 40.587 40.67 40.709 40.691 40.66 40.618 40.668 40.671 40.633 40.635 40.671 40.637 40.616 40.551 43.196 40.702 40.823 40.611 43.671 41.641 39.857 39.773 39.791 39.563
86.867 86.619 86.504 86.097 86.299 86.482 86.432 88.594 94.217 94.504 94.144 92.054 87.799 86.864 87.037 87.064 87.242 87.439 87.989 89.999 92.977 95.844 95.982 95.222 94.162 95.148 95.546 95.437 95.353 93.482 89.991 87.374 87.309 88.541 88.535 87.735 88.097 90.327 90.477 90.349 90.092 90.227 89.037 87.721 87.699 87.775 87.742 87.689 89.748 94.344 95.342 96.358 96.28 95.325 94.336 93.505 93.483 94.256 95.29 95.559 95.866 95.41 94.121 90.683 87.551 87.531 87.328 86.44 86.239 86.047 85.882 85.8 85.675 85.6 85.27 84.951 84.643 84.686 84.68 84.695 90.95 96.341 97.1 97.67 98.1 97.471 97.728 97.676 97.135 96.458 96.557 96.164 91.89 87.22 84.794 84.71 84.75 84.753 84.785 84.903 84.767 84.503 84.409 84.318 84.338 84.496 84.59 84.708 83.118 82.213 82.135 81.905 81.803 81.695 81.575 81.573 81.642 81.295 81.28 80.938 80.779 81.168 82.855 82.703 82.505 80.964 79.789 79.54 79.388 79.088 78.836 78.448 78.212 78.068 77.849 77.601 77.516 77.184 76.933 76.696 76.559 76.303 76.056 75.777 75.656 75.433 75.217 74.866 74.631 74.441 74.138 73.901 73.468 73.239 75.346 80.007 79.05 82.759 82.278 79.378 82.653 79.886 74.027 79.711 84.418 84.469 82.969 82.607 85.248 81.338 82.977 84.963 80.936 80.144 73.968 68.917 66.705 74.836 75.899 80.491 75.958 83.041 73.548 73.707 78.124 75.418 78.098 82.544 88.918 87.606 90.458 89.386 92.509 86.956 89.171 85.441 91.449 89.608 92.356 92.243 91.08 89.733 91.213 89.615 89.69 89.193 87.051 92.877 90.323 87.583 88.763 86.761 83.906 83.473 80.06 79.653 90.823 94.547 95.405 94.901 94.319 92.596 91.543 89.506 90.461 91.984 85.033 92.936 93.958 94.12 93.778 93.008 85.623 81.216 69.741 70.381 67.868 74.393 80.083 80.289 74.066 86.116 76.594 75.559 77.874 77.713 85.921 85.029 84.091 83.114 82.989 83.836 82.52 80.783 78.708 74.566 73.031 75.306 65.284 63.254 65.478 69.743 57.312 56.749 53.886 60.529 63.696 57.234 56.242 50.978 48.936 58.015 51.391 44.465 44.334 44.173 44.068 43.968 43.903 43.876 43.828 43.765 43.661 43.646 43.581 43.471 43.378 43.288 43.159 43.126 43.029 42.958 42.903 42.826 42.753 42.691 42.633 42.553 42.476 42.428 42.381 42.336 42.268 42.201 42.088 42.008 41.913 41.846 41.781 41.75 41.711 41.666 41.671 41.648 41.573 41.503 41.47 41.413 41.406 41.348 41.303 41.263 41.192 41.143 41.083 41.011 40.998 40.932 40.916 40.87 40.845 40.806 40.819 40.801 40.763 40.723 40.727 40.691 40.761 40.711 40.646 40.603 40.602 40.56 40.586 40.549 40.553 40.523 40.523 40.506 40.426 40.394 40.388 40.368 40.361 40.331 40.347 40.353 40.368 40.391 40.365 40.357 40.341 40.361 40.318 40.28 40.252 40.257 40.236 40.243 40.24 40.284 40.337 40.381 40.433 40.442 40.399 40.416 40.421 40.438 40.421 40.458 40.493 40.516 40.526 40.577 40.554 40.588 40.559 40.58 40.636 40.628 40.643 40.641 40.666 40.691 40.666 40.675 40.661 40.709 40.747 40.773 40.711 40.668 40.675 40.616 40.586 40.975 40.551 40.593 40.576 40.528 40.595 40.612 40.62 40.986 40.566 40.611 40.626 45.333 43.723 43.236 42.786 40.598 42.556 41.528 39.76 39.628 39.586 39.489
86.142 86.089 86.172 86.187 86.122 86.057 86.487 86.584 88.214 93.327 92.177 88.312 86.717 86.459 86.532 86.842 87.039 87.137 87.247 87.772 88.529 92.574 92.868 89.698 92.965 95.549 95.135 95.778 95.579 93.141 89.601 87.303 87.294 87.801 87.756 87.504 89.107 92.622 92.689 92.609 92.544 92.479 90.287 87.959 87.763 87.794 87.734 87.662 88.595 94.042 95.04 96.037 96.464 95.568 94.593 93.688 93.435 94.044 94.892 96.1 96.467 95.778 94.592 91.533 87.467 86.889 86.688 86.62 86.127 85.908 85.729 85.595 85.566 85.542 85.416 85.177 84.723 84.645 84.679 84.748 85.846 93.418 96.039 96.922 97.415 96.743 96.95 97.595 97.759 97.343 97.353 96.98 96.347 90.848 87.368 84.749 84.68 84.748 84.65 84.666 84.56 84.398 84.38 84.37 84.6 84.488 83.995 83.19 82.515 82.435 82 81.855 81.749 81.625 81.51 81.433 81.35 81.407 81.228 81.12 80.703 81.76 82.862 82.71 82.344 80.54 79.885 79.472 79.158 78.922 78.68 78.408 78.118 77.97 77.783 77.651 77.284 77.106 76.993 76.723 76.511 76.261 76.126 75.784 75.481 75.271 75.176 74.832 74.636 74.273 74.093 73.798 73.431 73.056 76.319 80.993 82.859 79.206 81.243 82.839 83.706 84.389 84.376 77.229 82.762 83.496 82.292 77.824 75.135 71.712 79.62 81.036 78.435 77.429 71.809 68.391 67.402 76.723 76.181 77.19 76.708 73.04 74.27 68.371 75.941 75.481 77.863 80.566 81.221 91.236 88.121 89.813 86.703 90.073 86.361 83.416 89.777 92.191 88.041 84.87 92.401 89.281 92.793 90.07 90.96 89.288 87.871 89.833 94.827 94.855 87.015 92.185 86.722 89.818 86.146 83.226 87.836 81.831 94.179 93.518 92.363 92.388 91.358 91.001 92.411 93.073 92.856 93.058 94.111 94.061 94.219 87.096 85.486 85.631 67.282 67.392 67.662 81.423 87.111 74.936 76.923 77.253 73.933 73.546 85.933 62.378 84.601 84.806 84.643 75.311 81.653 83.263 81.806 79.851 77.926 76.34 75.178 75.194 74.23 73.598 74.185 70.151 57.763 57.143 61.149 63.12 63.933 58.113 53.798 53.639 55.556 56.713 55.685 47.798 44.351 44.168 44.038 43.9 43.799 43.75 43.718 43.675 43.613 43.536 43.488 43.334 43.273 43.226 43.116 43.041 42.908 42.901 42.813 42.708 42.663 42.641 42.571 42.484 42.416 42.371 42.346 42.261 42.188 42.111 42.028 41.957 41.868 41.819 41.761 41.708 41.654 41.648 41.643 41.598 41.527 41.488 41.466 41.406 41.386 41.323 41.271 41.239 41.168 41.108 41.043 40.993 40.918 40.876 40.846 40.818 40.774 40.731 40.751 40.726 40.713 40.707 40.704 40.698 40.743 40.808 40.573 40.596 40.561 40.563 40.568 40.528 40.503 40.493 40.476 40.459 40.448 40.38 40.318 40.336 40.337 40.323 40.302 40.329 40.326 40.368 40.338 40.317 40.298 40.263 40.237 40.215 40.206 40.202 40.214 40.208 40.205 40.236 40.292 40.349 40.392 40.395 40.387 40.379 40.368 40.393 40.408 40.427 40.471 40.498 40.538 40.537 40.533 40.548 40.565 40.581 40.583 40.609 40.641 40.653 40.673 40.679 40.643 40.689 40.696 40.691 40.74 40.764 40.726 40.802 42.023 41.725 42.993 43.331 42.613 42.2 42.363 42.703 42.449 42.489 42.936 43.513 43.407 42.475 42.663 47.842 52.753 54.491 46.342 40.653 42.448 42.026 39.946 39.62 39.447 39.372
86.152 86.224 86.377 86.337 86.274 86.099 86.097 86.379 86.454 87.262 86.929 86.592 86.432 86.207 86.429 86.704 86.819 86.894 86.994 87.127 87.354 87.669 87.583 88.293 93.166 95.08 93.872 95.259 94.813 92.915 89.674 87.058 86.974 87.419 87.447 87.448 91.047 93.764 93.702 93.652 93.582 93.497 92.749 88.38 87.787 87.789 87.762 87.609 87.583 92.995 94.826 95.765 96.54 95.916 94.855 93.935 93.085 93.395 94.673 95.645 96.469 95.822 94.963 91.842 87.345 85.194 84.975 85.657 86.12 85.773 85.564 85.357 85.24 85.268 85.273 85.14 84.766 84.681 84.65 84.7 84.918 87.632 92.39 95.685 96.545 95.523 95.716 96.722 97.49 97.763 98.16 97.715 97.14 96.346 92.298 88.329 84.971 84.645 84.588 84.503 84.388 84.386 84.399 84.413 84.625 84.176 83.65 82.64 82.539 82.75 82.023 81.957 81.835 81.711 81.534 81.385 81.342 81.383 81.225 81 81.26 83.083 82.725 82.63 81.37 79.97 79.635 79.41 79.075 78.868 78.593 78.382 78.18 77.933 77.694 77.558 77.351 77.049 76.873 76.703 76.463 76.184 75.946 75.838 75.549 75.256 74.981 74.803 74.585 74.373 73.888 73.642 73.465 73.568 77.465 81.783 82.433 82.058 82.338 83.514 85.037 84.976 84.531 80.256 83.519 84.956 83.869 72.993 71.682 75.711 75.837 77.305 76.147 74.521 73.741 69.176 67.781 75.611 79.014 79.992 74.921 78.753 76.063 70.149 77.311 72.353 84.196 80.903 83.456 92.311 83.468 88.459 90.361 88.662 89.487 82.425 89.058 93.391 94.981 92.643 94.71 93.421 95.126 90.966 89.631 91.817 83.088 83.617 85.645 89.753 87.571 91.358 89.812 90.873 84.223 84.718 82.563 84.783 84.471 89.731 84.451 89.663 91.437 92.235 93.378 93.628 93.658 93.333 93.578 94.069 94.139 87.151 93.394 85.011 75.08 72.309 66.584 76.036 81.406 79.841 76.626 84.666 79.148 79.396 85.78 84.373 86.616 84.821 83.39 83.134 81.245 81.929 79.778 71.741 68.123 65.561 64.464 65.246 73.486 73.731 74.199 71.037 66.063 58.568 57.312 59.031 61.499 57.77 53.854 53.343 48.729 50.436 56.921 55.239 47.576 44.156 43.996 43.854 43.758 43.646 43.611 43.549 43.518 43.448 43.366 43.304 43.198 43.129 43.063 42.966 42.888 42.811 42.763 42.667 42.628 42.551 42.518 42.418 42.373 42.315 42.251 42.213 42.128 42.045 41.978 41.94 41.853 41.783 41.734 41.698 41.676 41.636 41.584 41.543 41.514 41.428 41.401 41.401 41.329 41.293 41.231 41.198 41.128 41.038 40.997 40.962 40.873 40.823 40.793 40.796 40.753 40.729 40.71 40.718 40.67 40.672 40.662 40.655 40.753 40.641 40.574 40.582 40.558 40.548 40.53 40.49 40.485 40.418 40.461 40.423 40.404 40.371 40.288 40.279 40.264 40.286 40.309 40.336 40.296 40.303 40.293 40.28 40.278 40.2 40.195 40.176 40.157 40.171 40.158 40.168 40.171 40.208 40.251 40.296 40.336 40.318 40.327 40.333 40.347 40.341 40.361 40.385 40.412 40.448 40.468 40.479 40.503 40.566 40.553 40.61 40.592 40.618 40.629 40.677 40.655 40.626 40.639 40.673 40.671 40.716 40.716 40.731 40.669 41.529 43.358 43.338 43.274 43.303 42.944 41.897 42.303 43.061 42.233 42.88 42.451 43.383 42.016 42.098 43.99 51.486 48.278 45.348 46.945 40.703 41.984 41.77 40.051 39.736 39.541 39.449
86.457 86.494 86.479 86.427 86.379 86.309 86.122 85.974 86.277 86.517 86.547 86.394 86.134 86.169 86.357 86.494 86.594 86.682 86.747 86.782 86.779 86.787 87.38 87.802 87.597 89.04 90.631 91.789 92.984 92.142 89.577 86.931 86.818 86.926 86.99 87.882 92.637 94.517 94.744 94.667 94.577 94.271 92.141 87.974 87.714 87.652 87.588 87.301 87.16 90.15 94.495 95.471 96.179 95.993 95.219 94.17 90.011 93.161 94.497 95.591 96.444 96.153 95.167 94.128 87.781 84.896 84.805 85.275 86 85.801 85.233 85.179 85.032 84.98 84.942 84.769 84.64 84.669 84.615 84.676 84.948 84.857 86.748 90.459 94.963 94.517 95.123 96.489 97.193 97.884 98.801 98.663 98.073 97.163 96.608 95.659 87.99 84.6 84.49 84.456 84.394 84.408 84.437 84.549 84.408 83.728 82.993 82.68 82.61 82.088 81.975 81.92 81.96 81.845 81.495 81.393 81.375 81.323 81.008 80.858 81.589 82.045 82.643 82.463 81.403 79.988 79.591 79.366 78.897 78.775 78.492 78.23 78.083 77.958 77.718 77.448 77.243 77.046 76.791 76.546 76.421 76.171 75.97 75.678 75.453 75.264 74.922 74.731 74.403 74.263 73.968 73.578 73.308 72.961 78.061 81.684 83.073 81.961 84.032 83.853 84.3 84.913 84.418 84.261 80.418 85.728 85.268 79.452 77.401 81.623 85.878 80.582 70.904 70.193 67.886 65.714 66.662 65.797 73.694 73.826 74.053 77.708 79.836 76.401 77.086 81.606 84.127 83.312 86.962 89.578 85.531 86.713 86.888 89.444 90.648 81.686 87.159 90.101 93.273 89.908 89.196 96.959 93.271 90.671 91.396 92.814 88.526 91.338 87.183 89.993 84.195 91.428 90.177 91.256 82.146 76.213 74.817 83.281 78.647 88.849 89.374 90.75 91.39 92.677 93.536 93.168 93.043 93.691 93.926 94.207 94.466 93.946 94.045 91.679 87.103 82.348 84.926 75.381 79.089 75.861 85.438 84.735 79.763 78.606 86.596 86.649 86.819 85.508 76.323 79.502 80.004 80.115 79.129 76.313 56.138 48.456 61.052 65.851 72.417 70.427 70.159 65.488 68.41 65.403 63.081 56.574 56.727 56.429 56.946 54.13 54.516 51.641 48.58 45.099 44.803 44.123 43.991 43.871 43.733 43.597 43.468 43.458 43.414 43.356 43.271 43.218 43.173 43.073 42.983 42.924 42.8 42.733 42.693 42.614 42.578 42.493 42.413 42.386 42.308 42.251 42.199 42.143 42.061 42.026 41.941 41.896 41.8 41.748 41.676 41.685 41.648 41.612 41.549 41.538 41.443 41.418 41.378 41.346 41.304 41.255 41.232 41.166 41.124 41.021 40.972 40.911 40.824 40.786 40.749 40.757 40.703 40.678 40.658 40.646 40.656 40.629 40.613 40.628 40.871 40.579 40.59 40.545 40.543 40.514 40.501 40.476 40.446 40.385 40.398 40.358 40.378 40.326 40.296 40.269 40.26 40.219 40.261 40.271 40.247 40.277 40.273 40.268 40.226 40.193 40.147 40.128 40.092 40.107 40.105 40.132 40.17 40.19 40.206 40.221 40.27 40.251 40.3 40.301 40.301 40.298 40.323 40.358 40.358 40.403 40.408 40.443 40.516 40.553 40.518 40.568 40.613 40.628 40.628 40.642 40.638 40.671 40.676 40.674 40.652 40.671 40.701 40.692 40.579 41.818 43.271 42.028 41.485 40.853 41.056 40.966 40.786 43.303 43.336 43.252 43.963 43.698 42.503 41.279 41.776 44.224 43.871 45.561 43.618 40.608 42.413 41.347 39.979 39.816 39.643 39.598
86.512 86.484 86.467 86.422 86.379 86.334 86.254 86.079 85.974 86.379 86.532 86.059 86.049 86.112 86.222 86.302 86.389 86.499 86.417 86.414 86.209 86.174 86.353 86.595 86.766 86.737 86.767 86.93 87.384 87.588 87.715 86.985 86.747 86.713 86.765 86.964 90.877 94.729 95.622 95.679 95.338 94.53 91.121 87.623 87.42 87.358 87.063 86.697 86.469 89.109 94.203 95.166 95.412 95.27 94.406 93.902 88.341 90.678 94.295 95.248 96.123 96.44 95.473 93.959 88.165 84.858 84.845 85.109 85.678 85.553 84.94 84.933 84.838 84.745 84.68 84.619 84.591 84.602 84.553 84.647 84.866 84.769 84.861 86.103 84.796 92.349 95.762 97.02 97.564 98.286 99.288 98.9 98.211 97.461 96.657 94.704 84.651 84.541 84.456 84.423 84.419 84.408 84.491 84.818 83.946 83.292 83.133 82.598 82.309 82.041 81.946 81.964 81.948 81.908 81.953 81.672 81.231 81.542 80.918 82.406 83.227 83.241 81.461 80.98 81.708 82.041 80.748 79.424 78.866 78.533 78.441 78.246 77.948 77.816 77.623 77.443 77.161 76.918 76.805 76.579 76.211 76.039 75.845 75.669 75.283 75.078 74.923 74.821 74.407 74.035 73.771 73.508 73.168 74.718 78.596 81.609 81.095 83.509 84.443 82.396 83.806 84.088 83.841 83.593 83.957 84.416 81.131 78.449 82.124 82.482 83.595 82.732 76.876 74.791 68.761 65.296 66.361 71.274 76.417 72.917 78.473 79.358 80.396 74.076 76.08 84.243 87.443 86.538 91.378 91.466 88.191 92.402 87.091 91.673 93.738 82.369 86.861 92.053 90.331 87.087 94.558 84.241 93.096 98.503 87.973 98.663 88.898 87.903 89.376 84.898 79.968 87.611 86.761 89.043 86.274 80.943 74.208 72.321 72.75 80.235 82.296 90.018 90.404 92.603 93.006 92.973 92.972 91.958 93.598 93.963 92.401 94.166 93.187 92.23 89.791 83.113 87.471 76.576 85.991 80.878 86.367 72.046 80.321 87.275 86.911 83.213 84.711 85.341 83.381 81.542 79.323 79.001 77.466 68.871 49.074 56.613 66.793 61.623 75.448 72.004 67.453 63.302 70.861 68.821 65.791 64.407 54.399 59.802 62.837 61.218 56.051 56.808 55.409 49.834 47.661 44.054 43.946 43.796 43.691 43.586 43.469 43.391 43.313 43.234 43.179 43.136 43.083 42.997 42.943 42.851 42.758 42.688 42.613 42.553 42.503 42.471 42.373 42.316 42.261 42.2 42.123 42.052 42.048 41.988 41.903 41.868 41.766 41.728 41.673 41.626 41.601 41.573 41.569 41.505 41.436 41.353 41.371 41.311 41.253 41.231 41.188 41.131 41.066 41.031 40.946 40.873 40.807 40.781 40.757 40.703 40.688 40.668 40.619 40.635 40.625 40.631 40.621 40.591 41.113 40.555 40.585 40.492 40.519 40.513 40.506 40.448 40.393 40.385 40.38 40.359 40.369 40.324 40.261 40.224 40.231 40.213 40.226 40.188 40.226 40.215 40.208 40.223 40.184 40.145 40.097 40.068 40.075 40.074 40.048 40.085 40.086 40.173 40.198 40.21 40.219 40.236 40.261 40.208 40.189 40.227 40.223 40.266 40.302 40.353 40.43 40.431 40.478 40.49 40.525 40.593 40.583 40.613 40.645 40.658 40.661 40.665 40.646 40.693 40.635 40.676 40.666 40.733 40.596 41.753 43.231 41.862 40.881 40.87 40.876 40.902 40.973 43.516 46.301 45.783 45.706 45.233 44.036 41.63 41.341 40.751 40.816 42.997 41.942 40.733 42.282 41.411 40.018 39.791 39.698 39.579
86.472 86.444 86.404 86.357 86.374 86.369 86.332 86.234 86.092 85.907 85.899 85.914 85.944 86.002 86.097 86.192 86.239 86.189 85.989 85.799 85.562 85.527 85.763 85.951 86.146 86.256 86.353 86.4 86.639 87.247 87.319 86.773 86.755 86.532 86.448 86.514 93.769 94.809 95.824 96.367 95.469 94.49 92.257 87.445 86.832 86.792 86.565 86.36 86.18 87.123 93.822 94.559 94.225 93.592 92.987 91.074 88.608 91.126 93.057 94.923 95.952 96.401 95.693 94.16 89.51 84.97 85.04 84.925 85.04 85.251 84.723 84.663 84.65 84.555 84.485 84.515 84.576 84.53 84.516 84.564 84.678 84.72 84.768 84.758 85.035 92.896 94.701 96.431 97.153 97.668 98.468 98.336 97.538 96.833 95.166 92.136 85.345 84.503 84.425 84.407 84.396 84.381 84.571 84.264 83.688 83.186 83.212 82.394 82.148 82.048 81.954 81.971 82.206 82.888 83.011 82.649 81.736 81.576 81.138 83.176 83.686 82.793 82.627 81.846 80.618 81.496 79.978 79.073 78.823 78.607 78.236 78.136 77.966 77.671 77.474 77.325 77.161 76.933 76.663 76.512 76.273 75.979 75.678 75.514 75.343 75.029 74.686 74.616 74.296 73.94 73.593 73.328 73.081 76.359 79.628 79.882 81.742 77.326 78.384 83.753 83.886 83.994 84.432 84.172 84.778 81.927 75.786 72.656 83.031 82.353 82.361 83.018 81.304 72.768 70.478 65.413 72.841 76.026 76.378 75.746 79.742 79.52 82.124 76.82 77.156 79.832 87.705 85.561 87.456 87.374 90.064 90.547 87.356 88.283 84.868 85.008 83.836 83.239 89.148 91.343 95.968 91.712 94.912 91.746 89.476 93.812 93.573 94.261 87.823 89.382 86.793 87.186 85.317 88.336 84.046 80.398 76.721 73.672 75.12 78.191 81.357 83.633 87.651 86.67 90.409 83.914 91.463 92.533 93.406 92.776 92.988 93.204 92.426 91.841 90.359 89.252 86.503 81.511 77.32 78.373 84.413 80.626 86.494 87.004 85.398 87.215 84.716 84.11 83.046 79.79 68.785 76.378 67.201 62.418 50.821 51.483 57.499 65.329 76.725 76.963 76.273 74.937 73.573 70.321 68.491 59.818 62.528 64.824 66.781 65.666 64.484 60.478 55.959 51.731 50.879 49.388 45.179 43.793 43.649 43.551 43.418 43.306 43.231 43.153 43.117 43.058 42.998 42.961 42.884 42.826 42.748 42.663 42.581 42.528 42.463 42.391 42.296 42.288 42.211 42.13 42.116 42.036 41.993 41.953 41.856 41.806 41.756 41.676 41.642 41.613 41.556 41.568 41.506 41.481 41.423 41.368 41.346 41.286 41.226 41.198 41.158 41.076 41.043 40.994 40.953 40.878 40.808 40.733 40.711 40.693 40.667 40.613 40.596 40.602 40.607 40.603 40.586 40.565 40.918 40.537 40.491 40.501 40.486 40.483 40.447 40.444 40.384 40.379 40.341 40.338 40.32 40.259 40.241 40.201 40.177 40.151 40.193 40.189 40.188 40.198 40.169 40.185 40.096 40.089 40.038 40.006 40.044 40.016 40.012 40.043 40.045 40.121 40.143 40.166 40.182 40.138 40.178 40.195 40.188 40.17 40.208 40.218 40.258 40.288 40.35 40.416 40.431 40.499 40.499 40.538 40.608 40.601 40.642 40.641 40.653 40.636 40.648 40.65 40.632 40.665 40.691 40.708 40.668 41.502 43.414 41.461 40.892 40.893 40.901 40.863 41.186 45.017 46.643 47.436 45.731 44.372 43.266 40.806 40.796 40.788 40.836 42.129 42.489 40.797 41.985 41.073 40.086 39.877 39.732 39.607
86.422 86.437 86.397 86.384 86.362 86.322 86.269 86.267 86.279 86.087 85.877 85.762 85.749 85.849 85.934 85.982 85.957 85.814 85.577 85.324 87.044 88.577 86.225 85.56 85.678 85.828 85.966 86.055 86.029 86.495 86.552 86.308 86.076 86.12 86.114 86.576 92.207 94.882 95.929 96.314 95.427 94.432 91.458 86.343 86.492 86.479 86.259 86.09 85.936 86.173 91.67 92.353 89.344 89.645 87.495 84.763 84.636 86.066 93.446 94.738 95.855 96.495 96.048 95.08 93.893 84.739 84.728 84.585 84.882 84.668 84.606 84.539 84.493 84.43 84.509 84.56 84.564 84.467 84.448 84.562 84.728 84.674 84.778 85.629 89.616 93.721 93.876 94.854 96.293 96.983 97.591 97.487 96.893 95.393 88.232 86.601 84.564 84.442 84.423 84.368 84.445 84.611 84.338 83.905 83.696 83.467 82.883 82.321 82.134 82.021 81.989 82.128 82.771 83.651 83.686 83.044 81.928 81.318 80.988 81.086 81.947 82.516 82.525 82.112 79.791 79.608 79.284 78.941 78.771 78.611 78.378 78.05 77.797 77.781 77.433 77.136 77 76.878 76.566 76.323 76.176 75.973 75.664 75.305 75.123 74.943 74.691 74.371 74.176 73.808 73.501 73.298 72.851 75.771 78.904 79.55 82.318 78.736 80.481 85.707 85.486 83.983 84.341 84.306 84.816 81.369 75.659 84.043 84.361 82.976 82.091 72.629 80.838 81.436 78.273 67.353 78.641 82.109 77.598 80.916 80.476 77.233 76.121 78.178 80.06 80.978 85 84.139 88.573 90.558 88.811 86.356 89.113 90.626 84.678 83.661 92.293 88.318 92.846 96.936 96.289 95.208 96.808 91.511 90.601 93.148 92.626 95.513 93.031 91.243 88.316 85.451 81.871 88.276 83.698 81.598 78.068 76.443 83.839 83.581 88.641 89.966 89.158 81.132 89.581 91.234 90.992 92.127 91.841 91.371 91.763 92.553 91.986 90.969 89.798 82.641 77.43 82.896 86.732 88.761 70.982 85.063 85.635 85.493 86.231 87.091 85.443 83.288 75.498 76.92 67.746 75.803 63.086 67.41 57.435 62.47 69.812 78.253 77.597 78.231 77.888 77.964 73.201 72.618 72.621 67.025 66.055 66.739 65.118 67.063 65.601 63.396 62.136 54.878 51.823 51.008 47.646 46.048 44.756 43.508 43.401 43.299 43.173 43.095 43.026 42.998 42.938 42.876 42.836 42.776 42.643 42.588 42.56 42.501 42.406 42.362 42.264 42.236 42.146 42.108 42.043 42.001 41.946 41.893 41.851 41.766 41.713 41.661 41.627 41.563 41.543 41.493 41.483 41.432 41.393 41.329 41.293 41.26 41.19 41.168 41.151 41.08 41.031 40.986 40.923 40.806 40.759 40.721 40.676 40.656 40.62 40.593 40.553 40.566 40.573 40.571 40.557 40.533 40.478 40.478 40.474 40.447 40.446 40.424 40.392 40.43 40.378 40.341 40.325 40.334 40.302 40.253 40.255 40.171 40.162 40.16 40.178 40.167 40.163 40.187 40.151 40.153 40.099 40.062 40.012 39.985 40.024 39.998 39.992 40.036 40.059 40.114 40.075 40.091 40.127 40.099 40.101 40.135 40.098 40.109 40.173 40.196 40.231 40.276 40.363 40.38 40.399 40.446 40.485 40.523 40.566 40.586 40.625 40.628 40.613 40.631 40.605 40.625 40.641 40.631 40.667 40.683 40.686 41.732 43.145 41.593 40.882 40.858 40.894 40.886 41.246 44.496 46.076 47.553 45.388 42.968 41.022 42.711 41.762 40.802 40.859 42.373 42.27 40.772 41.899 40.955 40.164 39.937 39.792 39.627
86.357 86.394 86.347 86.354 86.314 86.284 86.237 86.224 86.222 86.199 86.084 85.827 85.642 85.674 85.709 85.692 85.592 85.467 85.214 87.224 90.534 90.784 90.259 88.711 86.268 85.305 85.379 85.488 85.547 85.888 86.194 85.958 85.705 85.826 85.843 85.761 92.274 94.944 95.979 96.173 95.33 94.338 89.483 86.003 86.032 86.033 85.885 85.645 85.444 85.193 85.368 86.295 84.455 83.969 84.826 84.565 84.437 84.759 91.374 94.351 95.388 96.176 95.885 95.22 94.24 88.978 84.522 84.553 84.509 84.504 84.555 84.466 84.424 84.45 84.534 84.601 84.545 84.479 84.409 84.515 84.839 84.739 85.614 91.986 93.37 94.376 94.321 94.708 95.454 96.196 96.788 96.967 95.883 88.963 84.651 84.493 84.411 84.399 84.373 84.393 84.588 84.403 84.025 83.891 83.311 83.076 82.493 82.213 82.116 82.014 81.958 82.321 82.781 83.227 83.126 82.301 81.614 81.263 80.961 80.768 80.524 81.144 82.471 80.844 79.988 79.428 79.169 78.948 78.775 78.549 78.391 78.136 77.686 77.561 77.433 77.158 76.916 76.748 76.631 76.309 76.023 75.821 75.598 75.358 75.076 74.876 74.621 74.36 74.178 73.623 73.339 73.188 72.836 75.532 78.963 80.788 81.064 77.726 82.949 84.374 84.462 82.255 82.024 81.264 85.143 80.234 72.376 82.112 84.398 77.848 82.685 81.386 76.191 75.343 75.671 70.552 72.226 80.346 82.576 78.588 79.336 79.615 78.188 74.148 77.661 85.223 90.322 88.149 74.861 92.368 80.816 91.008 90.306 85.91 83.931 84.289 84.277 92.209 93.703 96.071 95.636 94.489 94.313 92.968 96.446 91.233 96.428 93.478 97.141 90.658 89.872 87.693 89.676 84.598 77.922 77.618 86.69 88.073 80.091 88.287 87.303 87.296 81.276 86.328 84.12 81.641 81.404 87.497 90.088 90.815 90.521 90.191 92.156 88.561 82.536 88.121 75.878 77.512 85.194 88.378 86.926 86.208 84.957 86.264 85.795 85.983 84.739 76.061 75.303 75.931 71.926 77.368 77.296 77.027 77.512 76.363 75.453 79.03 79.082 78.332 79.398 79.108 77.611 74.606 66.288 64.028 65.851 67.226 66.751 67.303 64.379 57.985 64.786 56.123 49.011 50.434 50.921 45.288 43.848 43.428 43.331 43.281 43.173 43.058 42.941 42.856 42.806 42.786 42.711 42.678 42.621 42.561 42.501 42.456 42.37 42.313 42.236 42.176 42.146 42.049 41.993 41.953 41.921 41.859 41.798 41.786 41.678 41.634 41.561 41.557 41.516 41.493 41.468 41.413 41.361 41.322 41.239 41.191 41.152 41.126 41.068 41.033 40.996 40.926 40.859 40.783 40.724 40.686 40.647 40.613 40.573 40.578 40.549 40.548 40.567 40.554 40.504 40.517 40.466 40.433 40.441 40.431 40.41 40.411 40.387 40.382 40.356 40.301 40.304 40.303 40.298 40.253 40.184 40.154 40.151 40.143 40.161 40.149 40.128 40.132 40.106 40.119 40.073 40.039 39.973 39.998 39.988 39.966 39.944 39.963 40.007 40.009 40.056 40.058 40.071 40.081 40.057 40.084 40.076 40.088 40.099 40.128 40.215 40.283 40.309 40.311 40.389 40.441 40.474 40.531 40.573 40.578 40.608 40.612 40.592 40.623 40.592 40.591 40.583 40.608 40.638 40.661 40.688 41.551 43.133 40.893 40.903 40.861 40.859 40.899 41.083 43.493 45.966 46.979 45.663 43.131 41.068 42.188 44.951 44.343 41.105 41.863 42.056 40.796 42.158 41.428 40.315 40.006 39.825 39.7
86.292 86.339 86.317 86.284 86.337 86.222 86.192 86.174 86.129 86.127 86.164 86.034 85.672 85.527 85.417 85.364 85.309 85.174 85.909 90.242 91.124 92.739 92.806 92.228 89.642 86.743 84.748 84.714 84.87 85.479 85.858 85.751 85.386 85.501 85.543 85.348 93.974 95.009 95.982 96.189 95.292 94.092 89.488 85.42 85.448 85.44 85.276 85.157 85.06 84.925 84.743 84.543 84.692 84.564 84.933 84.878 84.859 84.848 90.328 93.886 94.959 95.27 95.052 94.727 94.44 89.07 85.115 84.645 84.583 84.546 84.495 84.443 84.433 84.418 84.553 84.56 84.5 84.463 84.454 84.64 84.762 85.246 91.783 93.132 94.253 95.098 95.208 94.426 94.428 95.291 95.63 95.748 87.003 84.501 84.441 84.409 84.446 84.386 84.411 84.566 84.553 84.435 84.016 83.61 83.101 82.686 82.417 82.202 82.101 81.954 81.914 81.978 82.432 82.823 82.633 81.971 81.388 81.193 80.981 80.738 80.586 80.306 80.203 79.918 79.77 79.476 79.101 78.958 78.813 78.506 78.243 78.054 77.833 77.529 77.186 77.123 76.93 76.704 76.371 76.193 76.041 75.785 75.496 75.222 75.029 74.773 74.343 74.234 74.033 73.618 73.204 72.972 72.712 74.782 78.453 80.321 81.897 78.292 83.998 82.509 82.361 81.636 78.403 71.194 71.46 78.574 67.387 70.624 81.411 83.741 71.296 73.031 73.552 68.645 68.45 71.786 75.858 76.908 83.146 76.85 75.293 81.336 83.483 80.311 68.676 82.662 88.929 84.015 87.048 90.238 94.508 90.889 87.611 83.158 88.011 86.198 83.162 90.586 94.696 87.923 88.598 90.546 93.453 91.761 92.941 87.65 97.173 95.271 93.113 92.086 90.668 93.358 84.811 92.826 81.54 78.258 90.327 91.461 87.891 93.673 91.864 92.488 82.921 85.235 81.889 86.986 86.773 75.091 76.067 88.323 88.763 87.868 85.793 76.149 87.448 78.393 84.285 84.833 86.798 78.796 80.876 86.204 85.84 86.599 86.516 85.175 83.841 73.852 74.36 77.481 76.007 78.357 78.793 78.519 76.501 76.746 76.876 79.149 76.261 77.721 79.194 78.725 77.216 76.003 72.056 67.06 65.738 67.278 60.717 65.368 66.816 65.843 64.386 56.579 50.684 49.827 49.341 49.661 46.834 43.408 43.316 43.238 43.173 43.046 42.937 42.856 42.746 42.693 42.651 42.602 42.518 42.498 42.461 42.378 42.326 42.226 42.174 42.136 42.064 42.012 41.943 41.894 41.846 41.781 41.761 41.701 41.653 41.605 41.533 41.503 41.461 41.422 41.411 41.363 41.328 41.269 41.2 41.172 41.119 41.089 41.002 41.013 40.983 40.894 40.813 40.747 40.692 40.641 40.598 40.598 40.547 40.534 40.514 40.529 40.523 40.513 40.49 40.501 40.462 40.43 40.431 40.408 40.424 40.393 40.354 40.373 40.339 40.324 40.275 40.279 40.241 40.211 40.171 40.128 40.133 40.123 40.113 40.098 40.1 40.085 40.1 40.069 40.048 39.991 39.969 39.991 39.955 39.948 39.929 39.931 39.972 39.991 40.009 40.046 40.036 40.036 40.049 40.047 40.042 40.053 40.088 40.129 40.218 40.25 40.261 40.323 40.36 40.421 40.446 40.507 40.562 40.581 40.593 40.627 40.633 40.603 40.603 40.613 40.612 40.638 40.652 40.651 40.681 41.543 43.178 41.837 41.383 40.91 45.718 43.816 40.876 44.881 46.053 47.058 45.633 42.761 41.388 42.289 48.71 47.264 44.241 42.918 41.261 40.826 43.506 41.825 40.316 40.07 39.811 39.906
86.294 86.294 86.252 86.247 86.292 86.194 86.187 86.164 86.122 86.072 86.034 86.034 85.897 85.662 85.362 85.167 85.054 85.317 87.354 90.007 93.119 93.488 93.248 92.866 92.48 90.284 87.228 85.831 84.949 84.925 84.947 84.905 85.045 85.18 85.249 85.833 93.767 95.089 96.122 96.224 95.215 94.207 89.934 84.904 85.182 85.238 84.978 84.877 84.847 84.804 84.767 84.756 84.738 84.742 84.895 84.903 84.901 84.833 88.119 93.909 94.566 94.248 94.173 93.887 93.568 85.784 85.358 85.038 84.677 84.578 84.544 84.533 84.482 84.534 84.513 84.518 84.465 84.468 84.468 84.707 84.762 87.606 93.036 94.177 94.918 95.562 96.124 95.301 94.533 94.041 93.223 90.381 85.082 84.403 84.391 84.384 84.386 84.461 84.561 86.334 86.843 85.159 83.626 83.151 82.811 82.484 82.326 82.199 82.057 81.926 81.878 81.826 81.853 81.918 82.448 82.388 81.575 81.148 80.92 80.704 80.598 80.354 80.047 79.876 79.703 79.381 79.068 78.899 78.721 78.493 78.232 77.94 77.781 77.593 77.379 76.971 76.816 76.603 76.452 76.149 75.841 75.714 75.548 75.138 74.921 74.751 74.521 74.148 73.763 73.443 73.183 72.901 72.731 76.406 78.554 76.975 83.124 76.613 78.593 81.805 84.181 83.875 74.005 68.384 68.793 72.271 73.171 71.426 71.894 78.198 72.223 80.226 66.818 64.866 65.133 72.538 75.323 84.803 80.971 78.788 76.463 79.927 84.942 75.784 87.224 81.001 86.05 88.839 89.787 87.726 90.588 89.178 93.678 86.741 91.544 88.056 90.147 92.648 92.791 92.643 90.786 92.426 93.156 91.593 93.716 93.483 92.574 92.906 92.793 87.336 82.634 93.769 92.721 88.386 97.48 78.058 80.941 90.841 93.921 91.335 93.181 93.451 87.908 83.077 76.669 81.731 86.816 72.791 85.783 73.553 84.041 77.546 80.626 82.043 73.623 70.038 81.486 72.436 87.11 81.461 87.618 82.621 78.025 86.296 85.985 78.263 81.455 64.987 77.279 78.817 79.755 80.476 80.191 80.049 77.791 76.908 78.931 80.024 79.841 80.521 79.088 78.873 77.298 75.967 74.378 71.151 67.275 66.598 67.042 68.145 68.876 63.616 64.869 64.721 56.81 54.679 46.996 47.491 45.422 44.231 45.444 43.156 43.106 43.041 42.931 42.806 42.671 42.581 42.533 42.481 42.406 42.393 42.353 42.286 42.234 42.203 42.093 42.038 41.983 41.956 41.911 41.883 41.788 41.753 41.706 41.625 41.621 41.541 41.514 41.471 41.421 41.389 41.383 41.338 41.279 41.231 41.141 41.125 41.063 41.024 40.968 40.938 40.893 40.819 40.715 40.683 40.636 40.619 40.602 40.574 40.519 40.501 40.48 40.506 40.491 40.488 40.488 40.466 40.466 40.398 40.38 40.393 40.392 40.372 40.348 40.357 40.293 40.287 40.285 40.246 40.23 40.218 40.158 40.12 40.116 40.131 40.1 40.069 40.072 40.064 40.076 40.022 40.018 39.969 39.958 39.922 39.883 39.917 39.886 39.921 39.929 39.979 39.969 39.991 40.041 40.027 39.986 39.987 40.024 40.037 40.101 40.117 40.197 40.242 40.311 40.326 40.353 40.412 40.456 40.485 40.545 40.571 40.608 40.621 40.643 40.598 40.616 40.608 40.605 40.628 40.641 40.623 40.631 41.291 43.368 45.046 43.185 44.346 47.666 47.55 45.993 45.173 45.746 47.348 45.838 43.891 46.586 46.686 48.894 48.113 45.806 43.976 41.886 40.82 42.436 41.533 40.371 40.168 40.893 41.488
86.044 86.797 86.329 86.179 86.152 86.147 86.159 86.264 86.104 86.034 85.987 85.959 85.932 85.877 85.629 85.174 84.949 84.777 84.624 88.664 92.197 92.957 93.312 93.334 92.976 92.822 93.194 92.044 88.163 86.462 86.526 85.461 84.921 84.934 84.997 86.694 93.409 95.167 96.217 96.109 95.165 94.021 87.989 84.805 85.097 85.097 84.786 84.799 84.791 84.76 84.749 84.733 84.714 84.745 84.769 84.835 84.796 85.085 87.309 91.674 89.54 92.805 93.42 93.43 92.05 89.185 86.863 85.532 85.264 84.585 84.557 84.548 84.535 84.485 84.485 84.495 84.469 84.464 84.535 86.108 88.384 92.311 93.683 94.426 95.158 95.891 96.14 95.257 94.583 93.686 91.573 86.733 84.411 84.359 84.355 84.333 84.393 84.563 85.701 86.838 85.724 84.078 83.151 82.878 82.781 82.473 82.308 82.231 82.137 81.769 81.74 81.764 81.728 81.688 81.719 82.058 82.162 81.195 80.911 80.681 80.563 80.258 80.073 79.856 79.668 79.194 79.031 78.946 78.749 78.448 78.278 77.983 77.748 77.426 77.307 77.101 76.684 76.499 76.275 76.181 75.761 75.483 75.403 75.136 74.825 74.524 74.367 74.038 73.62 73.263 72.978 72.619 72.557 77.186 79.8 80.553 82.918 81.615 83.893 83.39 81.911 82.029 78.687 71.963 67.773 67.416 71.457 67.646 77.596 73.709 77.041 75.575 70.618 66.978 65.633 76.313 83.531 84.696 84.901 79.431 86.968 85.723 81.013 81.846 85.203 88.343 88.163 83.771 85.621 94.028 91.237 90.926 89.648 93.049 94.032 90.681 88.209 90.558 92.141 90.333 90.238 91.984 87.168 90.456 90.958 94.721 91.814 89.246 92.698 96.274 96.708 91.191 90.328 86.938 85.199 80.503 78.366 86.728 87.196 87.013 93.1 91.374 92.741 89.901 86.321 84.716 74.643 70.23 81.704 85.263 78.556 82.788 75.191 69.854 75.435 84.273 78.186 71.731 87.123 71.304 86.044 74.935 78.098 85.118 74.346 76.773 62.796 73.803 78.539 78.565 79.997 80.931 81.486 80.535 79.868 78.953 79.037 80.122 80.038 81.108 79.047 77.943 78.028 76.945 75.448 72.841 68.283 62.173 61.35 70.988 70.31 68.863 66.611 65.764 64.709 61.451 55.416 49.931 47.538 49.243 50.693 44.683 45.101 42.991 42.913 42.788 42.673 42.551 42.458 42.421 42.315 42.286 42.256 42.236 42.182 42.113 42.073 42.009 41.946 41.888 41.813 41.784 41.748 41.708 41.656 41.596 41.553 41.513 41.438 41.407 41.396 41.353 41.351 41.293 41.223 41.173 41.113 41.087 41.008 40.998 40.968 40.923 40.885 40.755 40.691 40.683 40.588 40.596 40.574 40.556 40.488 40.513 40.463 40.466 40.463 40.478 40.466 40.461 40.452 40.396 40.421 40.327 40.398 40.373 40.308 40.323 40.314 40.303 40.263 40.232 40.205 40.136 40.135 40.123 40.098 40.063 40.079 40.049 40.046 40.056 40.039 40.027 39.988 39.938 39.939 39.912 39.872 39.865 39.848 39.877 39.911 39.915 39.956 39.985 40.008 40.016 39.996 40.041 40.012 40.056 40.098 40.109 40.182 40.229 40.291 40.316 40.336 40.373 40.441 40.461 40.497 40.553 40.596 40.613 40.642 40.655 40.62 40.626 40.671 40.757 40.656 40.641 40.619 40.861 43.511 44.756 43.036 41.065 41.861 43.366 44.821 45.792 45.857 47.401 45.536 42.673 44.451 48.038 47.964 47.054 43.843 43.184 42.064 40.823 42.278 41.499 40.847 41.644 42.056 41.969
85.012 86.179 86.684 86.222 86.067 86.112 86.092 86.097 86.102 86.074 85.969 85.899 85.819 85.789 85.807 85.557 85.109 84.774 84.597 84.487 87.194 92.438 92.886 93.231 93.303 91.896 92.905 92.282 91.404 90.778 90.238 88.06 87.269 85.237 84.844 85.938 94.212 95.172 95.987 95.92 95.053 93.789 87.115 84.923 84.932 84.986 84.819 84.67 84.813 84.778 84.767 84.756 84.714 84.705 84.7 84.752 84.798 85.189 86.752 86.685 88.574 93.142 93.677 93.813 94.137 93.406 85.425 84.79 84.708 84.539 84.513 84.506 84.47 84.497 84.484 84.494 84.599 84.65 85.7 88.158 91.38 92.516 91.983 93.682 94.498 94.989 95.426 94.661 93.873 92.144 84.543 84.568 84.371 84.341 84.291 84.346 84.478 85.871 86.808 86.176 84.016 83.293 83.136 82.983 82.668 82.361 82.353 82.211 81.826 81.736 81.656 81.603 81.471 81.473 81.518 81.439 81.328 81.078 80.849 80.646 80.434 80.24 80.015 79.735 79.512 79.316 79.113 78.831 78.756 78.428 78.131 77.961 77.716 77.408 77.126 76.894 76.736 76.458 76.181 75.993 75.816 75.548 75.239 74.986 74.818 74.576 74.201 74.001 73.58 73.441 72.943 72.491 73.364 77.508 80.818 81.364 83.313 83.338 81.997 78.532 69.767 74.894 79.3 77.969 73.948 72.263 67.046 74.793 83.04 81.953 80.828 78.893 77.778 74.996 67.112 77.198 81.768 79.368 81.283 76.553 85.191 84.373 78.656 86.465 84.098 88.283 86.498 78.678 87.263 84.218 90.802 91.864 92.198 88.627 92.946 87.694 86.816 91.816 85.941 86.463 83.168 85.382 90.668 88.166 86.643 93.968 94.782 85.786 93.711 92.211 91.071 96.458 96.981 92.334 82.62 78.467 78.362 81.366 85.416 82.065 91.109 87.926 90.563 88.508 83.188 86.393 83.996 80.096 83.043 79.578 84.736 83.716 70.761 67.055 67.156 68.223 81.618 87.441 77.971 84.761 75.388 67.031 76.953 73.697 77.456 74.524 65.181 76.546 75.149 80.214 82.424 82.253 81.178 81.016 80.075 78.621 79.088 79.508 79.786 79.998 79.841 77.256 74.891 77 73.819 71.786 69.511 65.881 55.216 62.158 69.925 63.831 58.833 55.989 66.103 64.016 57.603 56.906 53.803 53.018 52.128 52.793 50.806 47.008 42.838 42.746 42.654 42.494 42.421 42.323 42.215 42.176 42.126 42.121 42.091 42.063 41.976 41.918 41.883 41.814 41.786 41.716 41.68 41.618 41.588 41.578 41.513 41.469 41.401 41.396 41.364 41.356 41.308 41.244 41.166 41.133 41.073 41.012 40.966 40.97 40.921 40.886 40.853 40.781 40.678 40.585 40.574 40.543 40.541 40.491 40.481 40.466 40.469 40.416 40.445 40.451 40.426 40.43 40.393 40.423 40.414 40.337 40.368 40.358 40.317 40.299 40.293 40.258 40.278 40.192 40.15 40.141 40.114 40.107 40.073 40.066 40.041 40.035 40.013 40.039 39.985 39.972 39.968 39.921 39.931 39.892 39.868 39.838 39.88 39.905 39.884 39.898 39.946 39.978 39.996 39.976 40.013 39.996 40.04 40.05 40.116 40.113 40.188 40.226 40.261 40.278 40.301 40.37 40.405 40.471 40.551 40.553 40.597 40.641 40.663 40.639 40.66 40.633 40.631 41.076 40.627 40.681 40.662 41.021 43.235 44.181 42.638 41.165 42.19 41.941 41.37 44.034 45.477 46.994 45.861 43.438 42.043 44.042 45.871 46.167 42.939 42.896 41.526 40.731 42.065 42.474 42.031 42.308 42.155 40.852
84.369 84.699 85.809 85.809 85.789 85.944 86.029 86.067 86.044 86.019 85.927 85.852 85.784 85.759 85.722 85.712 85.482 85.027 84.657 84.504 84.482 85.594 91.458 92.679 93.048 91.621 91.017 92.211 92.362 92.248 91.728 90.036 88.853 85.019 84.755 87.539 94.314 94.879 95.052 95.112 94.916 92.136 85.557 84.695 84.8 84.909 84.853 84.901 85.102 84.787 84.655 84.712 84.961 84.743 85.177 87.2 91.118 93.662 91.104 91.754 94.025 94.32 94.544 94.845 95.027 94.349 93.523 84.76 84.598 84.499 84.501 84.523 84.488 84.449 84.5 84.488 84.753 84.787 85.284 91.562 93.743 94.025 93.302 93.338 93.621 94.233 94.526 93.843 92.023 85.173 84.426 84.363 84.288 84.266 84.243 84.506 84.436 86.751 86.733 84.536 83.394 83.256 83.091 82.981 82.606 82.533 82.166 82.116 81.808 81.636 81.654 81.403 81.451 81.607 81.481 81.327 81.216 81.113 80.801 80.653 80.391 80.143 79.936 79.709 79.449 79.266 79.097 78.871 78.606 78.42 78.145 77.833 77.651 77.412 77.001 76.772 76.677 76.396 76.122 75.859 75.657 75.515 75.269 74.874 74.671 74.433 74.178 73.904 73.541 73.312 73.01 72.518 74.576 78.503 81.103 80.974 79.972 81.706 80.395 78.454 80.131 75.563 72.063 75.165 78.801 79.848 71.135 68.998 83.266 82.916 82.488 82.261 80.841 72.918 70.408 70.238 78.38 78.109 82.793 80.741 76.353 81.823 82.633 75.808 82.433 85.266 74.811 85.526 88.367 77.63 82.903 78.738 88.681 92.838 87.056 87.648 90.138 92.312 85.969 90.981 89.008 85.849 90.771 88.331 90.438 90.541 96.006 97.516 97.901 89.883 95.643 90.482 94.448 92.561 84.661 80.433 78.956 78.99 80.424 83.997 84.6 86.856 87.508 85.715 83.913 85.178 84.166 83.903 77.251 83.335 89.808 87.471 73.246 78.438 82.505 78.838 86.728 87.088 82.253 78.407 81.495 64.773 60.908 64.886 58.027 57.308 62.621 65.443 79.086 81.56 82.063 81.346 81.029 80.413 80.341 79.446 80.177 80.973 79.873 69.218 79.004 77.443 77.223 76.099 71.584 71.154 70.942 62.903 67.256 70.06 68.492 56.968 52.125 52.482 53.698 54.461 51.739 57.175 61.836 53.923 53.228 57.011 52.823 50.966 46.69 42.683 42.601 42.468 42.356 42.301 42.146 42.099 42.031 42.018 42.013 41.978 41.921 41.871 41.833 41.783 41.728 41.701 41.651 41.613 41.558 41.531 41.478 41.415 41.401 41.351 41.328 41.273 41.251 41.219 41.121 41.088 41.043 40.978 40.943 40.931 40.898 40.849 40.798 40.723 40.678 40.603 40.569 40.527 40.533 40.481 40.463 40.427 40.423 40.435 40.405 40.409 40.397 40.39 40.399 40.371 40.367 40.331 40.353 40.268 40.238 40.277 40.268 40.287 40.239 40.201 40.158 40.134 40.092 40.111 40.068 40.039 40.008 40.016 40.008 39.989 39.992 39.98 39.936 39.895 39.913 39.865 39.845 39.849 39.856 39.861 39.917 39.893 39.943 39.983 39.978 39.986 39.987 39.988 40.038 40.082 40.06 40.143 40.188 40.221 40.256 40.251 40.333 40.368 40.434 40.501 40.528 40.57 40.611 40.606 40.651 40.604 40.611 40.646 40.651 40.645 40.645 40.671 40.603 40.856 43.051 43.293 41.818 41.286 41.023 42.465 40.836 45.013 45.713 47.104 45.871 43.794 41.442 44.764 44.861 41.38 43.333 42.848 42.206 40.724 41.032 42.214 42.028 41.907 40.562 39.841
84.884 84.244 84.329 84.927 85.334 85.612 85.814 85.932 85.967 85.954 85.927 85.842 85.764 85.714 85.682 85.667 85.634 85.407 84.989 84.572 84.442 84.465 84.569 89.993 91.535 86.755 88.09 92.479 92.677 92.649 91.986 90.403 88.099 84.681 84.72 89.267 92.817 93.944 93.999 94.1 93.789 90.804 86.553 84.738 84.743 84.806 84.807 84.828 85.08 84.737 84.648 84.768 87.716 93.013 94.787 96.748 96.967 97.184 92.568 87.242 93.951 94.865 95.438 95.959 95.529 94.645 91.024 85.228 84.568 84.458 84.49 84.528 84.468 84.47 84.5 84.556 84.795 84.813 89.127 93.584 94.557 94.89 94.076 93.526 93.371 93.555 94.019 93.013 91.063 84.596 84.344 84.311 84.243 84.238 84.406 85.066 85.491 85.666 84.038 83.546 83.523 83.359 83.076 82.928 82.896 82.856 82.276 82.211 83.278 83.765 83.236 82.346 81.368 81.498 81.406 81.423 81.293 81.117 80.846 80.629 80.455 80.201 79.892 79.776 79.538 79.256 79.076 78.872 78.648 78.286 78.137 77.946 77.603 77.265 77.125 76.903 76.531 76.228 76.098 75.874 75.548 75.338 75.102 74.901 74.618 74.273 73.98 73.793 73.478 73.098 72.886 72.448 74.97 77.4 81.148 77.612 82.401 76.796 79.681 84.728 84.538 83.115 83.985 70.448 80.038 84.83 80.652 74.753 81.779 83.221 82.756 81.218 74.561 69.24 72.493 67.058 70.708 75.632 82.961 73.798 79.1 80.508 70.011 77.803 87.303 82.913 77.193 84.653 86.163 83.692 83.521 88.688 87.602 86.743 89.418 83.951 90.838 89.564 91.596 92.203 84.766 94.084 90.841 90.579 88.381 85.73 85.681 93.246 97.323 98.339 98.611 95.037 92.404 90.943 92.088 89.193 84.451 78.191 77.239 76.373 74.601 86.126 84.067 84.013 88.733 88.324 86.983 90.888 86.126 83.036 79.218 84.873 74.563 73.021 83.333 83.428 80.616 74.138 80.853 80.475 77.418 65.566 66.493 59.985 64.246 66.223 67.176 76.48 78.844 81.52 81.844 80.334 80.661 79.301 79.881 81.576 83.308 81.796 71.113 80.191 77.941 75.548 75.481 74.471 72.741 72.038 69.048 67.789 66.306 67.52 70.372 55.976 58.991 49.376 52.022 50.334 44.684 62.503 65.843 64.133 59.287 58.274 55.348 50.487 51.801 49.536 42.558 43.591 42.342 42.238 42.123 42.001 41.943 41.946 41.923 41.881 41.846 41.838 41.803 41.736 41.68 41.651 41.626 41.561 41.543 41.511 41.473 41.383 41.359 41.313 41.233 41.214 41.166 41.151 41.099 41.047 40.978 40.943 40.929 40.868 40.829 40.805 40.734 40.684 40.626 40.585 40.549 40.509 40.496 40.458 40.424 40.416 40.398 40.393 40.404 40.393 40.409 40.414 40.393 40.371 40.322 40.286 40.299 40.265 40.236 40.231 40.247 40.238 40.236 40.229 40.156 40.116 40.068 40.077 40.066 40.011 40 39.967 39.981 39.956 39.966 39.925 39.909 39.909 39.878 39.85 39.847 39.84 39.863 39.869 39.871 39.879 39.932 39.971 39.968 39.967 39.992 39.998 40.048 40.032 40.05 40.133 40.176 40.2 40.23 40.302 40.306 40.356 40.418 40.434 40.521 40.567 40.57 40.613 40.593 40.586 40.606 40.618 40.623 40.583 40.623 40.641 40.606 41.538 43.143 41.636 41.45 40.888 40.894 40.915 40.851 43.931 45.816 47.151 46.079 44.146 43.77 41.164 40.923 41.208 44.097 43.403 42.648 40.759 40.59 40.599 40.281 40.076 40.006 39.894
85.084 84.697 84.147 84.164 84.632 85.117 85.432 85.682 85.834 85.894 85.899 85.844 85.807 85.789 85.709 85.627 85.602 85.562 85.364 84.892 84.474 84.36 84.353 84.633 86.382 84.723 87.89 91.279 92.115 92.193 91.741 89.466 86.154 84.517 84.718 88.294 93.294 93.457 93.512 93.364 92.895 92.043 86.351 84.758 84.886 84.83 84.825 84.789 84.77 84.705 84.677 84.729 95.02 97.21 97.332 97.68 98 97.729 96.948 95.149 94.645 94.406 95.49 96.149 95.834 94.995 91.182 85.787 84.57 84.473 84.503 84.577 84.558 84.579 84.636 84.785 84.781 90.074 93.49 94.455 95.1 95.604 94.948 94.279 93.613 93.148 93.321 91.659 88.577 84.306 84.289 84.254 84.211 84.628 85.718 86.833 85.838 83.85 83.496 83.479 83.502 83.211 83.061 83.021 82.771 82.253 81.745 82.031 83.405 86.713 85.781 83.574 82.038 81.586 81.343 81.326 81.247 81.116 80.968 80.717 80.658 80.268 80.028 79.786 79.586 79.271 78.988 78.813 78.626 78.361 78.083 77.763 77.62 77.291 77.047 76.825 76.528 76.268 75.919 75.718 75.535 75.301 74.848 74.728 74.601 74.236 73.983 73.738 73.366 73.076 72.713 72.386 73.748 76.958 79.481 80.559 82.535 82.013 79.467 84.952 83.689 83.341 83.98 77.511 79.251 82.868 83.042 82.646 83.858 84.246 82.063 74.031 69.566 68.266 67.49 67.999 68.103 75.763 76.683 68.233 89.101 82.451 75.693 77.736 75.171 74.163 86.555 84.165 85.816 83.678 83.859 78.438 85.891 82.431 81.812 86.47 89.236 87.429 88.473 87.516 87.116 87.466 87.506 88.578 95.576 92.633 91.448 92.638 94.303 94.039 97.738 96.641 94.313 97.559 95.476 97.73 93.734 89.638 86.767 78.653 85.13 85.523 82.781 91.199 93.121 84.207 90.478 89.801 92.446 84.518 92.126 77.348 66.677 69.839 78.396 79.886 79.436 62.728 88.007 63.72 79.673 75.067 76.943 75.846 74.173 74.706 77.451 79.771 80.433 82.136 81.513 81.768 83.232 82.057 82.879 83.243 83.431 83.271 82.604 81.071 79.31 77.34 75.47 74.446 74.881 73.133 69.593 69.023 67.844 69.271 70.693 68.941 67.591 53.228 48.988 43.338 43.201 60.444 66.288 63.648 60.131 61.711 60.213 55.737 57.746 51.951 45.641 43.819 42.333 42.198 42.081 41.943 41.916 41.921 41.868 41.848 41.818 41.793 41.741 41.678 41.657 41.638 41.583 41.536 41.49 41.441 41.398 41.366 41.311 41.271 41.218 41.173 41.13 41.103 41.044 40.993 40.939 40.951 40.884 40.82 40.823 40.751 40.691 40.653 40.592 40.52 40.519 40.483 40.474 40.459 40.431 40.4 40.383 40.364 40.384 40.361 40.395 40.386 40.353 40.352 40.327 40.276 40.258 40.238 40.212 40.208 40.225 40.227 40.196 40.158 40.123 40.092 40.095 40.069 40.053 40.026 39.982 39.968 39.981 39.96 39.937 39.893 39.883 39.89 39.85 39.837 39.803 39.802 39.864 39.863 39.833 39.864 39.922 39.975 39.973 39.976 39.977 40 40.008 39.993 40.105 40.118 40.138 40.171 40.184 40.27 40.298 40.353 40.386 40.418 40.481 40.498 40.54 40.556 40.551 40.571 40.563 40.558 40.573 40.586 40.582 40.626 40.582 40.883 43.146 41.946 40.847 40.886 40.898 40.848 40.843 42.858 47.088 47.471 45.596 45.721 43.733 41.276 42.761 42.787 43.556 43.352 43.055 40.78 40.528 40.351 40.296 44.195 45.574 44.917
85.219 84.999 84.764 84.114 83.887 84.419 84.919 85.259 85.564 85.752 85.827 85.827 85.807 85.749 85.792 85.664 85.574 85.559 85.517 85.287 84.794 84.348 84.241 84.218 84.761 84.816 86.252 86.966 88.344 89.547 89.891 87.129 84.878 84.544 84.788 88.339 93.964 93.869 93.792 93.717 93.659 91.226 84.929 84.755 84.973 85.162 84.842 84.798 84.777 84.726 84.707 84.747 91.317 97.075 98.013 98.613 98.918 98.09 97.212 96.193 95.162 94.333 95.472 95.653 95.472 94.979 94.18 86.825 84.528 84.435 84.488 84.56 84.613 84.96 84.713 84.803 89.094 93.116 94.064 94.973 95.73 96.203 95.725 94.878 94.114 93.111 87.708 84.466 85.057 84.298 84.296 84.247 84.377 84.53 85.906 85.283 83.756 83.288 83.231 83.163 83.138 83.057 83.068 83.038 82.968 82.666 81.971 81.433 82.003 84.458 84.874 84.115 83.601 82.198 81.443 81.259 81.141 81.039 81.003 80.698 80.628 80.399 79.968 79.847 79.583 79.233 79.004 78.828 78.586 78.378 78.196 77.806 77.686 77.346 77.023 76.793 76.591 76.309 75.963 75.658 75.403 75.238 75.011 74.742 74.458 74.078 73.916 73.603 73.146 72.951 72.678 72.261 74.623 76.782 78.763 78.437 82.695 80.246 83.478 83.819 83.686 84.016 83.447 79.323 83.088 79.706 81.043 79.622 76.949 79.83 75.645 67.172 69.723 66.93 67.727 67.391 71.336 84.696 79.216 84.101 79.891 82.633 81.275 86.821 88.381 82.041 85.966 80.348 82.641 84.971 83.979 81.416 81.611 85.788 88.523 90.401 90.218 92.536 91.968 91.597 85.391 86.761 89.822 93.188 90.956 92.598 95.138 95.408 96.026 93.314 96.099 93.191 93.629 95.301 88.898 96.888 94.757 90.754 88.405 79.472 86.158 80.963 83.976 82.388 90.528 89.459 92.343 93.266 91.898 89.466 85.408 76.056 75.294 69.282 74.686 82.377 72.696 86.488 80.931 84.95 85.553 84.235 83.636 81.427 86.56 84.393 84.028 82.041 83.351 76.496 75.306 80.555 84.18 83.408 84.188 84.112 83.926 84.051 82.171 81.383 79.691 79.751 78.398 75.771 75.156 72.903 69.813 61.608 65.027 68.284 69.801 68.851 66.668 52.561 43.323 43.251 48.383 65.057 66.083 63.101 59.658 56.806 61.345 60.381 58.963 54.518 48.997 42.326 42.226 42.191 42.039 41.901 41.838 41.848 41.808 41.828 41.763 41.719 41.691 41.656 41.611 41.561 41.526 41.481 41.436 41.403 41.373 41.296 41.245 41.216 41.164 41.148 41.083 41.043 41.018 40.961 40.906 40.883 40.838 40.744 40.743 40.728 40.682 40.626 40.58 40.526 40.498 40.413 40.433 40.426 40.425 40.356 40.361 40.357 40.343 40.348 40.339 40.346 40.354 40.36 40.358 40.264 40.201 40.211 40.208 40.193 40.201 40.222 40.177 40.161 40.118 40.051 40.086 40.041 40.039 40 39.948 39.965 39.952 39.899 39.896 39.894 39.86 39.877 39.817 39.791 39.824 39.83 39.839 39.839 39.851 39.894 39.897 39.923 39.946 39.969 39.951 39.975 39.986 40.031 40.066 40.111 40.067 40.183 40.184 40.203 40.29 40.291 40.316 40.365 40.415 40.448 40.448 40.528 40.517 40.556 40.568 40.554 40.557 40.573 40.592 40.6 40.564 41.719 43.656 42.069 40.983 40.823 40.863 40.816 41.042 43.397 45.034 44.631 44.441 44.557 43.224 41.491 43.806 43.843 43.016 42.728 42.791 40.581 40.571 40.471 44.057 52.181 54.143 53.488
85.324 85.152 84.987 84.647 84.032 83.737 84.214 84.769 85.124 85.399 85.607 85.719 85.752 85.724 85.684 85.642 85.557 85.532 85.452 85.457 85.224 84.676 84.23 84.125 84.104 84.298 84.718 84.524 83.862 83.937 84.625 84.474 84.247 84.587 84.793 89.304 94.532 94.874 94.787 94.711 94.352 91.724 86.248 84.853 85.059 85.166 84.831 84.824 84.828 84.767 84.752 84.754 91.986 96.825 97.718 98.773 99.015 98.512 97.413 96.33 95.465 94.328 94.835 94.674 94.356 94.18 93.84 89.78 84.538 84.414 84.494 84.505 84.59 84.851 84.745 85.303 89.993 93.106 94.085 94.745 95.258 95.826 95.204 94.376 93.803 89.257 84.397 84.312 84.263 84.243 84.251 84.291 84.6 84.242 83.933 83.466 83.15 83.06 83.083 83.481 83.169 83.106 83.103 82.976 82.891 82.771 82.587 82.206 81.376 82.168 82.809 84.348 84.126 83.721 81.526 81.323 81.089 80.983 80.868 80.74 80.488 80.374 80.136 79.761 79.511 79.329 79.016 78.748 78.567 78.318 78.041 77.815 77.538 77.107 76.916 76.805 76.562 76.146 75.812 75.578 75.403 75.078 74.854 74.713 74.366 73.887 73.761 73.564 73.158 72.786 72.378 72.083 75.071 77.072 78.453 80.788 81.232 83.793 84.278 80.411 78.901 83.623 84.968 78.895 73.454 77.208 76.077 80.639 81.645 73.286 71.028 65.741 64.634 68.813 67.396 71.694 78.998 78.388 85.145 86.015 88.085 77.968 77.976 82.368 88.926 87.038 78.198 82.193 87.972 88.284 86.204 87.286 85.028 84.494 89.916 90.356 89.543 91.228 91.556 87.829 82.328 90.756 85.19 89.966 95.596 92.763 93.053 93.853 91.358 90.801 91.193 88.67 86.35 89.157 89.578 93.716 94.906 92.452 92.101 82.596 81.391 79.238 81.778 86.077 80.573 79.856 82.107 80.737 84.911 85.521 78.638 73.026 70.571 74.348 71.687 74.789 88.191 89.806 83.101 88.609 72.853 83.536 85.789 87.552 88.148 87.471 85.705 84.071 85.041 77.643 83.657 82.442 85.359 84.416 84.571 82.753 83.318 82.698 81.748 80.061 80.473 80.544 79.234 75.513 73.863 73.396 70.321 69.536 68.554 70.377 70.741 69.905 67.743 58.123 48.791 48.793 49.756 49.005 55.854 63.763 59.091 64.876 63.498 61.033 58.248 52.835 45.575 47.731 44.239 42.108 42.003 41.891 41.836 41.798 41.783 41.736 41.718 41.676 41.629 41.608 41.553 41.513 41.486 41.423 41.398 41.364 41.311 41.238 41.181 41.143 41.102 41.083 41.033 41.006 40.973 40.908 40.881 40.826 40.785 40.738 40.717 40.653 40.613 40.576 40.531 40.493 40.424 40.419 40.437 40.379 40.371 40.341 40.326 40.32 40.341 40.33 40.323 40.356 40.351 40.361 40.316 40.262 40.202 40.198 40.186 40.175 40.184 40.171 40.153 40.131 40.088 40.06 40.049 40.012 39.983 39.979 39.944 39.945 39.942 39.903 39.872 39.857 39.856 39.822 39.791 39.792 39.746 39.818 39.824 39.821 39.801 39.861 39.913 39.911 39.918 39.911 39.949 39.963 39.985 39.981 40 40.063 40.104 40.141 40.158 40.221 40.216 40.233 40.261 40.318 40.377 40.408 40.433 40.488 40.508 40.502 40.517 40.528 40.563 40.564 40.581 40.638 40.557 42.004 43.908 43.028 43.101 43.715 42.715 41.286 44.123 46.391 44.386 42.156 43.161 43.695 43.741 43.983 43.224 41.916 41.77 40.828 40.942 40.754 40.646 42.463 50.955 49.418 51.355 52.826
85.427 85.274 85.129 84.922 84.594 84.084 83.642 84.054 84.664 84.959 85.209 85.459 85.637 85.669 85.649 85.619 85.672 85.542 85.442 85.439 85.414 85.098 84.586 84.167 84.059 84.021 84.092 84.873 84.114 83.884 83.958 84.151 84.459 84.636 84.764 91.482 94.667 95.569 95.804 95.418 94.545 92.324 85.549 84.896 84.92 84.869 84.868 84.878 84.872 84.804 84.818 84.785 88.937 96.302 97.718 98.392 98.302 98.099 97.495 96.728 95.714 94.202 93.924 90.404 89.075 85.77 86.844 84.758 84.59 84.443 84.495 84.524 84.553 84.635 84.933 84.909 85.145 87.58 92.782 93.993 94.653 95.161 94.801 93.754 89.978 85.328 84.278 84.208 84.248 84.249 84.401 84.563 84.363 83.91 83.481 83.122 83.025 83.043 83.421 83.884 84.038 83.168 83.086 82.981 82.827 82.783 82.618 82.491 82.046 81.213 81.086 81.711 83.184 83.741 82.11 81.483 81.256 80.933 80.894 80.772 80.481 80.224 80.019 79.693 79.413 79.268 79.001 78.724 78.463 78.298 78.046 77.751 77.563 77.217 76.949 76.693 76.418 76.036 75.761 75.552 75.35 75.143 74.871 74.622 74.338 74.044 73.714 73.358 72.999 72.885 72.511 71.932 74.063 78.157 81.509 83.701 82.961 78.381 80.512 83.283 84.941 83.571 82.703 82.806 77.476 73.628 77.761 80.031 80.081 69.648 72.466 64.883 64.749 66.841 68.368 73.649 72.63 84.646 71.143 86.846 76.993 79.741 82.523 78.468 87.622 87.633 82.713 82.081 83.286 86.249 89.354 89.153 86.015 87.195 88.359 88.683 90.026 91.514 93.856 88.094 89.541 85.92 87.629 91.356 86.576 91.527 89.828 89.606 90.688 99.141 84.476 82.754 82.231 85.275 92.293 92.221 93.239 86.876 90.734 82.458 87.236 89.538 89.16 74.383 85.443 79.291 72.466 70.7 67.383 88.068 78.626 81.051 71.699 79.336 69.784 75.004 87.969 76.918 89.209 88.52 89.876 88.454 87.979 87.453 88.783 88.074 86.981 84.121 84.479 84.269 81.476 82.886 82.646 83.288 81.321 83.103 79.073 81.841 80.076 80.992 80.423 80.368 79.124 75.576 73.857 70.944 70.421 70.279 70.416 70.523 70.608 70.041 67.998 60.251 47.066 49.741 53.581 42.693 51.836 52.883 62.35 58.923 62.328 60.689 56.121 52.678 47.401 49.344 45.776 42.016 41.959 41.896 41.796 41.757 41.746 41.676 41.656 41.611 41.566 41.533 41.528 41.458 41.407 41.346 41.333 41.266 41.214 41.193 41.131 41.098 41.046 41.013 40.971 40.936 40.894 40.878 40.866 40.816 40.737 40.726 40.633 40.611 40.561 40.526 40.488 40.457 40.445 40.412 40.398 40.381 40.351 40.305 40.311 40.333 40.293 40.315 40.321 40.323 40.344 40.341 40.303 40.268 40.192 40.176 40.15 40.18 40.149 40.133 40.136 40.125 40.085 40.053 40.026 39.999 39.98 39.963 39.944 39.867 39.876 39.876 39.856 39.809 39.798 39.778 39.76 39.745 39.747 39.797 39.767 39.763 39.829 39.836 39.875 39.885 39.891 39.911 39.936 39.931 39.964 39.966 39.993 40.037 40.088 40.106 40.128 40.161 40.164 40.197 40.271 40.278 40.328 40.375 40.403 40.418 40.456 40.455 40.498 40.528 40.561 40.55 40.578 40.644 41.621 42.856 44.111 44.1 43.946 43.928 44.648 45.398 48.611 48.641 47.103 42.936 42.835 42.865 43.157 42.863 41.492 40.826 40.825 40.782 40.768 40.735 41.274 49.29 52.875 48.999 53.008 53.866
85.504 85.357 85.197 85.004 84.757 84.457 84.069 83.564 83.994 84.462 84.714 85.067 85.327 85.519 85.554 85.567 85.537 85.522 85.472 85.419 85.402 85.353 85.079 84.549 84.125 83.97 83.938 83.97 83.946 83.97 84.196 84.497 84.658 84.742 84.986 90.907 94.739 95.727 96.254 95.432 94.46 91.412 84.916 84.852 84.951 84.895 84.938 84.955 84.914 84.89 84.895 84.905 87.309 95.992 97.361 97.418 97.58 97.753 97.022 92.655 89.234 85.752 84.748 84.82 84.745 84.743 84.863 85.06 84.857 84.55 84.545 84.528 84.575 84.591 84.781 85.26 85.003 84.823 87.05 91.625 93.822 94.266 93.788 92.198 87.846 84.264 84.23 84.24 84.245 84.223 84.688 84.251 83.583 83.33 83.736 83.456 83.237 83.179 83.466 83.391 83.523 83.225 83.007 82.931 82.853 82.751 82.616 82.446 82.058 81.913 80.961 80.791 81.293 82.237 82.473 82.756 83.139 81.294 80.638 80.616 80.491 80.103 79.932 79.668 79.461 79.387 79.056 78.751 78.49 78.248 78.018 77.798 77.454 77.108 76.834 76.565 76.218 76.011 75.727 75.513 75.281 75.084 74.843 74.429 74.126 73.836 73.812 73.284 72.803 72.604 72.24 71.898 74.104 77.471 82.733 84.859 82.87 76.686 76.358 81.133 82.174 80.82 77.644 73.25 69.659 78.723 75.178 78.716 72.02 72.293 65.735 65.746 67.481 70.287 69.867 74.28 74.408 77.731 79.695 76.901 80.512 79.195 82.309 81.487 83.025 88.293 82.106 81.723 89.068 82.246 90.215 89.008 85.544 86.311 87.775 88.962 88.113 90.865 86.434 86.693 85.396 84.348 85.28 94.686 96.637 92.57 92.303 83.237 85.866 82.769 82.507 82.604 85.988 84.901 81.361 83.564 88.113 93.168 86.573 83.155 88.973 86.848 84.253 75.673 69.228 68.978 68.471 67.92 71.421 74.142 68.525 84.168 80.646 83.961 87.428 83.651 75.843 83.971 89.393 89.078 89.831 89.052 87.999 87.882 88.101 88.231 86.261 77.003 76.282 82.253 69.515 84.691 82.299 80.046 83.203 80.164 78.212 78.943 78.883 80.672 81.016 79.431 76.106 73.191 73.572 64.031 70.218 61.663 59.46 70.055 70.456 69.312 67.473 59.198 42.851 42.843 46.951 49.048 59.472 58.764 62.175 61.793 59.579 59.923 55.281 51.279 49.708 49.083 46.411 42.376 42.178 42.278 41.784 41.946 42.19 41.623 41.55 41.516 41.519 41.478 41.454 41.403 41.356 41.289 41.248 41.191 41.173 41.083 41.034 41.009 40.981 40.91 40.905 40.866 40.833 40.814 40.746 40.738 40.693 40.643 40.606 40.582 40.493 40.458 40.45 40.375 40.369 40.345 40.363 40.341 40.303 40.274 40.277 40.248 40.275 40.284 40.303 40.341 40.321 40.303 40.263 40.25 40.173 40.105 40.121 40.128 40.151 40.111 40.133 40.087 40.029 40.064 40.007 39.977 39.988 39.938 39.897 39.878 39.876 39.852 39.816 39.789 39.794 39.78 39.732 39.718 39.724 39.741 39.748 39.767 39.818 39.838 39.863 39.873 39.855 39.861 39.903 39.896 39.926 39.955 40.013 40.043 40.047 40.067 40.108 40.113 40.118 40.166 40.193 40.243 40.298 40.362 40.395 40.433 40.458 40.471 40.48 40.483 40.498 40.503 40.564 40.598 40.531 42.328 43.405 44.889 43.586 43.803 46.133 47.271 47.882 48.658 46.088 42.911 42.618 41.893 40.933 40.768 40.786 41.473 41.761 40.767 40.776 40.818 40.775 44.513 50.16 53.569 54.687 52.785
85.554 85.374 85.207 84.987 84.812 84.609 84.384 83.959 83.407 83.587 84.089 84.557 84.887 85.187 85.359 85.442 85.444 85.432 85.472 85.354 85.342 85.355 85.359 85.052 84.519 84.133 83.988 84.002 84.165 84.455 84.678 84.758 84.788 84.829 84.832 91.407 94.809 95.329 95.422 95.224 94.381 88.627 84.919 84.847 84.888 84.906 84.936 84.916 84.911 84.897 84.882 84.827 85.143 91.882 93.793 96.306 97.2 97.893 96.335 87.9 84.782 84.755 84.77 84.786 84.786 84.795 84.857 84.918 85.098 84.75 84.763 84.571 84.573 84.594 84.843 84.891 85.061 84.835 84.74 86.031 89.976 93.484 92.298 89.219 84.283 84.23 84.246 84.233 84.308 84.601 84.451 83.607 83.253 83.268 83.466 83.383 83.543 83.359 83.469 83.639 83.328 83.271 83.046 82.911 82.838 82.703 82.508 82.406 82.046 81.898 81.773 81.147 80.524 80.916 82.024 83.794 83.733 82.188 80.721 80.498 80.418 80.081 79.863 79.588 79.379 79.231 78.988 78.793 78.558 78.287 77.883 77.708 77.479 77.182 76.811 76.534 76.214 75.923 75.581 75.486 75.218 74.881 74.692 74.411 74.043 73.609 73.641 73.145 72.856 72.436 72.064 71.721 75.381 77.853 81.45 84.55 82.726 84.226 81.463 77.815 74.895 77.258 81.366 74.142 71.115 74.276 71.629 74.411 69.638 69.038 64.711 65.823 68.616 68.671 67.915 72.911 75.923 83.727 80.816 75.898 75.008 77.029 77.423 84.444 86.986 88.395 85.696 85.405 83.732 83.478 85.046 81.774 84.163 82.903 87.878 83.224 83.078 86.506 87.798 94.388 86.426 81.771 88.819 91.176 91.402 92.641 88.315 83.954 81.805 81.884 81.971 82.143 82.006 88.853 82.379 78.568 86.673 95.384 79.911 91.877 81.689 84.949 85.718 82.948 78.976 75.741 75.007 77.266 79.468 80.963 82.081 82.831 83.326 85.03 88.008 90.462 91.711 91.849 91.583 90.276 89.92 90.033 89.486 87.131 86.001 86.696 86.722 82.865 79.777 81.898 82.951 81.708 83.452 67.988 81.976 76.84 74.561 75.544 74.209 79.124 79.781 76.983 74.488 69.953 69.499 70.736 69.829 69.876 69.915 68.217 69.138 67.268 64.661 55.978 51.285 52.846 52.57 48.082 53.032 57.433 53.227 53.563 57.476 57.713 50.603 49.805 49.532 48.348 45.921 44.883 44.436 42.823 42.286 43.027 41.746 43.715 41.553 41.456 41.471 41.412 41.363 41.331 41.251 41.213 41.194 41.131 41.063 41.011 40.981 40.953 40.919 40.868 40.844 40.783 40.803 40.738 40.691 40.643 40.606 40.551 40.529 40.506 40.473 40.408 40.368 40.315 40.299 40.299 40.253 40.258 40.241 40.25 40.236 40.221 40.238 40.248 40.269 40.316 40.284 40.266 40.241 40.188 40.15 40.103 40.116 40.093 40.088 40.111 40.099 40.086 40.01 40.021 39.998 39.976 39.898 39.929 39.868 39.846 39.824 39.828 39.753 39.759 39.795 39.762 39.737 39.717 39.726 39.745 39.693 39.742 39.798 39.836 39.821 39.85 39.861 39.846 39.896 39.883 39.899 39.951 39.991 39.998 40.026 40.039 40.074 40.073 40.111 40.154 40.194 40.273 40.294 40.341 40.374 40.373 40.417 40.436 40.455 40.476 40.481 40.518 40.491 40.518 40.518 41.051 43.111 46.621 47.418 46.688 46.761 49.141 47.847 45.533 44.391 42.245 41.17 40.831 40.816 40.818 42.401 42.683 43.169 41.384 40.823 40.885 40.861 41.137 47.371 55.087 55.178 50.043
85.632 85.427 85.247 85.039 84.852 84.664 84.469 84.272 83.894 83.347 83.314 83.889 84.307 84.699 85.002 85.249 85.309 85.304 85.302 85.584 85.309 85.269 85.29 85.303 85.032 84.621 84.406 84.491 84.698 84.81 84.854 84.854 84.868 84.845 84.825 91.179 94.219 92.964 92.359 94.467 93.849 85.962 84.897 84.88 84.931 84.933 84.894 84.884 84.857 84.846 85.113 85.486 84.929 85.375 86.449 93.163 96.988 97.785 93.479 92.217 91.179 84.767 84.832 84.737 84.771 84.778 84.789 84.946 85.038 85.501 85.49 84.563 84.522 84.54 84.675 84.774 84.988 84.93 84.764 84.57 84.995 89.735 87.508 84.628 84.226 84.211 84.204 84.426 84.726 84.311 83.772 83.111 83.039 83.368 83.451 83.302 83.531 83.316 83.256 83.281 83.738 83.153 83.293 82.946 82.816 82.706 82.521 82.393 82.121 81.956 81.766 81.526 81.018 80.135 80.413 81.883 82.508 83.292 81.531 80.476 80.153 79.966 79.781 79.623 79.378 79.188 79.033 78.763 78.506 78.35 77.983 77.577 77.323 77.235 76.818 76.445 76.266 75.938 75.6 75.357 75.138 74.849 74.556 74.276 73.987 73.622 73.396 73.033 72.763 72.406 71.966 71.455 75.286 78.309 78.923 84.022 80.216 76.639 79.299 69.627 67.855 68.564 80.444 67.989 78.088 76.067 73.398 71.25 65.008 66.123 66.836 66.938 70.701 71.123 70.449 73.216 68.956 79.018 84.496 75.631 78.466 86.766 78.833 80.473 86.687 83.795 88.783 84.956 86.038 85.761 82.811 81.933 83.178 77.559 81.083 84.008 83.588 86.464 82.78 90.356 89.151 85.841 89.059 83.483 87.741 82.362 80.931 89.176 92.821 85.513 81.711 81.816 81.7 81.774 84.068 83.746 85.5 81.272 83.45 95.643 84.844 88.853 90.06 77.446 82.721 83.798 81.853 88.666 81.701 79.918 80.784 79.496 79.165 69.996 82.757 89.518 81.557 91.851 89.676 90.512 90.56 90.743 89.236 88.578 83.303 86.287 86.293 85.505 83.538 83.703 81.469 81.728 79.677 71.258 71.542 61.396 64.104 71.788 72.933 71.949 78.899 74.863 75.203 75.095 71.398 69.031 68.736 66.291 62.153 67.678 67.678 63.031 58.671 46.266 42.658 44.101 47.381 43.548 53.967 51.199 55.063 47.858 56.653 53.993 50.05 49.245 48.191 44.455 44.511 45.73 43.249 42.553 44.2 48.073 45.711 43.421 46.881 43.165 41.481 43.316 42.441 41.358 41.153 41.147 41.108 41.041 41.001 40.959 40.874 40.854 40.823 40.783 40.781 40.731 40.713 40.673 40.602 40.566 40.556 40.513 40.436 40.411 40.409 40.348 40.273 40.274 40.268 40.226 40.201 40.169 40.204 40.183 40.178 40.188 40.187 40.178 40.238 40.253 40.243 40.22 40.203 40.151 40.135 40.07 40.056 40.069 40.073 40.061 40.051 40.021 40.01 39.994 39.957 39.898 39.898 39.869 39.861 39.821 39.806 39.748 39.748 39.739 39.744 39.702 39.658 39.663 39.682 39.841 39.674 39.727 39.741 39.801 39.793 39.824 39.806 39.851 39.848 39.911 39.887 39.947 39.974 39.983 40.004 40.019 40.037 40.083 40.061 40.121 40.166 40.216 40.243 40.313 40.31 40.326 40.381 40.393 40.374 40.413 40.397 40.469 40.461 40.474 40.477 40.639 43.326 47.392 49.091 48.062 48.383 48.658 44.035 41.759 40.753 41.455 40.981 40.778 41.416 42.513 43.615 43.618 45.285 43.113 40.923 40.934 40.875 42.622 51.493 54.451 52.916 47.132
85.719 85.514 85.329 85.119 84.912 84.677 84.502 84.342 84.182 83.879 83.209 83.149 83.664 84.122 84.489 84.869 85.072 85.129 85.179 85.252 85.352 85.214 85.21 85.229 85.214 85.07 84.923 84.909 84.902 84.895 84.893 84.888 84.889 84.868 84.911 86.417 87.112 88.159 89.442 88.399 89.929 88.223 84.901 84.856 84.937 84.915 84.883 84.862 84.903 85.248 85.602 85.931 85.766 85.542 85.701 93.081 96.764 97.576 97.582 96.835 93.793 88.291 84.678 84.716 84.815 84.933 84.98 85.104 85.075 85.048 85.101 84.558 84.495 84.477 84.458 84.82 84.869 84.848 84.479 84.341 84.308 84.614 84.414 84.231 84.181 84.208 84.393 84.684 84.323 83.563 83.211 83.463 82.964 83.084 83.171 83.149 83.031 83.138 83.444 83.196 83.291 83.198 83.278 82.898 82.82 82.788 82.601 82.323 82.151 81.954 81.796 81.561 81.238 80.526 79.751 79.978 80.992 82.833 82.578 81.603 80.738 79.961 79.702 79.566 79.351 79.214 78.918 78.729 78.479 78.246 78.002 77.692 77.398 77.094 76.814 76.526 76.204 75.805 75.693 75.384 75.149 74.692 74.48 74.223 73.837 73.622 73.468 72.889 72.668 72.174 71.846 71.299 75.168 77.796 78.391 82.383 81.854 82.084 82.773 74.949 71.426 73.771 72.446 78.666 76.554 80.693 69.516 72.678 65.371 64.801 65.188 66.215 69.338 72.528 72.278 73.888 73.766 75.006 83.973 84.048 81.143 84.488 81.217 80.271 78.106 87.203 89.585 82.561 83.621 88.193 85.362 86.106 89.103 88.037 84.333 87.961 83.061 83.164 91.743 91.178 87.559 94.726 87.476 91.069 88.146 83.378 85.468 89.548 89.166 85.006 84.736 81.621 81.168 90.889 88.048 87.163 88.114 82.228 88.288 91.896 84.666 87.033 84.066 76.227 75.373 85.496 82.653 85.693 85.771 89.846 72.538 76.443 67.067 66.33 78.993 78.664 84.448 90.843 90.66 90.236 91.371 90.539 89.275 88.111 83.61 85.638 84.579 85.161 83.987 82.758 80.396 79.232 82.023 74.886 73.026 63.118 50.482 52.161 60.93 68.987 78.381 76.701 77.764 71.784 67.083 67.536 67.498 67.466 62.598 65.468 60.551 56.205 57.791 45.13 45.791 53.161 53.392 60.481 57.071 53.776 54.65 54.966 50.531 46.651 46.936 46.643 45.831 42.149 42.225 44.186 43.131 41.819 44.463 48.573 46.801 41.869 44.956 44.983 42.996 43.799 44.141 43.263 41.613 41.121 41.108 40.953 40.955 40.853 40.803 40.773 40.756 40.691 40.653 40.628 40.618 40.542 40.509 40.478 40.456 40.433 40.372 40.344 40.333 40.261 40.211 40.216 40.183 40.167 40.129 40.137 40.136 40.097 40.129 40.14 40.132 40.166 40.219 40.209 40.182 40.167 40.167 40.12 40.094 40.035 39.991 40.028 40.046 39.967 40.032 39.985 40.006 39.972 39.919 39.892 39.873 39.84 39.791 39.775 39.774 39.739 39.73 39.73 39.688 39.692 39.633 39.651 39.655 39.731 39.636 39.676 39.737 39.773 39.775 39.838 39.82 39.856 39.841 39.921 39.924 39.956 39.946 40.001 39.985 40.055 40.036 40.041 40.093 40.141 40.146 40.16 40.201 40.247 40.243 40.284 40.336 40.381 40.384 40.402 40.387 40.461 40.506 40.471 40.765 41.012 42.268 42.983 44.046 45.026 47.183 44.701 42.901 40.965 41.008 40.703 40.791 42.002 43.612 46.533 45.363 45.302 45 44.303 41.483 40.879 40.875 44.419 48.826 51.002 50.382 48.996
85.814 85.589 85.392 85.194 84.974 84.739 84.552 84.387 84.224 84.052 83.802 83.244 82.922 83.449 83.969 84.399 84.739 84.882 84.949 85.012 85.099 85.231 85.157 85.123 85.163 85.146 85.078 84.99 84.918 84.89 84.862 84.877 84.9 84.865 85.127 84.917 84.889 84.854 84.877 84.894 84.907 85.287 84.845 84.894 84.889 84.996 84.878 85.534 86.527 86.562 86.905 87.282 86.559 86.527 94.111 96.7 96.965 97.511 97.85 97.603 94.051 86.082 84.69 84.806 84.895 84.975 84.859 84.847 85.177 85.26 85.254 84.559 84.498 84.484 84.444 84.628 84.652 84.48 84.335 84.297 84.243 84.35 84.247 84.188 84.356 84.546 84.651 84.151 83.651 83.006 82.984 83.017 83.536 83.051 84.084 83.778 83.091 83.391 83.168 83.375 83.321 83.411 83.541 83.151 82.869 82.824 82.666 82.433 82.176 81.976 81.778 81.589 81.353 81.141 80.705 80.053 79.681 80.604 82.063 82.683 82.111 79.891 79.668 79.448 79.313 79.191 78.886 78.706 78.469 78.257 78.003 77.656 77.431 77.138 76.706 76.434 76.121 75.783 75.554 75.266 75.101 74.734 74.361 74.189 73.872 73.571 73.216 72.811 72.421 72.207 72.118 71.601 73.549 77.065 78.303 77.733 78.574 84.753 83.923 76.438 80.869 74.148 69.266 69.297 72.99 82.083 75.321 72.473 66.983 65.676 67.097 70.456 70.378 74.966 77.056 80.583 71.748 83.588 78.974 75.508 78.831 78.588 78.214 80.248 80.546 82.583 80.686 76.728 81.256 80.918 78.606 83.039 89.093 84.34 85.058 90.533 82.233 79.103 83.113 90.731 93.789 94.746 94.859 93.723 94.553 92.053 91.501 90.81 91.883 91.822 86.74 89.421 85.046 95.557 84.153 88.116 92.636 87.068 83.564 91.228 87.562 87.002 85.131 81.971 73.576 78.148 79.546 82.861 80.066 83.916 72.503 66.218 70.303 66.134 86.056 84.768 81.446 89.821 86.69 88.647 89.765 89.764 88.971 87.994 86.399 75.253 83.715 83.576 74.818 81.581 74.311 67.538 71.75 59.341 51.886 51.171 50.754 50.272 50.799 63.264 77.075 76.003 76.406 75.861 69.633 62.418 62.342 61.942 59.299 61.612 53.196 61.084 62.173 57.81 58.181 58.723 57.379 57.444 52.305 49.373 47.254 49.188 50.727 48.212 43.089 42.146 41.856 42.058 42.033 42.032 41.751 42.046 42.211 43.415 42.063 41.426 42.607 44.611 42.673 44.016 44.693 42.054 42.036 42.036 41.978 42.346 40.974 41.221 42.883 40.785 42.361 40.603 40.587 40.513 40.469 40.481 40.391 40.403 40.368 40.328 40.306 40.263 40.221 40.206 40.163 40.129 40.088 40.091 40.071 40.045 40.055 40.029 40.052 40.071 40.081 40.14 40.133 40.161 40.148 40.137 40.116 40.066 40.048 39.988 39.971 39.96 39.999 39.96 39.968 39.978 39.948 39.916 39.873 39.826 39.803 39.821 39.798 39.747 39.708 39.662 39.695 39.715 39.666 39.648 39.641 39.602 39.686 39.603 39.621 39.649 39.733 39.733 39.801 39.793 39.821 39.815 39.873 39.861 39.889 39.896 39.928 39.946 40.003 39.998 40.056 40.053 40.091 40.093 40.102 40.128 40.191 40.168 40.221 40.243 40.286 40.332 40.338 40.38 40.391 40.456 40.458 40.444 41.791 43.625 41.073 42.808 42.9 42.049 43.116 40.598 40.966 40.711 40.733 41.258 42.151 43.655 48.335 49.658 48.664 46.572 48.041 43.35 42.088 41.051 40.873 43.014 48.656 50.295 45.053 50.538
85.817 85.612 85.424 85.239 85.049 84.839 84.657 84.462 84.282 84.129 84.007 83.807 83.212 82.874 83.187 84.069 84.377 84.504 84.629 84.772 84.891 85.05 85.122 85.057 85.06 85.079 85.049 84.972 84.904 84.868 84.889 84.898 84.904 84.849 84.833 84.834 84.849 84.844 84.844 84.842 84.839 85.273 85.699 86.258 86.808 87.176 85.405 87.316 88.4 89.417 90.621 92.93 93.747 93.43 95.453 97.177 97.875 98.23 98.504 98.112 97.188 88.108 84.775 84.8 84.82 84.85 84.745 84.613 84.698 84.848 84.606 84.488 84.45 84.443 84.4 84.402 84.348 84.305 84.288 84.214 84.185 84.263 84.313 84.845 84.701 84.573 84.218 83.751 83.076 83.686 83.468 83.968 83.317 83.653 84.469 84.491 84.451 83.253 83.178 83.568 83.477 83.821 84.129 83.637 83.241 83.174 82.703 82.491 82.255 81.956 81.723 81.638 81.406 81.191 81.066 80.928 80.146 79.633 79.973 81.926 82.384 82.216 80.639 79.547 79.221 79.099 78.866 78.593 78.357 78.152 77.936 77.665 77.368 77.081 76.705 76.434 76.053 75.716 75.549 75.313 75.061 74.758 74.438 74.058 73.789 73.473 72.979 72.65 72.233 72.376 71.575 71.011 73.137 76.276 74.204 75.439 74.901 81.283 83.54 80.397 79.931 70.238 73.931 74.04 66.375 73.793 73.116 71.743 65.661 64.566 66.578 68.798 73.676 81.213 84.548 80.631 78.968 79.526 76.123 75.066 75.347 76.031 75.39 79.058 79.226 79.554 82.206 81.338 79.323 75.564 78.413 79.573 81.921 80.27 86.489 78.515 79.403 79.018 83.559 82.207 90.513 91.243 87.893 91.548 88.621 88.919 88.383 96.867 91.431 93.286 96.486 85.273 97.636 84.387 88.506 92.988 90.288 87.306 92.383 89.452 86.083 97.168 89.871 86.191 89.038 72.449 86.998 81.524 79.428 78.076 87.428 86.781 77.494 79.16 78.921 87.132 84.692 80.205 86.755 88.386 88.544 88.036 87.872 87.768 86.227 84.253 76.387 62.056 67.968 67.038 66.021 65.169 73.183 54.412 53.821 51.156 50.679 50.155 63.205 76.451 77.808 78.148 78.176 69.596 66.503 51.106 48.151 47.58 47.353 51.242 50.611 56.011 60.862 60.646 55.601 57.783 56.458 52.561 50.141 44.888 44.001 42.703 44.623 42.956 41.913 41.891 41.878 41.926 41.998 42.03 41.793 41.461 43.534 41.873 42.198 43.536 42.491 43.068 42.321 42.648 46.083 42.876 43.248 43.198 41.928 42.361 41.993 41.973 43.87 44.844 45.151 42.481 40.628 40.881 40.649 41.893 40.321 40.505 40.296 40.248 40.383 40.16 40.134 40.136 40.107 40.053 40.01 39.991 39.988 39.987 39.973 40.018 39.968 39.999 40.041 40.072 40.088 40.068 40.101 40.088 40.063 40.048 40.005 39.957 39.905 39.928 39.918 39.908 39.919 39.955 39.919 39.875 39.838 39.832 39.784 39.786 39.751 39.715 39.656 39.672 39.67 39.633 39.606 39.605 39.605 39.592 39.808 39.554 39.584 39.622 39.661 39.736 39.768 39.822 39.823 39.828 39.828 39.858 39.866 39.871 39.896 39.94 39.963 39.993 39.996 40.006 40.073 40.004 40.061 40.058 40.096 40.155 40.168 40.25 40.263 40.327 40.321 40.361 40.392 40.388 40.401 40.391 41.763 44.151 42.206 41.466 41.829 40.922 40.593 40.606 40.676 40.732 42.148 42.391 43.206 45.943 49.486 48.815 46.41 47.55 49.24 48.93 44.386 41.044 40.922 42.856 49.893 51.925 51.395 51.564
85.809 85.637 85.447 85.284 85.114 84.959 84.784 84.557 84.364 84.184 84.054 83.959 83.677 83.119 83.254 83.902 84.114 84.219 84.307 84.487 84.685 84.851 84.991 85.075 85.001 84.986 84.976 84.946 84.886 84.851 84.903 84.903 84.908 84.838 84.927 84.834 84.829 84.839 84.829 84.939 86.426 88.477 88.97 89.434 89.754 89.563 87.972 91.861 93.931 94.2 94.491 94.591 94.539 91.944 94.564 96.809 97.701 98.677 99.315 98.434 97.538 94.028 84.817 84.746 84.742 84.711 84.647 84.534 84.66 84.733 84.648 84.448 84.389 84.383 84.306 84.34 84.293 84.314 84.264 84.22 84.153 84.236 84.468 84.66 84.306 84.243 84.431 84.731 84.583 84.418 84.591 83.698 83.568 84.166 84.969 84.377 83.703 83.101 83.324 83.526 84.116 84.503 84.588 84.061 83.876 83.268 82.775 82.566 82.333 82.056 81.699 81.496 81.381 81.236 81.128 80.983 80.669 79.988 79.331 79.288 80.551 82.041 82.451 81.391 79.273 79.004 78.825 78.54 78.346 78.091 77.833 77.681 77.287 77.038 76.705 76.358 75.968 75.702 75.475 75.309 75.001 74.716 74.399 74.043 73.717 73.425 73.026 72.581 72.222 71.883 71.543 71.713 75.196 76.384 77.423 77.745 74.71 76.178 79.11 80.508 71.043 75.167 76.833 81.462 70.126 72.816 76.566 66.536 65.181 64.705 64.551 68.161 82.452 85.496 86.316 85.516 76.878 76.646 79.828 74.663 79.431 75.243 77.361 83.238 84.468 77.446 80.116 78.868 78.403 75.816 76.003 75.599 76.136 76.736 81.151 78.771 78.411 79.144 82.974 88.144 90.409 83.536 86.721 87.021 89.23 83.89 91.196 92.613 88.846 96.363 87.649 88.408 91.383 95.72 97.525 97.091 93.71 88.211 90.536 77.703 90.984 94.108 91.238 94.863 96.105 95.663 88.138 92.566 86.783 84.716 87.858 77.433 87.543 89.54 88.637 81.545 77.901 75.343 83.587 86.205 88.04 87.227 86.875 86.979 85.978 78.103 68.514 62.101 79.346 72.408 79.127 80.217 81.52 82.115 74.156 67.764 50.456 50.745 63.707 78.257 78.905 78.761 78.314 77.048 61.546 48.411 47.771 52.219 62.281 57.021 58.228 50.28 59.131 59.355 56.333 54.916 54.903 54.146 50.393 46.498 41.978 41.953 41.871 41.813 41.801 41.765 41.643 41.706 42.026 42.843 42.641 42.661 42.318 41.601 42.263 42.828 41.711 42.043 43.231 42.472 45.008 43.521 43.51 43.338 42.398 43.151 43.058 42.039 41.816 43.556 45.506 43.526 42.966 42.589 41.858 42.141 41.453 43.318 42.919 42.373 43.218 40.836 41.903 40.029 39.996 39.956 39.911 39.903 39.901 39.883 39.886 39.906 39.935 39.97 39.995 39.987 40.013 40.036 40.025 40.016 40.038 39.986 39.984 39.918 39.894 39.881 39.883 39.848 39.891 39.89 39.875 39.818 39.783 39.768 39.781 39.738 39.703 39.75 39.632 39.639 39.603 39.576 39.576 39.55 39.587 39.532 39.783 39.546 39.553 39.601 39.696 39.718 39.762 39.796 39.804 39.807 39.816 39.833 39.831 39.85 39.868 39.899 39.895 39.984 39.991 39.991 40.007 40.013 39.988 40.055 40.11 40.129 40.181 40.206 40.258 40.261 40.266 40.313 40.306 40.298 40.291 40.406 40.401 41.455 42.524 40.916 40.543 40.808 40.926 40.658 40.738 42.209 43.167 43.305 43.446 45.574 45.846 48.117 44.062 47.594 48.916 48.676 43.066 40.866 40.931 42.27 49.282 51.718 51.123 48.186
85.789 85.627 85.452 85.324 85.197 85.027 84.867 84.632 84.434 84.239 84.109 84.052 83.964 83.904 83.822 83.842 83.949 84.002 84.084 84.239 84.442 84.66 84.872 85.038 85.003 84.949 84.918 84.934 84.884 84.843 84.84 84.863 84.857 84.823 84.948 84.844 84.804 84.814 84.892 85.004 89.697 91.78 92.673 93.267 93.965 93.988 90.961 91.808 94.193 95.112 95.386 95.567 94.896 94.448 95.303 96.453 97.481 98.482 98.825 98.271 97.605 96.64 88.403 84.598 84.831 84.735 84.565 84.489 84.428 84.694 84.619 84.375 84.37 84.35 84.299 84.262 84.282 84.275 84.264 84.246 84.353 84.718 85.049 84.358 83.976 84.643 85.068 84.696 83.021 84.392 83.519 83.823 84.678 84.761 84.163 83.461 83.543 83.448 83.868 84.358 84.676 84.611 84.533 83.898 83.698 83.478 82.923 82.694 82.493 82.194 81.933 81.553 81.485 81.213 80.906 80.809 80.643 80.418 79.889 79.137 78.971 81.011 81.888 82.407 80.992 79.749 78.796 78.558 78.335 78.076 77.795 77.566 77.411 77.063 76.656 76.293 76.044 75.788 75.458 75.285 74.994 74.626 74.353 74.009 73.761 73.443 73.118 72.638 72.237 71.811 71.418 71.819 75.987 77.391 78.562 81.344 80.345 76.963 79.483 82.172 73.238 67.029 71.689 77.708 74.536 68.936 68.723 68.662 64.666 64.653 68.664 75.028 78.758 83.851 85.693 76.576 79.493 75.326 72.687 78.789 79.731 79.703 80.033 83.477 81.786 82.176 79.781 79.103 75.561 75.006 75.201 75.884 76.273 84.048 81.941 78.021 79.338 82.319 81.324 84.905 85.403 82.763 80.244 79.021 78.886 80.729 83.071 95.568 91.848 90.14 83.626 91.521 80.183 88.861 96.834 88.298 93.718 88.256 84.228 83.92 85.625 87.516 91.698 94.806 96.341 96.168 95.35 94.486 92.983 86.191 82.079 88.518 89.031 84.453 81.587 75.733 79.501 82.143 80.276 85.522 86.91 84.965 86.821 86.676 86.338 85.202 81.581 65.857 68.551 69.595 76.541 83.033 82.276 81.89 73.538 72.286 61.303 55.658 74.215 75.257 78.247 78.256 77.651 76.303 58.453 47.103 46.426 63.619 59.566 59.416 52.993 44.089 51.32 55.596 50.366 49.934 50.193 49.514 45.47 44.651 41.876 41.893 41.833 41.801 41.758 41.956 41.673 42.158 43.428 42.837 42.461 42.243 42.146 42.276 42.673 43.398 42.301 41.973 42.188 41.345 41.886 42.768 43.376 42.568 42.881 42.626 42.148 42.016 42.238 44.329 45.078 42.838 42.036 42.211 42.605 42.001 41.831 43.068 42.543 44.032 44.809 42.948 43.733 42.428 41.958 40.388 39.853 39.825 39.841 39.823 39.851 39.836 39.876 39.911 39.919 39.966 39.971 40.004 40.004 39.993 39.963 39.946 39.936 39.88 39.811 39.82 39.822 39.789 39.825 39.814 39.841 39.78 39.742 39.712 39.732 39.706 39.61 39.627 39.604 39.591 39.542 39.569 39.557 39.521 39.551 39.491 39.477 39.484 39.546 39.536 39.643 39.746 39.756 39.732 39.795 39.788 39.823 39.791 39.814 39.813 39.837 39.823 39.886 39.921 39.91 39.918 39.948 39.978 40.053 40.078 40.076 40.133 40.152 40.161 40.164 40.191 40.216 40.236 40.228 40.247 40.479 40.386 40.381 40.531 42.438 41.241 40.568 43.326 44.541 43.979 42.851 43.356 43.303 45.325 47.153 45.796 42.214 42.471 42.812 46.637 48.218 48.134 46.173 41.02 40.914 42.431 48.533 46.375 49.293 42.766
85.812 85.652 85.474 85.337 85.232 85.089 84.907 84.707 84.477 84.344 84.214 84.149 84.059 83.992 83.897 83.837 83.842 83.854 83.869 83.972 84.143 84.392 84.626 84.893 84.95 84.929 84.908 84.881 84.875 84.825 84.808 84.826 84.803 84.774 84.862 84.812 84.819 84.834 84.942 85.381 91.396 94.257 94.058 94.727 94.894 94.343 92.593 92.952 94.204 95.12 95.975 96.019 95.139 94.439 95.207 96.269 97.368 97.978 97.73 97.519 97.265 96.878 88.223 84.62 85.006 84.693 84.433 84.396 84.359 84.435 84.408 84.345 84.335 84.313 84.316 84.25 84.297 84.3 84.347 84.856 84.505 84.265 83.939 84.433 84.718 84.405 84.821 83.647 82.952 83.431 84.352 84.426 84.766 84.001 83.23 83.428 84.029 84.071 84.453 84.668 84.666 84.536 84.043 83.721 83.531 83.475 83.001 82.743 82.579 82.316 82.036 81.743 81.351 81.135 80.981 80.688 80.589 80.436 80.203 79.825 78.929 78.661 80.058 80.913 82.026 80.788 79.661 78.541 78.237 77.874 77.696 77.535 77.216 76.931 76.548 76.376 76.168 75.823 75.496 75.348 74.964 74.636 74.213 73.964 73.656 73.527 73.153 72.738 72.375 71.933 71.404 71.468 75.401 78.705 74.44 81.389 80.325 75.494 74.072 80.633 69.607 67.273 66.596 69.921 74.578 66.175 65.221 67.191 64.566 64.481 66.946 68.678 83.941 85.231 78.631 75.719 79.163 75.438 79.938 75.126 78.516 78.569 82.781 83.643 81.581 81.196 77.511 80.076 75.645 75.128 74.978 77.242 76.015 86.831 80.531 77.738 81.499 86.421 87.241 90.598 85.971 81.421 80.843 79.098 79.908 86.763 83.843 81.946 88.976 94.902 96.696 93.866 93.178 87.928 86.968 92.838 93.788 89.111 95.109 91.388 92.873 92.279 94.783 94.288 93.034 93.558 95.508 89.583 92.818 87.386 89.103 85.841 89.314 90.248 81.349 74.756 69.368 78.466 75.727 84.125 84.683 86.116 85.736 85.597 85.731 79.232 82.235 80.184 83.112 80.384 79.803 81.531 82.067 80.935 80.166 78.901 53.533 55.196 76.282 77.446 77.622 77.469 76.551 75.143 58.539 46.499 49.793 58.451 58.283 63.266 58.518 50.893 56.871 58.266 55.216 42.288 42.116 42.828 42.006 41.956 41.773 41.751 41.641 42.373 41.664 41.904 42.858 42.568 42.543 41.751 42.863 41.726 42.173 42.634 42.131 42.88 42.858 43.073 42.642 42.188 42.015 42.946 42.248 41.598 42.376 43.006 43.078 40.699 42.956 41.943 42.646 41.421 41.518 42.398 42.223 42.376 42.222 42.451 43.033 42.878 43.34 42.666 42.053 42.895 43.338 43.066 40.958 40.316 39.801 39.749 39.783 39.79 40.047 39.836 39.848 39.858 39.906 39.901 39.924 39.939 39.919 39.926 39.871 39.848 39.796 39.759 39.751 39.795 39.785 39.776 39.77 39.763 39.724 39.691 39.676 39.676 39.603 39.826 39.57 39.559 39.483 39.517 39.498 39.513 39.531 39.446 39.484 39.499 39.487 39.568 39.613 39.703 39.726 39.781 39.761 39.756 39.766 39.756 39.742 39.769 39.794 39.783 39.848 39.893 39.941 39.925 39.963 39.973 40.008 39.997 40.017 40.055 40.083 40.085 40.113 40.135 40.163 40.206 40.226 40.268 40.265 40.323 40.351 40.668 45.083 45.665 45.141 44.366 44.973 45.783 45.725 44.328 45.223 46.773 47.082 48.148 43.561 41.93 40.95 41.558 45.609 44.971 44.228 41.711 40.898 43.595 48.536 46.9 45.428 45.001
85.787 85.627 85.494 85.364 85.242 85.087 84.912 84.734 84.534 84.402 84.259 84.192 84.087 84.019 83.922 83.859 83.784 83.727 83.672 83.691 83.855 84.045 84.29 84.613 84.868 84.958 84.886 84.874 84.836 84.828 84.791 84.764 84.771 84.791 84.799 84.832 84.877 84.942 84.938 84.838 91.669 94.635 95.353 95.687 95.514 94.644 93.732 93.292 93.851 94.812 95.542 95.59 95.188 94.546 91.871 96.213 96.97 97.143 96.791 93.58 90.568 86.11 84.715 84.904 84.658 84.407 84.35 84.323 84.35 84.328 84.32 84.357 84.334 84.333 84.317 84.308 84.36 84.398 84.533 84.154 84.607 83.538 83.58 84.873 84.261 84.698 83.833 83.056 83.033 84.176 84.441 84.446 83.538 83.108 84.021 84.338 84.083 84.599 84.766 84.671 84.544 84.123 83.726 83.806 83.556 83.551 83.33 82.913 82.731 82.511 82.206 81.852 81.42 81.061 80.903 80.741 80.568 80.383 80.158 79.946 79.593 79.011 78.356 78.776 79.798 80.758 80.722 79.413 78.333 77.796 77.613 77.443 77.143 76.878 76.616 76.281 76.039 75.76 75.844 75.451 75.131 74.519 74.205 73.841 73.63 73.446 73.124 72.752 72.509 71.942 71.938 72.793 76.31 78.099 73.161 77.084 77.71 69.735 67.918 67.426 67.191 69.446 68.838 66.251 69.888 68.868 65.241 65.94 64.954 65.741 72.621 71.518 76.45 72.04 75.618 84.983 76.033 74.108 73.908 78.301 80.673 79.346 79.438 78.733 75.473 76.656 78.683 78.001 76.325 80.371 84.418 78.891 80.117 82.613 80.413 85.876 83.151 85.368 93.071 92.973 89.177 85.811 82.981 80.701 96.196 87.806 92.301 90.554 89.861 92.901 93.648 94.053 91.998 92.903 87.591 91.186 92.847 91.351 96.501 96.131 87.591 90.028 93.583 94.778 94.625 95.486 92.873 95.284 93.486 88.176 87.878 89.129 87.274 84.691 88.318 80.946 71.232 80.752 79.753 85.56 73.941 81.986 80.89 83.33 77.488 83.673 82.769 83.741 83.131 81.565 80.251 81.273 81.959 80.728 80.098 72.391 66.822 56.399 72.089 75.963 76.198 75.523 69.901 61.438 52.391 46.55 57.481 59.615 61.359 60.875 56.446 60.498 59.914 53.857 48.668 42.298 42.083 41.951 41.891 41.811 41.661 42.093 42.613 42.911 41.761 42.118 42.028 42.158 41.533 41.903 42.695 41.698 43.238 43.503 42.783 42.006 41.336 42.286 41.689 41.206 41.415 41.934 41.853 42.158 42.051 42.847 42.031 41.416 41.711 42.468 42.246 42.45 41.176 42.303 41.703 42.368 44.653 44.283 43.659 43.616 42.206 41.513 42.111 42.774 43.29 43.131 42.63 42.253 42.421 40.568 39.796 41.192 42.298 39.831 39.788 39.951 39.839 39.831 39.891 39.862 39.873 39.906 39.826 39.818 39.771 39.711 39.707 39.729 39.72 39.732 39.726 39.715 39.688 39.671 39.68 39.626 39.616 39.623 39.576 39.527 39.512 39.471 39.469 39.481 39.46 39.448 39.453 39.471 39.528 39.551 39.591 39.664 39.675 39.734 39.713 39.716 39.683 39.681 39.712 39.717 39.706 39.767 39.808 39.893 39.955 39.96 39.976 39.978 40.003 39.957 39.959 39.973 39.998 39.978 40.006 40.106 40.098 40.15 40.161 40.164 43.172 41.597 41.562 44.847 46.596 46.943 46.278 44.963 45.785 45.633 45.177 45.316 44.483 47.126 48.758 50.073 46.561 42.531 41.306 42.295 45.578 47.268 45.005 41.981 40.917 44.07 48.311 47.685 45.095 46.079
85.714 85.554 85.434 85.347 85.219 85.109 84.959 84.774 84.599 84.472 84.319 84.214 84.124 83.969 83.854 83.752 83.694 83.597 83.524 83.495 83.55 83.699 83.967 84.327 84.704 84.941 84.952 84.916 84.813 84.778 84.736 84.733 84.761 84.808 84.767 84.752 84.792 84.834 84.889 84.83 88.669 94.377 95.395 96.159 95.828 94.976 93.888 93.009 92.482 94.493 94.77 94.473 94.285 93.944 93.159 93.211 90.543 88.98 84.609 84.608 84.604 84.58 84.583 84.748 84.43 84.373 84.334 84.327 84.303 84.306 84.333 84.335 84.323 84.355 84.624 84.845 84.54 84.19 83.97 84.205 85.663 84.68 83.229 84.64 83.781 83.459 83.157 83.316 83.126 83.193 84.213 83.623 83.706 84.068 83.729 84.443 84.623 84.666 84.54 84.183 83.96 83.734 83.541 83.441 83.426 83.726 83.616 83.071 82.753 82.49 82.248 81.983 81.669 81.248 80.888 80.694 80.573 80.428 80.161 79.876 79.799 79.518 79.071 78.253 78.629 80.113 81.597 81.144 80.016 77.934 77.521 77.398 77.123 76.852 76.523 76.256 75.933 75.681 75.536 75.467 74.926 74.618 74.26 73.933 73.561 73.321 73.158 72.623 72.313 71.831 71.444 75.231 78.608 79.922 79.611 77.908 75.525 74.633 79.023 73.438 67.071 66.943 67.362 76.757 73.653 72.696 65.123 65.272 64.847 69.586 73.001 80.4 78.043 72.446 74.966 76.666 75.838 77.163 75.789 75.579 78.569 81.671 78.408 77.753 76.319 78.261 78.318 77.39 75.609 84.046 79.108 86.868 82.466 81.873 87.788 89.693 86.536 87.403 92.468 92.476 87.408 88.366 84.722 84.83 90.771 92.736 96.473 96.056 93.236 93.696 92.183 94.223 99.098 98.776 90.243 80.323 78.969 90.49 96.476 95.996 81.813 87.183 84.018 91.776 95.571 93.151 91.376 92.966 84.982 91.991 90.332 89.8 86.599 82.436 76.746 86.487 85.675 86.008 81.106 87.451 80.276 77.957 85.085 76.477 84.166 83.242 82.418 80.601 80.814 78.391 75.743 80.777 80.523 78.906 70.633 68.394 60.089 71.502 74.274 72.213 73.434 71.131 61.649 55.843 50.026 50.306 49.716 57.76 59.533 58.046 61.916 63.278 57.756 58.428 49.643 42.136 42.014 41.948 41.816 41.659 41.583 42.616 42.514 42.704 41.538 42.23 42.026 42.345 42.063 41.658 41.973 42.241 42.444 42.558 41.518 41.871 41.857 42.008 41.928 41.728 41.408 41.588 42.166 41.678 42.053 43.023 42.408 43.141 41.593 42.377 42.221 42.816 41.974 41.843 41.612 42.111 43.97 44.633 41.788 43.343 42.43 41.305 41.958 42.091 42.091 42.429 42.916 42.668 42.271 41.853 41.348 42.623 42.747 41.243 41.206 40.763 40.46 39.831 39.826 39.81 39.821 39.861 39.809 39.798 39.734 39.691 39.681 39.693 39.668 39.698 39.697 39.695 39.654 39.655 39.606 39.604 39.615 39.546 39.551 39.51 39.464 39.441 39.451 39.475 39.476 39.449 39.442 39.463 39.488 39.543 39.608 39.637 39.668 39.643 39.658 39.656 39.656 39.64 39.637 39.649 39.706 39.784 39.831 39.876 39.88 39.881 39.871 39.903 39.881 39.904 39.905 39.891 39.901 39.961 40.032 39.987 40.046 40.105 40.286 41.768 47.351 45.601 44.959 43.921 47.851 47.308 45.944 45.496 45.646 45.636 45.013 44.465 43.281 44.506 46.814 47.769 45.818 41.582 42.556 42.813 43.779 45.374 46.239 44.46 40.945 43.121 50.01 51.155 50.423 50.103
