ncols 440
nrows 32
xllcorner    427096
yllcorner    541630
cellsize     2
NODATA_value -9999
59.815 59.683 59.555 59.428 59.353 59.4 60.103 59.653 60.208 59.68 59.82 62.063 66.113 67.025 67.865 67.918 67.053 66.26 62.843 60.653 59.583 60.035 60.658 60.1 59.145 58.98 58.958 58.96 58.885 58.87 58.713 58.58 58.69 58.783 57.978 57.62 57.365 56.738 56.773 57.133 54.41 51.023 53.128 55.503 52.245 43.995 47.798 42.4 42.686 42.193 42.164 41.814 41.892 41.795 41.933 40.811 38.884 40.3 40.539 39.004 38.841 40.086 40.73 41.658 43.125 42.778 40.067 39.015 39.652 42.782 43.276 42.546 44.089 43.647 43.524 46.518 46.685 46.222 43.047 42.859 43.571 46.088 47.237 47.034 44.403 39.494 44.072 41.764 45.119 46.757 44.2 42.162 42.353 44.17 45.31 45.769 45.115 45.829 44.76 47.06 49.093 48.139 46.516 47.52 49.607 50.475 57.645 53.907 48.496 45.978 45.025 43.61 41.536 39.594 37.939 36.735 37.388 38.598 40.478 41.823 45.825 49.463 49.36 49.523 49.868 50.21 50.193 50.675 52.86 53.963 54.86 53.99 54.123 54.06 53.935 54.108 54.108 54.085 54.048 54.075 54.093 54.093 54.12 54.133 54.135 54.17 54.168 54.185 54.18 54.188 54.16 54.118 54.113 54.073 54.053 54.04 54.033 53.97 53.928 53.94 53.935 53.893 53.928 53.935 53.948 53.938 53.93 53.968 53.975 53.94 53.928 53.875 53.873 53.885 53.893 53.885 53.885 53.888 53.913 53.925 53.92 53.895 53.868 53.835 53.845 53.865 53.893 53.948 53.968 53.95 53.978 53.985 53.985 54.015 53.97 53.968 53.988 53.945 53.963 53.923 53.908 53.913 53.913 53.91 53.9 53.87 53.86 53.828 53.825 53.793 53.755 53.8 53.895 54.015 53.995 53.823 53.3 53.533 54.23 53.34 53.255 53.238 53.248 53.273 53.28 53.658 58.625 59.983 59.605 57.908 57.328 57.068 55.313 52.943 52.718 52.855 53.155 52.73 52.7 52.703 52.85 53.158 53.078 52.875 56.215 59.87 59.643 59.34 58.335 57.398 57.578 56.628 54.627 57.57 54.825 53.438 53.77 55.22 57.1 56.233 53.315 52.853 53.268 53.757 53.048 53.065 53.678 53.568 53.688 54.017 53.833 52.962 52.388 52.327 52.335 52.355 52.35 52.52 53.322 55.735 57.86 55.06 52.528 53.655 52.748 52.505 52.413 52.37 52.493 52.575 52.493 52.772 53.74 57.712 59.408 56.565 60.14 60.895 58.46 57.555 54.735 53.147 53.182 53.165 53.137 53.182 53.382 53.437 53.507 53.605 53.592 53.632 53.795 53.767 53.82 53.92 54.007 54.052 54.315 54.327 55.615 59.79 59.225 55.85 55.325 57.462 56.067 54.895 54.665 58.775 60.962 62.067 62.667 61.56 56.657 54.72 54.742 54.985 54.755 54.942 55.05 55.647 55.805 56.035 56.105 57.567 56.707 57.347 59.645 60.397 61.252 60.457 58.072 56.517 56.577 56.587 56.577 56.595 56.807 56.712 56.717 56.625 56.802 57.285 57.597 57.655 61.98 64.16 64.325 62.175 60.505 63.415 64.505 65.347 65.752 64.867 63.302 60.735 57.16 57.587 56.535 56.435 56.297 56.157 56.345 56.31 56.29 56.352 56.375 56.317 56.355 56.442 56.397 56.427 56.657 60.097 67.462 69.282 64.617 60.86 60.555 61.112 61.057 60.697 59.022 58.07 58.07 58.582 58.74 57.905 58.197 58.322 58.182 58.29 58.18 58.197 58.205 58.33 58.47 58.937 59.11 61.675 64.525 66.205 65.792 65.86 62.25 60.58 59.707 59.835 59.922 60.48 60.5 60.522 60.792 61.232 61.755 62.29 62.94 63.53
59.843 59.708 59.603 59.493 59.383 59.305 59.348 59.683 60.013 59.655 59.668 59.75 61.038 65.333 66.98 67.313 66.483 64.46 62.785 61.868 60.34 60.855 60.255 59.36 58.953 58.958 58.933 59.003 58.873 58.77 58.708 58.733 58.548 58.258 58.723 58.468 57.618 57.375 55.905 54.92 53.39 55.288 51.763 51.04 46.553 44.318 43.4 42.983 42.695 42.36 42.162 41.457 41.011 40.674 41.44 41.598 41.166 39.503 38.823 38.812 38.829 38.946 40.551 44.623 45.213 43.183 42 41.414 43.388 41.111 41.686 46.515 49.432 52.001 52.874 50.005 50.644 49.846 41.031 42.133 44.143 42.932 46.96 47.854 47.198 42.07 42.123 46.954 45.305 46.741 45.117 43.947 44.052 48.993 51.731 45.785 46.233 45.345 45.386 46.226 49.022 47.186 47.297 47.836 50.72 48.856 50.055 48.89 49.142 46.15 44.282 43.309 41.71 39.59 38.003 37.233 37.645 38.67 41.435 43.068 45.088 51.27 53.853 53.213 49.993 50.61 50.703 50.095 52.423 53.695 53.79 53.983 55.12 54.565 54.223 54.178 54.205 54.12 54.103 54.155 54.163 54.155 54.14 54.173 54.19 54.19 54.2 54.223 54.228 54.193 54.158 54.143 54.153 54.113 54.075 54.078 54.048 54.005 53.948 53.94 53.96 53.935 53.968 53.95 53.943 53.948 53.943 53.973 53.993 53.963 53.958 53.913 53.893 53.948 53.945 53.935 53.923 53.898 53.935 53.96 53.925 53.915 53.903 53.89 53.908 53.96 53.99 54.018 54.035 54.065 54.06 54.04 54.038 54.06 54.028 54.033 54.05 54.008 54.04 54 53.985 53.988 53.995 53.973 53.973 53.935 53.908 53.895 53.9 53.86 53.828 53.868 53.835 53.74 53.798 53.973 53.653 53.845 53.81 53.275 53.3 53.273 53.275 53.28 53.315 56.823 59.74 59.903 58.945 56.713 55.915 56.348 56.635 53.445 53.423 53.608 53.065 52.913 52.78 52.815 52.813 52.813 52.785 52.76 59.063 61.37 61.183 61 60.71 60.465 60.258 59.993 59.807 59.57 58.255 57.35 56.877 57.835 58.85 57.548 53.178 52.83 54.158 58.13 53.257 56.055 55.145 53.87 54.252 53.2 54.425 53.822 53.743 53.9 53.312 52.533 53.145 52.4 52.483 56.493 57.84 55.157 52.7 53.397 53.16 53.388 52.532 52.397 52.722 53.077 52.818 52.535 53.252 57.623 58.083 57.48 56.752 61.095 59.695 58.29 57.123 53.123 53.135 53.102 53.175 53.215 53.255 53.465 53.455 53.55 53.59 53.68 53.74 53.75 53.827 53.822 53.89 53.987 54.18 54.27 56.02 60.07 60.53 59.462 55.827 55.302 55.63 54.83 54.807 54.907 57.99 61.092 62.155 61.515 60.097 55.627 55.25 55.102 54.765 54.87 55.15 55.522 55.862 56.057 56.187 56.442 56.915 57.007 59.092 60.017 60.867 60.547 59.292 56.532 56.597 56.817 57.122 56.562 56.617 56.967 57.12 57.125 56.975 57.055 56.927 57.155 61.47 64.472 64.905 63.797 64.16 64.887 65.587 65.762 65.035 64.105 60.87 57.285 58.012 57.547 56.577 56.465 56.307 56.19 56.29 56.35 56.39 56.5 56.512 56.492 56.432 56.385 56.437 56.45 56.555 60.39 64.315 63.815 60.522 57.735 59.95 60.682 61.535 62.745 62.605 61.41 62.337 62.342 61.21 58.192 58.057 58.045 58.007 58.002 58.052 58.102 58.145 58.285 58.527 59 59.16 64.147 66.01 66.722 66.262 65.887 61.747 59.667 59.737 59.817 60.25 61.845 60.525 60.617 60.875 61.362 61.902 62.465 63.107 63.715
59.825 59.775 59.645 59.543 59.415 59.265 59.248 59.438 60.073 59.66 59.615 59.623 60.463 62.79 65.203 66.433 64.33 62.635 62.158 60.973 62.56 59.958 61.553 60.72 59.568 58.913 58.87 58.79 58.763 58.708 58.618 58.55 58.42 58.22 58.06 58.045 58.293 57.683 58.085 55.508 54.733 54.458 50.28 48.563 46.915 46.828 47.03 45.19 44.505 44.143 43.085 42.634 40.756 40.404 46.692 42.303 40.332 40.069 39.518 39.571 39.895 40.705 41.729 43.499 45.28 44.696 44.408 44.119 44.43 43.835 43.683 45.186 53.228 52.169 61.253 58.261 54.974 50.999 45.427 46.57 44.644 44.961 46.849 47.796 47.26 44.726 47.997 49.388 48.755 47.557 47.24 49.266 49.567 58.308 56.83 48.589 47.191 46.296 46.391 47.738 56.475 51.895 48.244 46.98 51.208 49.343 50.727 50.348 48.988 47.535 44.035 42.783 42.098 40.803 39.6 38.443 38.385 39.368 41.053 42.86 46.118 48.73 50.205 49.4 48.885 50.978 49.963 49.24 50.52 51.398 53.218 54.15 54.46 54.39 54.195 54.203 54.265 54.188 54.195 54.183 54.2 54.203 54.203 54.208 54.21 54.208 54.218 54.225 54.228 54.218 54.188 54.168 54.16 54.145 54.135 54.118 54.063 54.025 53.988 53.995 53.99 53.97 53.973 53.935 53.955 53.968 53.97 54 54.008 53.998 53.975 53.933 53.95 53.955 53.975 53.943 53.953 53.958 53.98 53.968 53.955 53.94 53.95 53.975 54.01 54.07 54.068 54.065 54.093 54.11 54.105 54.1 54.1 54.103 54.09 54.07 54.09 54.07 54.093 54.068 54.058 54.055 54.035 54.008 54.008 54 53.988 53.983 53.95 53.95 53.913 53.888 53.85 53.88 53.84 53.895 54.163 54.178 53.34 53.308 53.328 53.335 53.555 53.32 56.36 59.89 60.778 59.888 57.403 56.005 53.28 54.028 55.958 56.25 53.608 53.173 53.713 53.42 52.98 53.323 53.388 52.928 52.865 52.825 58.65 61 61.24 61.503 61.538 62.12 62.278 61.51 61.318 61.042 60.82 60.625 60.338 60.068 59.847 59.648 58.397 57.62 57.38 57.995 52.847 56.965 55.938 53.33 53.792 54.193 58.095 58.273 53.865 54.278 54.963 54.265 54.39 54.785 54.625 57.46 57.055 53.893 53.088 52.868 53.52 52.653 52.518 52.445 52.755 52.7 52.55 52.733 52.788 54.515 58.243 58.79 58.93 60.61 59.795 61.99 63.173 55.505 53.08 53.42 53.372 53.367 53.282 53.39 53.482 53.54 53.62 53.672 53.81 53.812 53.835 53.85 53.94 54.012 54.145 54.285 55.157 60.495 61.73 59.877 56.33 55.867 55.597 55.407 54.99 54.902 54.807 58.485 61.05 62.032 58.595 55.385 55.18 54.935 54.957 54.982 55.097 55.422 55.815 56.132 56.26 56.33 56.735 56.597 57.08 58.615 59.927 59.177 58.11 57.125 56.937 56.66 56.722 57.392 58.885 57.595 56.855 58.392 59.93 62.43 57.692 56.977 58.27 63.672 64.912 64.797 65.31 66.685 65.877 64.83 63.722 62.8 57.36 57.125 57.547 56.737 56.587 56.445 56.252 56.282 56.372 56.42 56.545 56.64 56.655 56.612 56.465 56.465 56.475 56.492 56.532 56.767 57.055 58.112 58.24 57.985 58.237 57.76 60.61 64.072 64.357 64.48 64.37 64.192 62.647 58.022 58.02 58.037 57.92 57.915 57.932 57.96 58.01 58.635 58.577 59.815 59.51 62.282 64.347 65.995 65.015 62.887 59.925 59.867 59.78 59.842 61.275 62.715 60.605 60.755 61.075 61.587 62.147 62.735 63.327 63.917
59.835 59.79 59.713 59.56 59.453 59.335 59.243 59.26 59.248 60.185 59.985 59.573 59.59 59.588 61.24 64.348 62.265 62.183 60.898 62.728 63.803 61.853 62.935 63.788 64.475 62.285 58.895 58.933 58.685 58.6 58.545 58.463 58.373 58.205 58.105 57.99 57.873 57.343 57.1 56.508 55.643 55.405 52.15 52.183 53.298 54.45 52.545 55.785 56.958 52.47 51.488 52.248 46.703 44.458 52.223 44.153 38.358 38.383 39.128 39.578 41.032 42.616 44.411 44.712 46.038 44.903 44.715 44.662 44.438 44.086 44.241 45.041 51.785 58.341 57.257 57.603 54.187 52.484 48.71 50.319 50.794 54.176 46.832 47.139 47.004 46.165 47.947 50.113 47.882 47.783 48.474 52.606 54.325 55.651 51.592 49.092 48.515 53.033 58.708 51.34 54.075 51.463 48.778 48.498 50.958 53.543 51.665 47.535 47.405 46.888 44.43 43.553 42.97 42.475 41.305 40.705 38.865 40.063 41.05 45.803 47.485 48.188 48.493 48.415 47.803 47.965 48.11 48.745 49.543 50.563 52.875 54.275 54.135 54.015 54.093 54.29 54.275 54.21 54.215 54.208 54.218 54.22 54.235 54.23 54.24 54.24 54.235 54.25 54.253 54.243 54.213 54.183 54.173 54.183 54.195 54.148 54.103 54.075 54.06 54.043 54.02 53.988 53.973 53.965 53.98 54 54.013 54.03 54.04 54.015 54 53.96 54.01 53.993 53.948 53.955 53.968 54.018 53.995 54.01 53.99 53.995 54.01 54.048 54.065 54.098 54.078 54.068 54.098 54.145 54.153 54.125 54.105 54.138 54.115 54.103 54.125 54.153 54.16 54.13 54.125 54.118 54.068 54.053 54.053 54.045 54.045 54.035 54.018 54.025 54.01 53.983 53.91 53.975 54.013 54.025 54.59 53.81 53.323 53.323 53.34 53.44 54.45 53.68 59.25 60.278 61.11 60.85 58.93 55.323 53.22 53.213 54.413 54.78 53.5 54.15 53.5 52.918 52.888 52.97 53.433 53.738 53.388 52.85 57.578 59.448 59.638 59.953 60.22 60.568 60.715 60.943 61.197 61.428 61.572 62.21 61.612 61.56 61.358 61.193 60.958 60.505 60.292 57.285 52.873 59.888 58.722 56.805 56.182 56.765 58.853 58.257 53.75 55.375 57.447 57.438 53.303 53.295 53.4 54.65 55.757 53.083 53.347 52.653 53.645 52.662 52.478 52.435 52.447 52.495 52.583 52.952 52.785 53.25 53.72 56.333 58.095 59.455 59.98 62.525 64.515 57.932 54.525 56.367 54.535 53.415 53.362 53.297 53.402 53.545 53.605 53.762 53.965 53.9 53.892 53.98 54 54.085 54.16 54.292 55.33 59.822 60.925 57.53 55.577 56.017 55.325 55.625 55.28 55.02 54.975 54.837 58.745 57.88 56.852 55.352 55.35 55.257 55.22 55.222 55.567 55.347 55.675 56.017 56.442 56.327 57.052 56.815 56.577 57.117 59.835 59.467 56.867 56.665 56.627 57 57.277 57.702 58.18 56.885 56.885 62.602 64.482 64.445 63.285 59.82 62.997 64.38 65.152 65.725 65.752 65.192 64.567 63.677 61.347 57.477 57.112 57.145 56.795 56.692 56.542 56.322 56.267 56.33 56.427 56.477 56.512 56.527 56.575 56.605 56.515 56.512 56.54 56.562 56.565 56.692 56.957 58.37 59.337 58.1 57.862 57.74 59.452 64.135 64.865 65.612 65.162 64.627 62.177 57.97 58.06 58.065 57.91 57.85 57.827 57.912 57.962 58.16 58.502 59.127 59.272 61.822 63.222 63.382 62.867 59.647 59.7 59.965 59.942 59.912 60.107 61.085 60.692 60.91 61.255 61.785 62.347 62.925 63.51 64.11
59.785 59.72 59.655 59.593 59.5 59.4 59.273 59.18 59.253 59.74 59.738 59.468 59.473 59.473 59.538 59.573 60.98 60.875 60.628 60.383 63.33 62.723 64.06 65.293 65.383 63.94 59.318 58.84 58.763 58.58 58.468 58.4 58.378 58.253 58.963 58.09 57.775 56.963 56.578 56.625 57.513 55.828 55.835 56.108 55.565 55.14 54.17 56.303 55.108 53.755 55.63 54.868 47.04 42.368 39.973 39.368 38.455 38.945 39.455 39.918 40.698 41.418 42.448 43.105 43.33 43.27 43.418 43.758 44.24 44.326 45.338 45.757 45.49 46.005 47.841 49.373 52.662 53.002 48.767 47.247 52.059 48.485 48.147 48.155 47.331 47.148 47.095 50.124 49.055 48.996 49.988 51.654 52.17 51.586 51.333 51.333 50.698 50.943 50.458 50.255 50.923 50.765 50.315 50.748 52.45 54.233 54.105 49.143 47.613 47.798 49.913 45.753 43.49 43.478 44.028 44.903 41.333 40.673 41.34 42.35 44.283 46.19 47.213 47.213 47.25 47.66 47.935 48.325 49.075 56.058 55.983 54.085 54.15 54.11 54.188 54.283 54.228 54.215 54.245 54.273 54.31 54.285 54.278 54.275 54.27 54.263 54.25 54.255 54.275 54.278 54.253 54.22 54.215 54.213 54.22 54.16 54.148 54.123 54.108 54.09 54.073 54.03 54.028 54.03 54.033 54.04 54.053 54.07 54.055 54.025 54.018 54.025 54.025 54.02 54.025 54.015 54.03 54.048 54.043 54.015 54.033 54.035 54.045 54.088 54.12 54.143 54.108 54.123 54.153 54.163 54.185 54.145 54.113 54.178 54.158 54.125 54.15 54.185 54.163 54.18 54.163 54.15 54.123 54.128 54.103 54.1 54.098 54.103 54.105 54.095 54.063 54.015 53.96 53.978 54.11 54.13 54.278 53.32 53.318 53.36 53.395 53.575 53.743 56.513 60.045 61.253 61.118 60.543 55.06 54.168 54.795 53.848 54.733 53.76 53.633 53.658 53.053 52.853 52.87 52.923 53.018 53.128 52.985 52.85 53.06 54.25 53.968 54.845 56.988 57.278 58.23 59.3 59.385 59.865 60.135 60.382 60.568 60.85 61.14 61.305 61.847 61.658 61.583 57.065 52.9 61.502 61.225 61.045 60.8 60.553 60.14 59.735 59.827 57.78 58.985 58.695 53.63 53.07 53.045 53.48 55.595 55.663 55.49 52.825 54.118 53.193 52.68 52.415 52.463 52.475 52.612 53.205 52.708 52.76 52.882 53.853 55.477 58.153 58.972 56.87 57.665 56.208 53.7 55.097 55.387 54.937 53.415 53.432 53.355 53.44 53.56 53.777 53.825 53.812 53.852 53.957 54.075 54.047 54.162 54.21 54.55 54.745 56.475 56.332 55.06 55.232 56.492 54.995 55.697 55.462 55.097 55.085 55.1 56.137 55.267 56.277 58.492 56.892 56.195 55.347 55.542 55.37 55.592 55.885 56.222 56.392 56.415 56.86 57.402 58.03 62.165 57.61 56.617 56.967 57.155 57.212 57.112 57.045 58.547 57.04 57.967 63.65 64.725 64.875 64.032 63.337 64.882 65.417 65.802 65.475 64.835 64.235 63.037 58.747 57.885 57.332 57.077 56.922 56.735 56.6 56.447 56.255 56.367 56.375 56.432 56.46 56.495 56.472 56.482 56.507 56.477 56.537 56.59 56.607 56.592 56.682 56.882 57.152 58.625 58.49 57.892 57.792 59.4 63.642 64.105 64.265 64.232 63.55 62.237 57.932 58.022 57.952 57.692 57.745 57.772 57.837 57.902 58.21 59.51 59.717 60.25 61.745 62.71 62.872 62.11 60.737 62.192 60.67 60.362 60.49 60.292 61.012 60.8 61.08 61.507 62.06 62.622 63.217 63.8 64.355
60.435 59.7 59.668 59.61 59.528 59.425 59.31 59.195 59.693 59.18 59.713 59.493 59.39 59.4 59.408 59.578 61.25 60.418 60.038 61.968 62.738 64.08 65.41 65.588 64.015 60.655 59.028 58.853 58.82 58.658 58.423 58.398 58.343 58.278 58.34 58.058 57.878 57.55 56.898 56.6 56.573 55.84 55.818 56.678 55.483 54.9 54.278 53.37 53.443 55.053 55.465 55.335 50.88 42.99 40.293 39.59 38.895 39.055 39.69 40.128 40.943 41.525 42.348 42.918 43.085 43.51 44.153 44.703 45.425 45.5 46.235 46.548 47.175 47.585 48.233 49.796 47.223 47.41 47.553 47.361 51.192 51.755 52.588 48.745 48.205 50.514 54.385 55.523 51.735 50.883 51.313 52.105 51.998 52.063 52.533 54.448 52.645 51.338 51.238 51.28 51.15 51.04 51.063 51.05 50.935 52.243 52.74 50.573 49.673 48.763 48.518 46.443 44.625 44.015 45.588 43.538 42.983 41.513 42.215 43.105 44.258 45.455 46.573 46.833 46.928 47.353 47.718 48.243 49.193 50.295 52.58 54.143 54.243 54.193 54.465 54.43 54.225 54.253 54.273 54.298 54.345 54.305 54.305 54.295 54.305 54.263 54.28 54.278 54.295 54.303 54.28 54.255 54.25 54.258 54.26 54.213 54.185 54.155 54.168 54.113 54.095 54.063 54.078 54.07 54.075 54.068 54.09 54.073 54.073 54.063 54.068 54.088 54.085 54.088 54.063 54.068 54.075 54.065 54.035 54.038 54.053 54.058 54.09 54.13 54.16 54.165 54.19 54.205 54.195 54.203 54.22 54.178 54.195 54.245 54.21 54.185 54.17 54.205 54.205 54.193 54.195 54.19 54.168 54.155 54.163 54.148 54.145 54.13 54.13 54.13 54.133 54.083 54.013 54.03 54.368 54.215 53.423 53.343 53.36 53.363 53.948 53.903 54.76 59.198 60.163 60.673 60.655 59.523 53.81 54.998 56.105 55.773 55.163 53.485 53.948 53.41 52.923 52.888 52.903 53.08 52.98 52.973 52.908 52.905 52.848 52.825 52.78 52.858 52.965 52.948 53.46 53.988 53.412 55.125 55.853 56.615 58.237 58.807 59.43 59.8 60.042 60.16 60.43 54.752 52.888 61.585 61.688 62.658 61.862 61.752 61.79 61.533 61.298 61.075 60.81 59.717 53.58 53.105 53.038 53.507 55.48 55.645 55.693 53.495 53.03 53.625 52.763 52.6 53.158 52.505 52.653 52.693 52.662 53.408 56.3 56.127 55.053 53.897 54.625 53.432 53.61 53.255 53.31 57.435 58.74 54.355 53.445 53.41 53.445 53.47 53.637 53.745 53.752 53.777 53.86 53.995 54.035 54.095 54.145 54.297 54.485 54.74 54.81 54.867 55.032 55.015 55.315 56.265 55.382 55.947 55.227 55.24 55.257 55.57 56.332 59.98 59.64 58.865 57.932 55.395 55.5 55.57 55.542 55.76 56.037 56.23 56.312 56.642 59.275 58.957 59.925 57.92 57.182 57.095 57.27 56.952 59.75 61.81 63.675 57.537 57.61 61.052 64.272 65.13 64.85 65.407 66.127 65.602 65.005 64.5 63.675 62.182 57.707 57.712 57.435 57.39 56.94 56.787 56.677 56.465 56.3 56.282 56.357 56.355 56.38 56.425 56.517 56.492 56.515 56.502 56.512 56.55 56.595 56.642 56.68 56.695 56.805 57.035 57.702 58.73 58.517 57.915 59.317 60.62 61.492 61.787 61.3 59.195 58.48 57.702 57.815 57.832 57.632 57.637 57.69 57.77 57.852 57.925 58.925 59.315 63.352 62.645 61.787 60.587 60.205 60.132 61.727 61.155 61.322 60.53 60.732 60.99 60.995 61.302 61.795 62.32 62.845 63.437 64.012 64.595
61.053 60.25 59.628 59.548 59.493 59.393 59.305 59.225 59.09 59.175 59.368 59.59 59.253 59.275 59.388 60.478 62.74 60.143 61.465 62.603 64.94 65.553 65.698 64.03 60.725 58.858 58.813 58.758 58.628 58.415 58.383 58.343 58.315 58.265 58.183 58.118 59.468 60.008 57.9 57.133 56.565 56.248 55.98 56.365 55.283 54.748 54.405 53.885 55.208 57.21 56.663 52.695 48.045 43.628 40.823 39.91 39.563 39.168 39.963 40.22 40.92 41.565 42.125 42.618 43.148 44.12 44.528 45.053 45.575 46.005 46.59 47.45 49.883 54.483 57.15 54.815 48.703 48.875 48.59 49.298 53.303 57.965 58.755 55.25 52.113 53.075 55.36 54.018 51.72 52.138 52.363 52.583 52.955 53.42 53.558 54.385 54.475 53.135 53.843 53.63 53.22 53.075 52.57 52.043 52.588 51.835 51.315 50.933 50.543 49.808 48.553 47.223 45.955 44.63 44.593 45.52 43.18 42.923 42.53 43.675 45.093 45.975 46.575 46.778 46.938 47.27 47.765 53.145 59.715 56.41 59.35 66.888 60.79 54.253 54.448 54.455 54.25 54.3 54.318 54.345 54.355 54.333 54.305 54.308 54.285 54.273 54.27 54.295 54.34 54.343 54.31 54.298 54.29 54.29 54.24 54.235 54.2 54.185 54.195 54.165 54.12 54.133 54.108 54.088 54.095 54.103 54.128 54.128 54.095 54.095 54.125 54.12 54.118 54.118 54.11 54.12 54.085 54.08 54.073 54.068 54.088 54.135 54.15 54.18 54.19 54.223 54.23 54.228 54.203 54.21 54.23 54.245 54.238 54.265 54.275 54.243 54.225 54.25 54.263 54.248 54.223 54.238 54.225 54.193 54.22 54.203 54.218 54.208 54.193 54.198 54.193 54.123 54.11 54.138 54.993 53.518 53.383 53.378 53.37 53.403 53.86 53.368 58.028 60.015 60.068 60.035 59.583 58.915 58.62 56.91 55.78 54.398 54.013 53.413 53.745 53.178 52.945 52.945 52.913 53.878 57.663 56.735 53.268 52.98 52.94 52.92 52.883 52.818 52.805 53.443 53.705 53.053 52.765 52.89 52.952 52.955 53.145 53.385 53.66 55.377 54.88 56.97 57.565 53.64 55.908 59.978 60.347 60.575 60.743 60.978 61.272 61.502 61.923 62.25 61.827 60.72 53.483 53.118 53.025 53.077 55.593 55.653 55.717 54.36 52.96 53.855 52.98 52.5 52.675 52.585 52.61 52.678 52.64 53.94 63.013 62.327 55.07 53.06 52.978 53.892 54.825 53.51 55.537 56.017 58.792 53.962 53.442 53.515 53.507 53.52 53.56 53.785 53.76 53.775 54.337 56.042 55.927 54.292 54.162 54.227 54.342 54.535 54.735 54.885 54.977 55.01 55.197 55.717 56.295 55.582 55.882 55.485 55.54 55.835 57.955 59.38 60.1 59.52 58.597 56.832 55.685 55.847 56.265 55.7 55.91 56.082 56.237 56.54 58.362 57.692 57.48 57.187 56.9 57.067 57.797 58.907 63.427 64.94 64.517 62.915 60.845 63.6 64.55 65.447 65.66 65.567 65.215 64.637 63.98 61.697 58.047 57.795 57.232 57.58 57.432 56.94 56.872 56.69 56.55 56.297 56.272 56.33 56.352 56.322 56.367 56.407 56.41 56.437 56.487 56.457 56.542 56.565 56.63 56.63 56.657 56.722 56.79 56.927 57.075 58.197 58.467 57.672 57.885 57.94 57.69 57.907 57.735 57.7 57.707 57.717 57.74 57.602 57.522 57.547 57.617 57.697 57.805 57.887 58.362 59.277 62.132 65.86 65.692 64.435 59.182 59.75 60.38 61.087 61.265 61.64 63.13 64.362 61.535 61.562 62.047 62.572 63.07 63.665 64.235 64.835
59.838 61.135 59.805 59.543 59.438 59.408 59.29 59.223 59.13 59.095 59.11 59.12 59.12 59.205 60.138 61.238 60.773 59.27 60.193 63.825 65.523 66.875 66.43 65.155 61.193 58.833 58.898 58.64 58.465 58.433 58.38 58.358 58.338 58.288 58.19 58.205 60.678 61.195 58.698 57.11 57.078 56.433 55.81 55.648 55.523 54.728 54.355 54.07 53.568 54.025 54.873 51.94 49.813 47.105 41.823 40.488 39.723 39.383 40.045 40.573 40.91 41.395 41.923 42.473 43.145 43.798 44.373 45.165 46.015 46.983 49.42 49.06 52.55 57.298 56.758 52.97 51.223 51.633 51.383 51.84 53.038 58.053 61.085 58.173 52.903 52.215 51.978 52.403 54.075 53.21 53.458 53.778 54.485 54.77 54.863 55.813 55.198 54.5 54.508 54.91 54.598 53.935 53.855 53.375 54.528 54.948 52.64 51.953 51.19 50.655 50.043 48.7 47.24 45.643 44.855 45.678 45.448 42.038 42.968 44.433 46.845 48.465 47.69 47.235 47.33 49.273 48.335 53.973 58.163 52.923 57.848 55.468 60.663 54.713 54.58 54.478 54.33 54.36 54.348 54.37 54.38 54.36 54.343 54.323 54.3 54.283 54.29 54.315 54.335 54.34 54.335 54.32 54.328 54.308 54.288 54.268 54.225 54.223 54.208 54.183 54.175 54.168 54.155 54.148 54.148 54.133 54.148 54.145 54.108 54.168 54.155 54.155 54.15 54.148 54.153 54.145 54.103 54.118 54.105 54.11 54.155 54.2 54.195 54.208 54.205 54.26 54.245 54.258 54.268 54.275 54.303 54.288 54.293 54.28 54.305 54.305 54.278 54.298 54.298 54.3 54.298 54.285 54.265 54.245 54.23 54.258 54.27 54.285 54.26 54.253 54.218 54.208 54.183 54.95 54.423 53.393 53.36 53.41 53.433 53.393 53.723 57.995 60.093 60.365 59.473 59.45 58.57 57.838 58.17 56.263 54.623 53.433 53.418 53.458 54.425 55.625 53.685 53.57 53.023 56.533 59.71 59.663 54.353 52.958 52.973 52.998 52.998 52.958 52.93 52.943 53.233 53.04 52.855 53.162 53.825 52.98 53.182 53.44 52.892 53.163 52.888 52.947 52.938 52.885 53.04 54.227 56.202 55.535 58.18 58.612 58.822 60.005 60.252 60.472 60.695 60.882 53.555 53.145 53.002 53.028 55.48 55.66 55.7 55.498 53.09 53.708 53.44 52.667 52.577 52.57 52.605 52.67 52.658 54.327 55.807 58.118 56.143 53.22 53.125 53.12 53.298 53.535 55.977 53.46 54.977 53.467 53.49 53.42 53.545 53.57 53.555 53.575 53.662 53.74 55.965 61.102 59.595 55.147 54.172 54.282 54.357 54.44 54.605 54.755 54.872 54.955 55.082 55.212 55.895 56.532 55.452 55.59 56.122 55.627 56.215 58.512 59.53 60.08 59.357 57.767 56.532 55.677 56.307 56.697 55.832 55.945 56.13 56.342 57.082 57.95 57.21 57.79 58.08 61.047 58.485 57.405 62.092 64.502 64.925 64.167 64.572 65.8 65.7 65.565 65.225 64.682 65.05 63.607 59.342 57.675 57.515 57.142 57.295 57.257 56.982 56.96 56.84 56.56 56.347 56.28 56.305 56.305 56.28 56.285 56.327 56.342 56.35 56.397 56.377 56.465 56.502 56.58 56.6 56.657 56.732 56.7 56.755 56.842 56.962 57.265 58.155 58.202 57.515 57.495 57.625 57.675 57.687 57.735 57.69 57.695 57.717 57.467 57.422 57.482 57.57 57.695 57.812 57.932 58.797 60.55 65.252 66.327 66.277 64.912 59.502 59.825 60.502 60.597 61.162 62.312 62.085 61.79 61.547 61.847 62.312 62.772 63.31 63.867 64.45 65.045
59.633 60.138 61.26 59.48 59.418 59.338 59.258 59.23 59.153 59.038 59.043 59.083 59.398 59.683 60.97 59.375 58.95 59.01 59.855 62.585 65.145 66.618 67.115 66.24 65.073 60.625 58.645 58.455 58.428 58.393 58.4 58.403 58.348 58.278 58.143 58.32 60.375 60.795 58.513 56.955 56.573 56.165 55.808 55.365 54.963 54.658 54.248 53.853 54.085 53.303 52.843 52.388 51.56 52.508 45.43 41.278 40.835 42.375 44.528 45.308 42.188 41.615 42.078 42.68 43.455 44.315 45.568 46.875 47.535 50.758 54.295 57.955 55.313 56.188 52.283 52.345 51.828 51.943 51.9 51.858 51.865 51.873 55.045 54.523 52.825 52.155 52.503 53.585 56.705 56.92 55.198 55.305 55.49 55.473 55.478 55.498 55.4 55.323 55.3 55.308 55.248 55.078 54.655 54.61 56.195 56.133 53.845 53.128 52.24 51.303 50.745 49.803 48.43 47.038 45.633 45.315 44.978 43.488 43.778 48.518 53.75 52.79 49.668 47.878 49.178 53.73 53.315 50.433 51.98 52.993 54.245 54.425 54.478 54.45 54.703 54.513 54.41 54.408 54.39 54.42 54.398 54.38 54.375 54.365 54.338 54.288 54.308 54.325 54.36 54.36 54.345 54.34 54.353 54.33 54.298 54.3 54.268 54.25 54.238 54.208 54.233 54.188 54.168 54.178 54.213 54.218 54.218 54.193 54.2 54.195 54.165 54.205 54.17 54.198 54.145 54.138 54.165 54.143 54.108 54.15 54.19 54.235 54.208 54.18 54.235 54.288 54.268 54.255 54.275 54.3 54.313 54.318 54.313 54.308 54.34 54.34 54.338 54.31 54.35 54.34 54.358 54.328 54.305 54.3 54.283 54.295 54.29 54.318 54.313 54.288 54.285 54.243 54.548 55.393 53.445 53.385 53.443 53.418 53.415 53.425 54.808 59.955 61.005 61.26 59.543 57.74 55.178 53.643 54.255 54.965 53.668 53.413 53.433 53.433 55.355 59.385 59.233 58.935 58.983 58.338 58.748 58.955 53.375 52.905 52.918 52.938 53.52 53.42 52.905 52.898 52.905 52.943 52.932 52.915 52.935 52.935 53.045 53.243 53.04 53.675 53.443 52.855 52.845 52.837 52.865 52.913 52.945 53.002 53.318 53.132 53.23 54.572 55.108 56.243 57.635 57.53 53.503 53.278 53.01 53.07 55.252 55.62 55.7 55.763 54.505 53.41 54.057 52.818 52.55 52.55 52.61 52.615 52.68 52.71 53.548 52.85 52.955 53.02 53.057 53.057 54.108 56.858 55.137 53.22 53.265 53.307 53.452 53.492 53.515 53.592 53.642 53.595 53.67 53.72 56.107 60.292 58.505 54.925 54.272 54.312 54.367 54.47 54.587 54.745 54.88 54.925 54.995 55.167 55.307 56.172 56.532 56.01 57.187 55.785 55.505 56.9 58.727 60.067 60.11 59.24 58.577 55.695 56.07 56.725 56 55.945 56.08 56.282 56.51 58.067 58.7 61.255 63.857 64.095 59.8 58.42 62.642 64.562 65.037 65.212 65.695 66.147 65.29 65.057 64.272 63.485 61.415 57.317 57.612 57.322 57.387 57.047 57.13 56.935 56.922 56.82 56.537 56.342 56.317 56.47 56.37 56.282 56.285 56.295 56.39 56.482 56.475 56.572 56.552 56.495 56.487 56.545 56.632 56.68 56.7 56.715 56.73 56.847 56.932 56.967 57.515 58.515 57.81 57.445 57.582 57.637 57.687 57.685 57.63 57.51 57.42 57.405 57.422 57.487 57.565 57.735 57.782 58.292 58.932 62.28 65.952 66.62 66.172 63.355 59.292 59.972 60.565 60.627 60.685 60.707 61.132 61.422 61.682 62.092 62.552 63.022 63.565 64.115 64.712 65.3
59.595 59.618 60.793 60.558 59.368 59.3 59.263 59.188 59.11 59.02 58.953 58.998 59.033 60.023 60.005 58.955 58.885 58.858 58.863 59.033 61.418 65.56 66.395 66.413 65.07 61.128 58.398 58.43 58.443 58.398 58.413 58.405 58.368 58.265 58.295 59.158 58.505 58.35 57.828 56.963 56.47 56.088 55.715 55.283 54.86 54.478 54.083 53.685 53.388 53.215 52.87 52.593 52.083 51.778 46.45 41.84 40.65 42.625 45.948 46.298 46.43 43.66 42.673 45.433 47.668 47.303 49.723 59.183 58.378 59.908 58.875 55.525 54.883 52.865 52.31 52.705 52.383 52.3 52.28 52.163 52.103 52.1 53.525 52.398 52.433 52.74 53.245 54.665 58.005 57.12 55.938 55.915 55.928 55.87 55.85 55.818 55.78 55.678 55.61 55.575 55.448 55.338 55.213 55.125 54.933 54.835 54.66 54.04 53.28 52.665 51.728 50.708 49.793 48.543 46.978 45.918 45.758 45.245 44.42 45.498 54.343 49.53 48.308 47.67 49.523 49.723 50.983 51.513 52.263 53.478 54.338 54.493 54.515 54.48 54.468 54.448 54.448 54.45 54.438 54.47 54.4 54.438 54.435 54.405 54.408 54.34 54.34 54.363 54.37 54.368 54.383 54.373 54.365 54.328 54.308 54.303 54.288 54.278 54.258 54.255 54.25 54.23 54.208 54.22 54.253 54.258 54.268 54.258 54.24 54.228 54.203 54.238 54.223 54.188 54.16 54.208 54.183 54.175 54.153 54.195 54.223 54.23 54.208 54.235 54.268 54.293 54.29 54.298 54.305 54.33 54.363 54.338 54.33 54.325 54.365 54.39 54.368 54.313 54.365 54.393 54.365 54.363 54.355 54.358 54.313 54.338 54.368 54.358 54.33 54.313 54.308 54.31 55.143 53.825 53.4 53.425 53.45 53.45 53.418 54.358 58.253 60.67 61.6 61.38 60.418 57.9 53.743 53.485 53.425 53.455 53.49 53.408 53.38 53.435 56.743 60.523 60.385 60.26 60.11 59.978 59.838 59.703 52.993 52.958 52.965 52.938 52.98 53.085 52.858 52.815 52.893 53.798 53.415 52.962 53.155 53.075 52.895 52.94 52.92 52.98 52.972 52.972 52.97 52.932 52.95 52.91 52.93 53.47 53.67 52.947 52.945 52.968 52.998 53.05 53.205 53.132 53.208 53.075 53.072 53.085 55.055 55.628 55.678 55.73 55.497 53.373 54.215 53.05 52.577 52.542 52.623 52.625 52.66 52.695 52.76 52.818 52.88 53.028 53.085 53.108 55 61.635 56.897 53.262 53.29 53.302 53.382 53.512 53.572 53.615 53.767 53.705 53.657 53.7 54.285 55.312 54.275 54.157 54.257 54.307 54.407 54.44 54.552 54.727 54.862 54.947 55.03 55.14 55.22 55.657 56.62 55.562 56.42 56.57 55.602 56.03 57.987 59.49 60.302 59.947 58.935 56.432 56.377 56.522 56.545 56.672 56.11 56.237 56.395 56.99 58.502 63.74 64.855 64.765 63.805 63.327 65.25 65.51 65.662 65.8 65.335 65.3 64.407 63.395 62.012 57.79 58.092 57.255 57.415 57.532 57.277 56.92 56.935 56.865 56.707 56.48 56.322 56.357 56.342 56.34 56.33 56.235 56.335 56.507 56.7 56.772 56.787 56.885 56.867 56.807 56.775 56.702 56.615 56.697 56.707 56.74 56.755 56.805 56.96 56.99 57 57.325 57.85 57.765 58.09 57.905 57.52 57.437 57.372 57.422 57.402 57.34 57.385 57.475 57.575 57.717 57.832 59.337 60.292 63.707 66.352 66.95 66.045 62.275 59.285 60.28 60.652 60.662 60.727 60.757 61.46 61.732 61.932 62.405 62.862 63.347 63.867 64.395 64.95 65.535
59.613 59.58 59.663 61.155 59.548 59.26 59.255 59.163 59.125 59.055 58.935 58.928 58.91 59.143 59.02 58.893 58.838 58.823 58.765 58.69 58.633 62.418 65.525 65.065 63.295 58.33 58.375 58.438 58.46 58.445 58.443 58.405 58.38 58.258 58.588 60.885 58.75 58.935 57.295 56.823 56.383 55.978 55.58 55.108 54.733 54.375 53.99 53.588 53.318 53.023 52.938 53.133 54.255 52.82 51.233 47.783 41.088 40.263 42.698 48.91 51.295 44.69 48.775 56.508 54.133 50.378 54.438 58.998 61.885 60.795 56.703 56.788 55.008 56.068 55.863 53.995 52.88 53.158 53.053 52.995 53.59 54.75 56.855 55.708 53.553 54.898 57.82 59.158 58.678 56.403 56.14 56.178 56.118 56.078 56.025 55.968 55.898 55.845 55.75 55.645 55.51 55.365 55.26 55.163 55.093 55.173 56.995 54.763 54.163 53.34 53.328 51.773 50.53 49.848 48.228 46.795 46.488 46.373 45.268 45.093 46.405 46.855 47.028 47.653 48.793 49.978 53.563 52.38 53.195 54.09 54.533 54.583 54.578 54.508 54.56 54.53 54.478 54.495 54.5 54.493 54.485 54.48 54.448 54.458 54.418 54.385 54.405 54.395 54.39 54.405 54.4 54.385 54.36 54.345 54.318 54.313 54.308 54.303 54.285 54.273 54.253 54.258 54.258 54.27 54.308 54.315 54.313 54.293 54.275 54.24 54.233 54.255 54.27 54.218 54.203 54.22 54.22 54.208 54.205 54.243 54.25 54.258 54.238 54.255 54.293 54.313 54.348 54.363 54.353 54.37 54.333 54.335 54.33 54.33 54.375 54.405 54.403 54.36 54.378 54.405 54.403 54.383 54.388 54.385 54.383 54.383 54.415 54.385 54.35 54.363 54.37 54.925 54.263 53.455 53.44 53.503 53.468 53.418 53.47 58.643 59.78 61.228 61.533 60.743 59.578 54.645 54.155 53.88 53.805 54.095 53.785 53.388 53.758 53.773 57.535 60.525 60.663 60.695 60.833 60.793 60.733 58.583 53.055 55.085 56.66 55.16 53.198 53.535 53.138 53.033 52.97 52.993 53.062 52.94 53.45 53.075 52.858 52.87 52.873 53.185 53.665 53.197 52.98 52.987 53.007 52.98 53 53.028 53.042 53.008 53.03 53.025 53.02 53.385 54.04 52.94 52.975 53.05 53.065 53.093 54.785 55.625 55.705 55.743 55.78 53.823 53.675 53.725 52.642 52.593 52.632 52.625 52.7 52.737 52.782 52.895 52.962 53.055 53.112 53.147 53.63 57.112 54.507 53.235 53.297 53.335 53.38 53.482 53.565 53.68 53.67 53.78 53.752 53.707 53.817 53.995 54.112 54.147 54.237 54.347 54.39 54.495 54.577 54.752 54.85 54.902 54.975 55.015 55.162 55.415 55.767 57.21 55.857 56.65 56.822 55.925 56.587 58.43 59.615 60.315 58.607 56.952 56.605 56.372 56.3 56.295 56.382 56.332 56.555 57.315 57.625 61.69 64.305 65.062 64.632 65.09 66.35 65.755 65.377 64.892 64.37 63.607 61.952 59.637 57.152 57.125 57.267 57.955 57.08 57.252 56.902 56.86 56.8 56.692 56.922 56.705 56.35 56.38 56.342 56.337 56.277 56.315 56.565 56.742 57.02 57.027 57.017 57.052 57.057 57.012 56.935 57.352 56.812 56.655 56.725 56.855 56.772 56.815 56.927 57.032 57.02 57.077 57.09 57.165 57.232 57.232 57.255 57.32 57.467 57.385 57.29 57.322 57.395 57.492 57.555 57.662 58.127 59.08 60.76 65.385 66.677 66.86 65.375 60.787 59.962 60.575 60.715 60.757 60.81 60.982 61.677 61.947 62.192 62.677 63.135 63.637 64.15 64.68 65.225 65.775
59.603 59.563 59.583 59.865 60.538 59.233 59.178 59.135 59.095 59.03 58.95 58.863 58.848 58.89 59.21 59.398 58.833 58.808 58.77 58.758 59.765 59.47 61.483 60.835 58.323 58.443 58.478 58.488 58.473 58.463 58.47 58.435 58.378 58.253 58.145 58.495 58.025 57.76 57.558 58.72 56.675 55.985 55.468 54.995 54.518 54.148 53.878 53.403 53.1 52.903 52.92 52.513 52.243 52.36 53.62 44.805 42.173 40.605 41.565 42.86 45.755 47.875 45.463 48.955 52.518 54.323 54.718 63.168 61.08 55.64 55.945 55.308 55.838 57.72 56.75 55.24 53.848 54.63 55.9 55.92 57.563 57.31 57.998 55.613 56.75 58.933 58.525 59.315 57.903 56.645 56.3 56.293 56.288 56.263 56.228 56.1 56.108 56.05 56.508 56.618 55.633 55.448 55.343 55.28 55.228 55.21 55.168 55.065 54.765 53.973 52.998 53.748 51.373 50.195 49.383 47.765 46.943 46.793 46.54 46.698 46.775 46.918 47.393 48.055 49.053 50.138 51.823 52.56 53.915 55.24 54.66 56.988 56.858 54.735 54.74 54.62 54.54 54.528 54.54 54.543 54.54 54.54 54.523 54.498 54.45 54.41 54.42 54.423 54.435 54.428 54.408 54.388 54.36 54.37 54.345 54.345 54.32 54.338 54.33 54.303 54.313 54.333 54.33 54.345 54.35 54.345 54.345 54.345 54.303 54.29 54.28 54.29 54.298 54.26 54.265 54.258 54.238 54.223 54.243 54.26 54.285 54.293 54.308 54.318 54.315 54.37 54.373 54.413 54.41 54.41 54.375 54.375 54.38 54.385 54.385 54.418 54.443 54.44 54.41 54.45 54.423 54.418 54.433 54.44 54.433 54.435 54.438 54.393 54.418 54.42 54.683 55.008 53.54 53.47 53.523 53.53 53.53 53.468 56.22 59.823 60.43 60.423 59.653 58.843 58.655 56.235 54.57 53.59 53.833 54.108 54.163 54.718 55.475 54.478 57.98 59.41 59.553 59.68 59.77 59.928 60.105 56.885 53.075 58.153 60.478 60.26 59.885 59.345 58.903 56.703 56.888 56.07 53.818 53.833 53.347 52.983 53.132 52.943 52.905 52.987 53.44 53.107 52.943 52.97 53.568 53.697 53.007 53.05 53.028 53.035 53.118 53.083 53.088 53.093 53.065 52.962 52.945 52.99 53.022 53.085 54.2 54.417 55.065 53.772 53.495 53.865 53.882 54.112 52.953 52.657 52.64 52.788 53.35 52.908 52.818 52.84 52.95 53.083 53.162 53.165 53.08 53.188 53.197 53.212 53.26 53.33 53.402 53.517 53.585 53.602 53.682 53.862 53.802 53.77 53.8 54.02 54.022 54.085 54.225 54.26 54.407 54.497 54.635 54.77 54.847 54.802 54.95 55.085 55.145 55.232 55.5 56.13 56.432 55.74 57.577 56.832 55.742 56.185 58.752 58.76 56.557 56.532 56.47 56.472 56.315 56.6 58.302 57.657 56.657 59.562 59.937 62.552 64.69 65.18 65.62 65.767 65.665 65.105 65.28 64.047 60.482 59.97 57.352 57.722 57.465 57.667 57.15 57.16 56.817 56.77 56.735 56.712 56.63 56.622 56.84 56.48 56.41 56.375 56.375 56.277 56.31 56.522 56.767 57.072 57.337 57.232 57.212 57.24 57.295 61.125 59.19 57 56.93 56.76 56.765 56.832 56.847 56.86 56.895 57.045 57.08 57.15 57.202 57.257 57.235 57.277 57.285 57.287 57.275 57.247 57.267 57.317 57.4 57.482 57.54 57.632 58.252 60.117 62.717 65.877 66.715 66.525 64.345 60.25 60.302 61.052 61.635 60.825 61.152 62.64 63.865 62.185 62.555 62.99 63.465 63.97 64.465 64.98 65.535 66.102
59.598 59.513 59.578 59.58 60.335 60.245 59.098 59.105 59.048 58.983 58.91 58.833 58.815 58.858 58.968 59.573 59.145 58.763 58.965 59.48 58.955 58.983 58.595 58.733 58.36 58.398 58.443 58.503 58.483 58.483 58.483 58.47 58.395 58.27 58.128 57.955 57.765 57.51 58.178 60.008 56.88 56.995 56.605 55.263 54.428 53.97 53.638 53.23 52.908 52.75 52.64 52.373 52.17 52.225 51.808 46.098 42.02 41.098 41.643 42.288 48.963 61.108 53.475 55.243 52.803 53.388 54.708 56.12 56.855 55.805 55.513 55.588 55.838 56.338 54.86 54.778 56.29 57.193 57.065 56.885 57.285 58.593 57.513 56.385 56.695 57.468 56.78 56.713 56.588 56.595 56.443 56.458 59.995 56.428 56.338 56.288 56.3 56.158 57.01 56.185 55.833 55.733 55.535 55.388 55.333 55.295 55.27 55.208 55.033 54.465 53.518 52.58 51.133 49.988 49.638 48.45 47.335 47.093 46.735 46.36 46.585 47.043 47.575 48.193 49 52.998 57.598 53.165 61.35 56.1 56.925 55.525 55.518 55.035 54.855 54.778 54.618 54.595 54.57 54.59 54.593 54.598 54.608 54.555 54.508 54.473 54.473 54.458 54.458 54.468 54.44 54.408 54.425 54.405 54.39 54.418 54.393 54.378 54.365 54.353 54.363 54.353 54.35 54.385 54.415 54.413 54.393 54.353 54.343 54.34 54.33 54.323 54.31 54.338 54.318 54.32 54.288 54.278 54.285 54.268 54.275 54.308 54.318 54.355 54.38 54.41 54.388 54.438 54.41 54.42 54.375 54.405 54.415 54.435 54.425 54.435 54.465 54.475 54.445 54.473 54.468 54.458 54.458 54.463 54.458 54.468 54.448 54.413 54.47 54.545 55.278 53.865 53.473 53.49 53.553 53.74 54.163 53.825 59.205 60.893 61.348 60.015 58.905 56.963 55.77 57.365 55.633 54.098 53.66 53.573 53.615 53.603 53.563 54.743 55.488 54.908 57.038 57.72 56.953 58.363 58.96 55.553 53.083 60.08 61.845 61.645 61.373 61.118 61.213 60.503 60.425 60.083 59.825 59.37 59.352 57.79 56.05 55.557 55.74 53.568 53.205 53.33 53.465 53.115 53.22 53.083 53.007 53.005 53.045 53.397 54.23 53.173 53.115 53.1 53.112 53.025 52.985 53.05 53.02 53.1 53.142 53.225 53.685 54.285 53.77 53.94 53.67 54.077 55.388 60.347 56.28 52.74 52.8 52.798 52.82 52.88 52.972 53.048 53.173 53.163 53.16 53.23 53.25 53.232 53.27 53.372 53.475 53.532 53.627 53.675 53.71 54.082 53.995 54.455 53.885 53.875 54.01 54.11 54.24 54.32 54.422 54.515 54.675 54.717 54.797 54.847 54.965 55.037 55.135 55.285 55.577 56.065 56.475 56.442 55.76 57.13 56.647 56.137 57.215 56.587 56.605 56.172 56.05 57.157 57.337 58.715 59.67 59.545 56.735 59.287 57.33 62.967 65.582 65.845 65.465 64.942 65.302 64.22 62.925 60.195 57.985 57.11 57.182 57.695 57.665 57.142 56.787 56.745 56.767 56.635 56.48 56.62 57.225 56.557 56.36 56.432 56.47 56.385 56.362 56.275 56.365 56.672 56.865 57.067 57.365 57.435 57.372 57.39 57.477 57.37 57.297 57.165 57.135 57.122 56.86 56.835 56.895 56.89 56.902 57.027 57.115 57.185 57.205 57.277 57.26 57.26 57.252 57.26 57.16 57.225 57.267 57.33 57.41 57.525 57.575 58.672 59.437 59.052 62.1 65.49 65.857 65.905 62.71 59.267 60.132 60.737 62.107 60.95 61.687 63.44 63.44 62.372 62.84 63.312 63.785 64.275 64.775 65.295 65.825 66.392
59.595 59.53 59.495 59.515 59.59 60.493 59.81 59 59.013 58.96 58.905 58.855 58.783 58.873 58.903 58.973 59.92 58.793 58.74 59.25 59.073 58.528 58.525 58.438 58.4 58.418 58.413 58.463 58.48 58.53 58.51 58.495 58.433 58.308 58.143 57.963 57.753 57.618 58.763 56.988 57.725 56.828 57.693 54.965 54.428 53.75 53.358 53.055 52.718 52.525 52.355 52.27 52.09 56.385 54.883 53.188 42.018 45.71 45.325 46.023 57.658 61.953 61.67 55.65 53.548 54.008 54.64 54.718 55.89 57.888 57.08 56.355 56.065 56.48 55.783 57.32 55.845 56.643 56.348 56.4 57.135 57.45 56.89 56.698 56.673 56.678 56.705 56.75 56.745 56.778 56.643 56.825 61.415 56.785 56.418 56.343 56.305 56.213 56.115 56.028 55.96 55.783 55.735 55.515 55.42 55.345 55.34 55.27 55.17 54.888 54.258 53.378 53.258 49.995 49.503 48.71 47.688 47.403 47.015 46.193 46.343 47.203 49.868 50.328 49.438 51.613 57.158 53.49 55.628 56.155 55.94 56.348 55.353 55.293 54.985 54.938 54.71 54.643 54.613 54.638 54.63 54.67 54.688 54.635 54.603 54.56 54.52 54.483 54.493 54.493 54.485 54.475 54.465 54.458 54.453 54.44 54.425 54.41 54.393 54.37 54.38 54.393 54.398 54.44 54.415 54.435 54.4 54.343 54.375 54.35 54.34 54.303 54.32 54.33 54.368 54.37 54.318 54.308 54.308 54.31 54.323 54.363 54.368 54.388 54.403 54.435 54.42 54.448 54.418 54.448 54.438 54.445 54.45 54.463 54.465 54.45 54.47 54.513 54.533 54.49 54.513 54.505 54.483 54.47 54.46 54.475 54.453 54.443 54.458 55.255 54.193 53.538 53.488 53.553 53.563 53.908 53.708 56.815 60.053 61.675 61.183 59.705 56.405 57.775 53.59 53.953 54.198 56.383 55.835 54.015 53.618 53.565 53.553 54.885 53.485 53.395 53.76 53.643 53.423 54.898 54.46 54.005 53.128 60.17 60.903 61.153 61.313 61.65 61.845 61.645 61.648 61.535 61.045 60.97 60.702 60.505 60.373 60.075 59.855 59.708 58.272 58.955 57.127 55.17 54.263 53.375 53.843 54.788 54.82 54.07 53.572 53.127 53.097 53.142 53.158 53.093 54.733 55.905 53.51 53.588 53.248 53.17 53.307 53.825 54.542 55.478 54.362 53.303 53.347 55.335 53.885 52.78 52.82 52.847 52.868 52.938 53.023 53.077 53.125 53.165 53.212 53.248 53.28 53.27 53.347 53.427 53.482 53.55 53.705 53.635 53.642 53.667 53.745 53.865 53.855 53.895 53.965 54.025 54.175 54.312 54.447 54.47 54.657 54.702 54.787 54.875 54.987 55.032 55.15 55.282 55.56 55.84 56.235 56.372 56.202 55.925 57.452 56.832 56.772 57.12 56.927 57.242 58.2 59.44 59.842 60.315 60.765 61.05 56.852 57.365 56.772 61.747 65.502 65.24 64.47 63.997 61.432 59.815 58.072 57.31 57.1 56.955 57.712 57.465 56.752 56.642 56.665 56.62 56.597 56.48 56.31 56.417 56.675 56.37 56.372 56.45 56.455 56.425 56.36 56.292 56.49 56.98 57.065 57.175 57.352 57.5 57.475 57.54 57.575 57.507 57.407 57.322 57.21 57.24 56.957 56.837 56.937 56.922 56.917 56.955 57.077 57.135 57.182 57.205 57.21 57.245 57.217 57.162 57.135 57.182 57.255 57.322 57.415 57.505 58.007 59.99 60.525 59.047 58.97 59.592 62.275 64.447 61.18 59.317 60.07 60.755 60.857 60.945 61.29 62.332 62.597 62.715 63.157 63.675 64.135 64.64 65.13 65.645 66.162 66.687
59.535 59.568 59.528 59.505 59.458 59.568 60.855 59.245 58.945 58.953 58.858 58.85 58.768 58.783 58.898 58.873 59.038 60.015 58.795 58.715 58.695 58.568 58.52 58.458 58.41 58.443 58.468 58.508 58.568 58.533 58.52 58.475 58.435 58.343 58.155 57.968 57.783 57.738 58.61 57.018 58.133 56.325 56.198 55.088 54.653 53.765 53.18 52.898 52.55 52.4 52.28 52.705 52.73 54.088 48.075 52.958 56.63 62.895 65.588 67.198 66.603 60.168 58.028 53.63 53.778 54.6 54.81 54.873 57.18 58.653 58.945 59.968 59.543 60.885 57.923 58.638 59.233 56.255 56.353 56.438 56.788 58.215 58.308 57.96 57.915 58.18 58.625 56.99 56.973 56.955 56.915 57.233 56.935 56.728 56.575 56.423 56.373 56.34 56.175 56.07 56.008 55.875 56.155 55.673 55.508 55.43 55.373 55.36 55.253 55.15 54.79 57.533 62.158 53.713 49.558 49.008 48.135 47.78 47.768 46.935 46.453 48.515 53.73 55.99 51.37 49.835 53.843 52.6 53.68 54.47 54.89 55.135 54.91 55.093 54.973 54.888 54.788 54.703 54.67 54.713 54.715 54.733 54.705 54.683 54.66 54.595 54.54 54.533 54.528 54.523 54.523 54.505 54.51 54.49 54.493 54.463 54.425 54.443 54.453 54.423 54.435 54.45 54.445 54.445 54.428 54.45 54.413 54.413 54.418 54.403 54.37 54.373 54.365 54.373 54.41 54.395 54.365 54.333 54.343 54.35 54.37 54.388 54.42 54.418 54.423 54.445 54.455 54.435 54.448 54.468 54.475 54.483 54.488 54.498 54.465 54.468 54.503 54.545 54.575 54.53 54.53 54.525 54.508 54.488 54.498 54.483 54.475 54.46 55.01 54.995 53.635 53.52 53.52 53.563 53.548 53.51 55.105 57.865 59.15 60.313 60.285 56.003 53.545 54.313 54.09 53.655 57.083 59.145 57.013 55.195 54.97 53.733 53.605 53.79 53.545 53.513 53.473 53.455 53.455 53.438 53.625 53.74 53.32 58.055 59.398 59.395 59.823 60.23 60.215 60.45 60.71 60.41 60.593 60.805 60.81 61.048 61.645 61.225 61.75 60.998 60.895 60.67 60.355 58.51 53.705 53.263 56.735 61.267 61.93 61.35 58.22 53.592 53.255 53.33 53.175 53.112 55.838 56.862 53.873 54.24 53.972 53.222 53.34 53.795 53.395 55.54 55.432 53.465 53.565 53.938 53.7 52.945 55.73 57.202 52.97 53.01 53.09 53.112 53.158 53.155 53.237 53.285 53.31 53.355 53.422 53.445 53.527 53.53 53.562 54.192 53.665 53.737 53.892 53.85 53.96 54.007 54.002 54.057 54.312 54.352 54.397 54.492 54.607 54.705 54.952 54.987 54.997 55.142 55.192 55.272 55.435 55.67 55.857 55.922 56.39 56.182 56.81 57.255 56.322 56.137 57.805 59.63 60.077 60.505 60.817 60.972 60.722 60.317 59.512 56.7 57.07 57.352 63.117 65.167 61.49 60.09 57.827 56.597 56.952 57.392 57.022 56.647 56.522 56.542 56.56 56.582 56.547 56.487 56.355 56.3 56.315 56.355 56.38 56.485 56.485 56.445 56.457 56.41 56.387 56.327 56.627 57.74 57.565 57.275 57.415 57.517 57.587 57.772 57.617 57.562 57.517 57.457 57.315 57.292 57.177 56.89 56.987 56.89 57.065 56.955 56.97 57.052 57.135 57.18 57.172 57.15 57.107 57.092 57.115 57.232 57.237 57.317 57.387 57.647 58.65 58.795 59.775 60.125 59.84 59.655 59.655 59.452 59.435 59.365 61.737 61.472 61.182 61.1 62.265 62.5 62.575 63.02 63.467 63.952 64.437 64.93 65.43 65.927 66.442 66.987
59.51 59.515 59.513 59.503 59.438 59.393 59.778 60.585 59.013 58.885 58.833 58.83 58.788 58.745 58.78 58.853 58.863 59.8 59.475 58.768 58.695 58.595 58.603 58.51 58.523 58.525 58.57 58.723 60.558 59.128 58.553 58.49 58.433 58.4 58.178 58.978 57.913 57.713 58.79 57.525 57.435 56.13 55.773 54.888 54.278 53.623 52.978 52.683 52.465 53.868 54.903 55.488 54.388 49.658 44.258 42.888 42.395 49.845 53.293 71.063 66.288 59.048 53.515 53.605 54.368 54.698 55.385 56.198 57.348 59.265 57.95 58.743 60.39 57.978 56.685 58.145 60.038 57.773 56.72 56.488 56.963 57.37 57.8 59.645 59.148 57.735 64.265 57.27 57.025 57.043 57.033 57.023 57.025 56.97 56.923 56.745 56.63 56.545 56.335 56.725 56.17 55.963 56.895 55.81 55.658 55.52 55.423 55.443 55.65 55.583 55.075 58.333 60.535 50.978 50.013 49.133 48.425 48.093 48.125 47.693 48.85 52.778 55.805 58.348 54.223 54.305 51.683 54.59 53.81 54.543 54.955 55.93 56.305 55.028 54.95 54.888 54.83 54.735 54.735 54.745 54.778 54.755 54.733 54.708 54.668 54.598 54.573 54.565 54.543 54.545 54.575 54.58 54.573 54.533 54.535 54.495 54.493 54.47 54.485 54.475 54.455 54.448 54.453 54.468 54.458 54.453 54.438 54.463 54.455 54.428 54.403 54.41 54.398 54.388 54.383 54.39 54.36 54.343 54.353 54.353 54.383 54.445 54.438 54.413 54.413 54.478 54.493 54.48 54.483 54.47 54.5 54.515 54.528 54.518 54.51 54.498 54.52 54.558 54.583 54.56 54.53 54.545 54.503 54.51 54.483 54.505 54.455 54.673 55.228 53.68 53.545 53.585 53.58 53.585 53.525 53.513 55.658 58.593 59.62 58.703 56.355 53.568 53.513 53.488 54.34 55.433 59.275 60.073 59.683 58.45 58.505 57.52 54.995 53.59 53.643 53.58 53.528 53.523 53.49 53.47 53.763 53.465 53.415 53.405 58.258 57.25 54.86 55.85 58.978 57.378 57.913 57.245 58.945 59.373 59.538 59.838 60.103 60.267 60.592 60.755 61.073 61.2 61.11 55.792 56.38 57.147 58.815 61.013 61.915 61.345 59.343 53.72 53.84 53.583 53.208 53.12 54.787 54.983 53.557 54.08 55.31 56.182 54.217 54.007 53.415 56.145 58.287 56.792 53.353 56.002 57.222 55.44 58.778 66.082 58.068 53.09 53.153 53.17 53.175 53.158 53.213 53.3 53.347 53.4 53.452 53.497 53.535 53.48 53.57 53.705 53.672 53.825 53.99 53.95 54.025 54.092 54.07 54.11 54.182 54.36 54.422 54.505 55.26 55.977 56.517 55.152 55.025 55.112 55.2 55.312 55.632 55.725 55.747 55.93 55.92 57.015 56.847 57.39 57.837 56.245 56.942 60.567 60.687 60.382 59.965 60.052 59.797 59.04 57.127 56.802 57.522 57.8 59.06 60.585 59.84 57.19 56.512 57.25 56.855 56.577 56.482 56.795 57.267 56.507 56.485 56.472 56.597 57.07 56.312 56.312 56.33 56.402 56.43 56.57 56.69 56.46 56.472 56.465 56.38 56.365 56.752 57.967 58.642 57.335 57.505 57.732 57.697 57.712 57.647 57.582 57.57 57.455 57.362 57.255 57.292 56.92 56.977 57.052 57.002 57.012 57.017 56.987 57.01 57.045 57.062 57.025 57.085 57.142 57.167 57.172 57.26 57.28 57.397 57.72 58.1 58.635 59.915 63.97 64.765 62.097 61.492 61.147 59.512 59.635 62.555 62.84 62.512 61.855 62.27 62.527 62.825 63.285 63.757 64.277 64.75 65.23 65.752 66.262 66.762 67.322
59.455 59.498 59.515 59.518 59.44 59.388 59.375 60.048 59.76 58.883 58.815 58.84 58.785 58.763 58.745 58.853 58.843 58.828 59.885 58.848 58.743 58.665 58.633 58.733 59.798 60.023 59.51 59.455 59.628 60.773 60.015 59.225 58.788 59.035 58.283 58.025 57.878 59.018 58.785 58.15 56.72 56.01 55.27 54.69 54.84 53.385 52.84 52.575 52.468 52.88 55.565 56.7 55.823 50.648 44.87 43.368 43.563 55.225 52.883 62.093 66.583 53.538 53.563 53.745 54.988 55.645 55.265 56.24 55.17 55.565 55.623 55.725 56.548 56.243 57.688 56.673 60.493 58.16 56.713 56.623 56.73 57.145 56.993 57.143 57.45 57.023 57.3 57.68 57.068 56.968 56.955 56.98 56.94 56.988 57.035 57.02 56.97 56.823 57.305 57.17 56.13 56.02 56.075 56.02 56.358 55.625 55.485 55.493 57.133 55.725 55.188 55.04 54.325 54.005 54.31 51.498 48.725 48.4 48.323 48.185 49.74 54.593 56.635 57.005 53.06 55.458 50.83 59.545 60.508 59.423 57.708 54.895 54.938 55.123 54.853 54.928 54.873 54.79 54.8 54.82 54.805 54.8 54.78 54.748 54.663 54.61 54.568 54.565 54.58 54.598 54.608 54.633 54.63 54.61 54.583 54.54 54.545 54.553 54.54 54.518 54.498 54.498 54.505 54.5 54.483 54.483 54.48 54.483 54.465 54.45 54.405 54.413 54.408 54.425 54.403 54.378 54.418 54.383 54.365 54.368 54.403 54.448 54.445 54.428 54.433 54.468 54.463 54.493 54.503 54.5 54.503 54.525 54.543 54.538 54.548 54.53 54.55 54.565 54.593 54.583 54.543 54.543 54.535 54.503 54.49 54.488 54.73 55.263 53.813 53.65 53.63 53.64 53.605 53.595 53.543 53.62 53.688 54.23 57.855 58.093 56.085 53.928 54.03 54.753 54.335 57.268 59.34 60.43 60.215 60.023 59.54 58.258 54.58 54.275 53.755 53.718 53.675 53.643 53.59 53.538 53.58 53.298 54.02 53.748 58.018 56.025 53.66 53.193 57.86 53.743 53.595 53.213 58.462 56.792 56.07 55.127 55.882 58.175 59.055 58.885 59.353 59.767 59.978 57.498 56.655 59.565 59.715 60.925 61.928 61.017 58.64 53.25 53.3 53.343 53.215 53.158 55.882 56.932 54.59 57.268 58.95 59.103 54.695 54.237 53.307 57.342 59.757 58.805 53.377 53.79 59.17 63.522 61.245 65.89 61.1 54.167 53.255 53.193 53.228 53.228 53.29 53.35 53.37 53.432 53.485 53.592 53.62 53.575 53.63 53.71 53.8 54.617 55.54 54.132 54.055 54.142 54.102 54.23 54.207 54.337 54.43 54.54 56.382 61.497 61.28 56.747 55.182 55.222 55.26 55.35 55.505 55.577 55.802 56.75 59.212 59.682 57.79 56.212 57.532 57.267 56.262 59.39 59.742 59.425 58.61 57.91 57.642 58.087 56.517 56.752 57.475 57.507 57.145 57.487 58.297 57.285 56.317 56.392 56.31 56.337 56.847 57.677 57.637 56.405 56.445 56.26 56.442 56.687 56.352 56.347 56.402 56.5 56.49 56.607 56.7 56.5 56.48 56.492 56.422 56.357 56.845 58.225 58.555 57.405 57.53 57.67 57.722 57.737 57.647 57.637 57.58 57.495 57.417 57.31 58.767 56.915 56.982 57.017 57.025 57.062 57.067 57.11 57.077 57.01 57.047 57.08 57.055 57.17 57.152 57.172 57.26 57.38 57.935 58.197 58.34 59.06 62.665 66.102 66.515 65.612 60.102 60.367 60.847 61.502 62.515 62.82 63.127 65.162 62.91 62.712 63.137 63.592 64.042 64.552 65.027 65.527 66.052 66.56 67.062 67.597
59.433 59.473 59.478 59.505 59.443 59.38 59.363 59.365 60.558 59.3 58.808 58.775 58.738 58.748 58.76 58.723 58.81 58.863 58.89 59.353 58.87 58.905 59.265 60.433 61.755 60.715 60.503 60.04 60.755 61.783 61.548 61.215 60.188 58.62 58.315 58.123 57.918 58.61 59.525 58.865 56.485 55.828 55.16 54.478 54.363 53.573 52.905 52.54 53.02 53 52.585 54.018 56.57 52.78 47.195 44.943 55.48 55.15 60.338 65.013 54.123 53.978 53.568 54.165 54.38 54.835 54.985 55.105 55.228 55.425 55.615 55.803 56.03 56.238 56.63 58.035 58.65 58.253 56.94 56.925 56.93 56.853 56.94 56.993 57.053 57.62 57.098 57.158 57.323 57.038 56.985 56.983 57.028 57.99 56.945 56.92 56.953 56.988 56.855 56.643 56.345 56.155 56.1 56.005 56.078 55.818 55.665 55.52 55.475 56.48 55.358 55.063 55.045 57.55 55.083 50.918 49.165 48.713 48.538 48.473 47.778 52.805 53.098 51.163 50.525 49.983 50.853 51.735 52.73 55.523 56.098 54.94 55.35 55.228 54.978 55 54.858 54.85 54.845 54.828 54.84 54.813 54.798 54.77 54.705 54.64 54.605 54.58 54.598 54.62 54.638 54.655 54.645 54.653 54.583 54.563 54.57 54.59 54.578 54.54 54.535 54.553 54.535 54.538 54.518 54.51 54.518 54.488 54.468 54.468 54.428 54.435 54.44 54.455 54.445 54.42 54.415 54.403 54.405 54.38 54.385 54.445 54.418 54.433 54.428 54.478 54.505 54.483 54.505 54.493 54.52 54.563 54.56 54.578 54.565 54.533 54.558 54.588 54.633 54.625 54.565 54.583 54.59 54.535 54.463 54.578 55.718 54.088 53.72 53.665 53.65 53.643 53.623 53.63 54.92 55.778 53.653 53.693 54.385 55.145 56.15 53.888 54.54 56.195 56.45 55.665 56.308 57.823 59.503 60.01 60.243 59.893 59.143 55.288 54.023 53.783 53.743 53.763 53.755 53.853 53.835 53.283 53.255 53.975 54.558 53.923 53.755 53.795 54.783 53.815 53.775 53.668 56.95 55.303 53.45 54.36 54.08 55.528 58.333 55.818 54.557 56.83 56.068 55.615 56.875 57.493 59.353 60.642 61.847 61.005 59.015 53.718 53.193 53.23 53.233 53.143 53.303 54.02 54.485 58.735 60.015 59.34 56.795 56.767 56.912 58.453 59.96 59.748 59.085 56.562 53.338 58.947 64.83 59.213 63.792 60.155 53.312 53.373 53.265 53.285 53.318 53.333 53.392 53.535 53.555 53.625 53.675 53.705 53.73 53.897 53.96 55.332 59.09 57.327 54.935 54.17 54.282 54.365 54.397 54.325 54.51 54.607 56.36 62.485 63.417 57.625 55.132 55.21 55.272 55.402 55.455 55.535 55.777 58.055 61.285 62.305 58.937 57.397 56.552 57.742 56.465 57 57.955 58.73 56.69 56.397 56.537 56.847 56.777 56.997 57.23 57.262 57.13 57.182 56.967 56.267 56.245 56.277 56.317 56.31 56.305 56.887 56.607 57.047 56.815 56.23 56.26 56.33 56.335 56.372 56.52 56.67 56.602 56.582 56.717 56.53 56.512 56.49 56.46 56.412 56.887 58.15 58.225 57.397 57.56 57.69 57.83 57.89 57.855 57.652 57.582 57.472 57.4 58.85 60.942 58.585 57.007 57.032 57.05 57.072 57.125 57.09 57.067 57.087 57.077 57.072 57.107 57.107 57.137 57.185 57.237 57.945 58.442 58.977 59.8 60.492 64.775 66.627 66.51 63.84 59.852 60.307 61.31 61.682 62.01 62.19 63.117 68.81 70.06 62.9 63.327 63.817 64.335 64.827 65.31 65.822 66.375 66.897 67.412 67.967
59.398 59.43 59.45 59.475 59.445 59.383 59.363 59.303 59.483 60.57 59.018 58.758 58.725 58.733 58.71 58.725 58.718 58.883 58.858 58.83 58.97 60.425 61.56 61.473 61.25 60.808 60.883 59.815 61.163 61.45 61.69 61.633 61.323 60.478 58.675 58.24 58.013 57.798 59.165 59.048 56.6 55.918 55.218 54.445 53.723 53.168 52.688 52.623 52.71 52.398 52.525 51.115 54.133 64.815 54.905 51.223 52.378 67.648 65.538 57.613 53.523 53.615 53.91 54.785 54.818 55.173 55.195 55.19 55.318 55.498 55.685 55.873 56.073 56.325 56.643 57.428 57.915 59.403 58.538 57.218 57.258 57.158 57.135 57.078 57.08 57.108 57.758 57.123 57.298 57.203 57.268 57.12 57.545 57.27 56.993 56.905 56.928 57.135 57.023 56.938 56.67 56.375 56.195 56.105 56.023 55.935 55.838 55.655 55.535 56.12 55.43 55.195 54.803 55.853 53.983 51.188 49.843 49.165 48.758 48.603 48.175 48.873 48.768 48.105 49.333 50.315 52.163 51.82 52.828 56.573 56.893 54.97 54.95 54.988 55.21 55.063 54.89 54.888 54.878 54.845 54.848 54.833 54.813 54.785 54.753 54.655 54.625 54.608 54.613 54.62 54.63 54.668 54.675 54.66 54.623 54.588 54.588 54.61 54.643 54.57 54.538 54.56 54.56 54.555 54.563 54.545 54.523 54.515 54.483 54.49 54.49 54.498 54.478 54.47 54.44 54.438 54.453 54.43 54.448 54.43 54.425 54.443 54.465 54.49 54.465 54.485 54.5 54.545 54.51 54.538 54.523 54.558 54.55 54.55 54.585 54.583 54.585 54.61 54.663 54.633 54.608 54.513 54.545 54.518 54.605 55.505 54.683 53.825 53.705 53.665 53.69 53.675 53.633 54.013 56.728 55.3 53.753 53.703 53.843 54.42 54.105 54.513 54.103 55.27 55.853 54.268 53.63 54.575 57.293 58.48 59.665 60.383 60.18 57.093 53.76 53.725 53.758 53.878 53.778 53.893 54.668 53.308 54.685 54.788 54.018 53.61 53.645 53.498 53.3 53.35 53.343 53.385 53.968 53.475 53.35 54.55 53.955 54.9 57.487 54.2 54.353 54.967 53.37 55.05 54.682 56.23 57.49 60.52 61.915 61.057 58.795 53.397 53.178 53.27 53.27 53.158 53.368 58.123 60.29 60.393 60.528 60.555 60.595 60.795 60.83 60.885 61 61.097 61.167 60.688 53.665 61.072 66.517 63.7 61.245 56.382 54.095 54 53.335 53.34 53.353 53.4 53.485 53.515 53.65 53.682 53.707 53.717 53.737 54.762 57.77 57.437 59.85 57.947 55.272 54.28 54.352 54.412 54.475 54.447 54.472 55.535 58.472 58.535 58.202 55.445 55.277 57.622 56.292 55.382 55.442 55.575 55.645 56.862 60.76 60.64 58.277 57.202 57.472 56.247 58.682 57.112 56.497 56.272 56.45 56.665 56.817 56.982 57.087 57.205 57.315 57.407 56.652 56.347 56.142 56.177 56.225 56.262 56.237 56.2 56.142 56.422 56.105 56.377 56.24 56.272 56.275 56.325 56.417 56.572 56.652 56.657 56.667 56.57 56.73 56.595 56.547 56.535 56.507 56.495 56.595 56.895 57.127 57.345 57.535 57.67 57.742 57.727 57.875 57.89 57.6 57.495 57.362 57.24 57.915 56.985 57.017 57.017 57.06 57.335 57.277 57.15 57.162 57.102 57.117 57.105 57.135 57.11 57.13 57.212 57.297 57.575 58.955 59.397 59.712 63.18 65.732 66.815 65.967 62.54 60.272 60.745 61.28 61.407 61.552 61.962 62.27 66.357 66.99 63.242 63.62 64.082 64.57 65.057 65.567 66.12 66.675 67.217 67.74 68.247
59.398 59.41 59.388 59.415 59.428 59.39 59.368 59.268 59.275 59.89 60.318 58.785 58.728 58.715 58.723 58.74 58.695 58.723 58.843 58.825 58.845 58.88 60.108 59.94 59.478 58.928 58.788 58.993 62.228 61.745 61.24 61.535 61.7 61.02 58.838 58.465 58.405 58.093 58.02 58.575 56.723 56.025 55.27 54.42 53.938 53.23 52.755 52.71 52.585 53.15 51.925 51.185 51.248 53.033 55.43 54.978 63.615 66.815 60.76 57.72 53.948 53.698 54.138 54.92 54.855 55.045 55.445 55.353 55.483 55.633 55.81 56.005 56.233 56.425 56.71 57.05 58.115 58.415 59.198 59.31 57.875 57.47 57.465 57.38 57.268 57.223 57.188 57.238 57.42 57.378 57.433 57.51 57.193 57.128 57.05 57.1 57.033 57.203 57.408 57 56.945 56.698 56.403 56.253 56.393 56.133 55.93 55.785 55.653 55.508 55.443 55.355 55.07 54.313 52.8 51.923 50.735 50.86 49.585 48.885 48.99 49.028 48.798 49.233 50.02 50.533 53.825 56.675 56.03 55.62 54.21 54.78 55.58 59.285 55.21 55.258 54.98 54.903 54.863 54.88 54.86 54.858 54.813 54.778 54.738 54.675 54.635 54.608 54.635 54.66 54.67 54.675 54.693 54.663 54.628 54.603 54.615 54.61 54.628 54.62 54.593 54.61 54.613 54.58 54.578 54.57 54.53 54.518 54.523 54.525 54.533 54.5 54.495 54.495 54.498 54.498 54.5 54.49 54.48 54.473 54.445 54.445 54.498 54.518 54.468 54.503 54.533 54.553 54.543 54.518 54.54 54.573 54.588 54.593 54.615 54.635 54.64 54.635 54.663 54.645 54.62 54.515 54.525 54.555 55.545 54.948 53.908 53.755 53.733 53.715 53.71 53.673 53.7 55.7 56.213 53.908 54.46 53.96 53.77 53.825 53.84 53.898 54.315 56.018 55.175 53.835 53.955 54.868 57.175 54.423 54.828 58.388 59.803 55.813 53.723 53.683 53.73 53.748 53.733 53.705 54.293 53.413 56.453 57.298 55.363 53.488 54.108 54.013 53.563 54.278 53.625 53.973 55.318 53.675 54.213 54.97 54.685 53.645 53.3 53.333 53.292 53.275 53.195 54.858 54.375 55.555 57.373 60.597 62.638 61.325 59.15 53.443 53.295 53.28 53.288 53.225 53.287 58.69 61.593 61.667 61.748 61.84 61.882 62.465 62.165 62.025 62.028 62.088 61.99 62.112 56.062 57.618 58.495 60.32 56.55 54.445 54.463 54.693 53.373 53.39 53.425 53.45 53.49 53.577 53.687 53.74 53.767 53.857 54.055 56.222 60.26 59.775 59.122 58.102 55.222 54.305 54.42 54.477 54.49 54.497 54.53 55.467 59.095 56.92 55.21 55.587 57.737 61.605 60.052 56.895 55.46 55.592 55.665 56.407 60.942 61.932 61.8 58.44 56.517 57.527 56.602 57.272 56.6 56.742 56.877 56.967 57.032 57.132 57.022 57.107 56.215 56.027 56.072 56.107 56.147 56.162 56.207 56.212 56.082 56.195 56.745 56.312 56.137 56.145 56.167 56.282 56.315 56.35 56.427 56.425 56.45 56.45 56.492 56.507 56.6 56.6 56.585 56.602 56.595 56.545 56.58 56.835 57.09 57.267 57.46 57.627 57.697 57.672 57.667 57.9 57.912 57.637 57.352 57.097 57.007 57.025 57.032 57.087 57.117 57.432 57.392 57.232 57.145 57.13 57.115 57.142 57.105 57.102 57.142 57.245 57.692 58.15 58.865 59.425 61.3 64.4 66.91 66.63 62.177 61.277 60.512 60.812 61.045 61.285 61.547 61.697 62.805 63.22 63.04 63.372 63.845 64.335 64.8 65.307 65.85 66.437 66.982 67.517 68.067 68.557
59.383 59.36 59.325 59.36 59.353 59.388 59.365 59.285 59.278 59.26 60.263 59.648 58.735 58.69 58.7 58.71 58.755 58.71 58.7 58.86 58.818 58.8 58.833 58.87 58.948 58.808 58.79 58.795 58.745 60.023 61.67 61.713 61.228 60.038 58.7 58.633 58.61 58.335 57.753 57.378 56.678 56.103 55.378 54.77 54.693 53.67 52.955 53.35 52.838 52.545 52.358 51.425 51.838 52.263 53.8 53.54 53.475 59.188 61.32 55.523 54.028 53.973 54.913 55.525 54.928 55.238 55.443 55.59 55.71 55.865 56 56.193 56.45 57.743 57.705 57.283 57.315 57.493 58.218 60.348 59.71 58.523 58.028 57.693 57.648 57.53 57.425 57.428 57.45 57.38 58.68 58.843 57.328 57.24 57.448 57.623 57.32 57.313 57.353 57.083 57.328 56.9 56.715 56.45 56.343 56.178 56.003 55.93 55.758 55.61 55.448 55.995 55.318 55.778 53.838 52.79 52.543 53.758 52.273 48.84 49.175 49.28 49.565 49.96 50.373 50.808 54.975 54.908 52.728 53.078 53.623 54.38 54.888 55.013 55.323 55.133 54.973 54.913 54.875 54.875 54.888 54.885 54.843 54.783 54.728 54.678 54.695 54.66 54.673 54.705 54.698 54.698 54.728 54.7 54.668 54.66 54.633 54.625 54.653 54.623 54.623 54.653 54.633 54.623 54.625 54.613 54.583 54.55 54.548 54.57 54.548 54.528 54.505 54.483 54.5 54.498 54.518 54.5 54.483 54.475 54.483 54.485 54.48 54.498 54.463 54.52 54.555 54.538 54.548 54.53 54.533 54.56 54.615 54.64 54.648 54.685 54.688 54.663 54.645 54.625 54.608 54.565 54.568 55.273 55.085 53.968 53.875 53.763 53.798 53.748 53.703 53.713 54.673 56.885 56.878 55.21 54.505 54.068 53.825 53.838 53.833 53.883 53.93 55.953 54.175 53.93 54.003 56.033 56.608 53.808 53.575 53.588 56.615 55.675 54.13 56.965 56.425 54.498 54.843 53.995 54.39 53.7 56.48 57.175 55.308 53.475 53.935 55.045 54.928 53.57 54.068 55.935 56.765 54.358 55.333 56.673 55.373 54.553 59.455 56.73 56.255 54.253 53.312 54.54 55.388 55.77 57.278 60.6 61.778 61.115 59.743 54.112 53.925 53.833 53.322 53.23 53.32 59.498 61.873 61.81 61.78 61.623 61.523 61.64 61.353 61.225 61.153 61.062 60.972 60.86 59.2 56.73 57.25 58.053 55.068 54.667 54.885 54.358 53.403 53.432 53.5 53.52 53.575 53.617 53.735 53.757 53.795 54.235 54.702 54.26 56.715 58.94 58.805 57.24 54.477 54.37 54.475 54.497 54.597 54.662 54.7 54.642 57.582 56.582 55.675 55.35 59.682 61.607 61.795 59.357 55.52 55.657 55.745 57.377 61.71 63.605 61.622 58.952 56.95 58.837 60.192 57.957 57.542 57.172 57.202 57.137 57.097 56.822 56.057 56.065 55.955 56.04 56.055 56.065 56.045 56.45 56.23 56.007 55.965 56.027 56.042 56.1 56.11 56.185 56.187 56.267 56.312 56.342 56.35 56.375 56.382 56.397 56.44 56.452 56.537 56.627 56.585 56.615 56.622 56.627 56.6 56.657 56.952 57.14 57.34 57.54 57.602 57.627 57.6 57.592 57.672 57.362 57.19 57.04 57.07 57.03 57.057 57.085 57.262 57.422 57.47 57.417 57.19 57.215 57.115 57.105 57.135 57.105 57.185 57.25 57.98 58.852 59.357 59.817 62.315 66.165 66.972 66.31 64.105 61.042 60.702 60.905 61.085 61.347 61.577 62.067 63.13 62.882 63.172 63.617 64.105 64.58 65.1 65.617 66.147 66.745 67.28 67.85 68.395 68.855
59.353 59.335 59.323 59.325 59.33 59.348 59.325 59.258 59.255 59.213 59.295 59.495 58.725 58.678 58.708 58.69 58.71 58.705 58.688 58.708 58.78 58.798 58.798 58.823 58.828 58.828 58.88 58.893 58.74 58.79 59.518 60.238 61.695 59.753 58.748 58.725 58.708 58.64 58.008 57.89 56.918 56.44 55.59 54.958 54.998 54.523 53.583 53.69 53.815 52.738 52.463 52.273 53.233 54.765 54.243 54.628 54.158 54.218 55.018 54.27 54.24 54.55 54.885 55.365 55.65 55.64 55.71 55.833 56 56.148 56.263 56.448 56.848 58.43 58.278 57.388 57.388 57.363 58.165 63.413 61.198 59.573 58.585 58.815 57.958 57.968 57.928 57.69 57.603 57.588 57.53 57.648 57.49 57.47 57.475 57.543 57.54 57.66 57.73 57.275 56.998 57.07 56.858 56.668 56.4 56.265 56.153 55.985 55.83 55.643 55.383 55.338 55.173 55.15 53.545 53.26 52.888 52.38 51.038 49.258 50.983 49.818 49.863 50.04 50.338 50.74 51.17 51.625 52.083 52.595 53.293 54.103 54.753 55.048 55.15 55.08 54.973 54.955 54.93 54.875 54.89 54.873 54.873 54.81 54.755 54.685 54.71 54.698 54.698 54.733 54.738 54.725 54.735 54.718 54.695 54.695 54.66 54.668 54.678 54.67 54.685 54.67 54.678 54.645 54.64 54.603 54.57 54.588 54.598 54.61 54.583 54.548 54.518 54.488 54.475 54.475 54.518 54.513 54.478 54.478 54.5 54.47 54.46 54.478 54.495 54.513 54.535 54.533 54.54 54.535 54.555 54.59 54.608 54.623 54.653 54.693 54.703 54.688 54.648 54.648 54.643 54.665 55.025 55.233 54.09 53.965 53.838 53.83 53.783 53.753 53.725 54.49 56.488 57.148 56.91 57.138 56.568 56.508 55.855 54.198 53.85 53.88 53.93 54.898 53.968 54.025 53.96 53.833 54.098 53.698 53.688 53.69 54.69 56.175 55.693 60.6 61.05 60.945 60.833 60.74 60.313 60.16 58.865 58.798 57.395 56.905 54.993 57.403 55.995 53.71 53.928 58.368 56.958 54.778 55.43 56.38 53.695 53.92 59.025 60.425 59.583 54.28 53.562 54.075 53.357 53.487 56.495 60.583 61.86 61.16 59.55 53.855 53.827 53.645 53.347 53.24 53.378 56.445 60.675 60.545 60.472 60.358 60.237 59.97 60.048 59.882 59.42 59.755 59.4 58.868 57.408 54.588 56.135 55.925 53.85 54.322 53.75 56.452 54.248 53.52 53.597 53.653 53.717 54.755 55.682 53.867 53.865 53.93 53.935 54.012 54.42 54.805 54.547 54.78 54.332 54.455 54.562 54.627 54.682 54.715 54.775 54.81 54.797 55.127 55.702 55.482 56.535 57.907 60.925 57.507 55.612 55.71 55.8 56.462 59.847 61.065 60.17 57.61 58.407 60.662 60.277 58.51 56.862 57.517 57.477 56.83 56.03 55.867 55.85 55.925 56.035 56.002 56.012 55.905 57.397 58.03 56.522 55.965 56.002 56.012 56.107 56.135 56.107 56.165 56.262 56.285 56.272 56.285 56.297 56.327 56.33 56.362 56.38 56.482 56.5 56.542 56.562 56.607 56.587 56.637 56.672 56.64 56.745 56.95 57.172 57.325 57.385 57.39 57.437 57.402 57.33 57.182 57.022 57.057 57.05 57.045 57.075 57.137 57.385 57.432 57.49 57.482 57.257 57.165 57.192 57.16 57.12 57.092 57.162 57.347 58.237 59.332 60.225 59.537 65.022 66.52 67.12 65.912 63.135 61.2 60.912 61.057 61.257 61.48 61.727 63.365 63.122 62.882 63.34 63.822 64.32 64.762 65.305 65.842 66.417 66.982 67.525 68.117 68.64 69.13
59.323 59.31 59.275 59.248 59.265 59.295 59.328 59.245 59.243 59.2 59.255 59.213 58.755 58.723 58.675 58.678 58.725 58.745 58.75 58.683 58.693 58.7 58.773 58.815 58.765 58.77 58.745 58.72 58.75 58.745 58.778 58.778 59.87 61.343 59.98 58.843 59.123 59.095 58.4 57.688 56.985 56.645 55.855 55.143 54.56 54.303 56.52 59.858 56.918 54.065 53.858 57.985 57.473 55.875 55.06 54.76 54.513 54.585 54.63 54.848 55.533 55.203 55.378 55.66 55.865 55.96 55.973 56.108 56.28 56.453 56.595 56.815 57.12 57.445 57.535 57.453 57.453 57.468 57.845 60.79 59.13 58.438 59.62 59.923 58.11 59.328 59.27 57.935 57.78 57.743 57.745 57.708 57.703 57.73 57.75 57.743 57.825 58.005 58.13 57.738 57.308 57.043 56.883 56.818 56.585 56.438 56.268 56.095 55.915 55.718 55.403 55.243 54.968 54.435 53.85 53.623 52.948 51.66 50.218 52.075 58.468 53.13 50.5 50.61 50.92 51.278 51.628 51.893 52.39 52.625 53.053 53.545 54.205 54.86 55.683 55.145 55.028 55.025 54.995 55.008 54.903 54.868 54.875 54.835 54.798 54.725 54.725 54.73 54.76 54.748 54.75 54.74 54.733 54.72 54.705 54.733 54.728 54.733 54.743 54.725 54.718 54.72 54.695 54.665 54.658 54.635 54.613 54.615 54.65 54.658 54.6 54.56 54.503 54.498 54.48 54.46 54.498 54.5 54.468 54.48 54.473 54.473 54.49 54.51 54.518 54.533 54.513 54.535 54.56 54.568 54.605 54.625 54.618 54.633 54.683 54.708 54.725 54.71 54.683 54.683 54.715 55.028 55.713 54.298 54.053 53.945 53.94 53.9 53.83 53.785 53.798 56.445 57.51 57.595 57.058 57.153 57.135 57.148 57.143 57.153 56.978 55.05 53.953 53.955 53.935 53.948 53.925 53.913 53.793 53.755 53.8 53.85 54.748 56.11 55.518 61.618 61.993 61.885 61.765 61.645 61.56 61.45 61.325 61.178 61.053 60.723 59.315 59.798 57.545 53.655 54.08 59.185 57.96 56.647 57.548 58.59 57.548 58.553 60.032 60.415 60.29 59.917 54.88 54.18 56.195 56.212 58.158 61.458 63.267 62.435 59.393 54.208 53.408 53.455 53.395 53.288 53.507 56.16 58.138 57.708 56.807 56.61 56.095 55.142 55.85 55.03 54.648 55.025 54.483 54.243 53.952 54.355 53.755 53.635 53.603 53.575 54.385 55.028 54.382 53.96 54.303 54.035 56.682 58.102 56.685 54.247 53.94 54.087 54.042 54.105 54.2 54.21 54.25 54.34 54.417 54.467 54.582 54.75 54.702 54.742 54.815 55.035 55.532 55.87 55.1 55.225 55.695 55.535 56.185 55.552 55.592 55.69 55.757 55.822 57.172 57.485 57.672 56.16 56.142 58.592 58.942 57.492 55.825 56.307 55.742 55.735 55.752 55.84 55.822 55.825 55.862 55.915 56.457 56.002 56.345 56.07 55.922 55.962 56.04 56.02 56.07 56.085 56.14 56.15 56.162 56.2 56.237 56.22 56.227 56.285 56.292 56.36 56.382 56.415 56.43 56.49 56.537 56.542 56.567 56.635 56.69 56.672 56.665 56.68 56.845 57.03 57.135 57.175 57.182 57.137 57.025 57.035 57.035 57.065 57.085 57.107 57.117 57.302 57.397 57.38 57.282 57.26 57.187 57.2 57.225 57.205 57.21 57.097 57.15 57.377 58.057 59.357 59.842 61.77 64.407 65.225 66.257 65.207 61.36 60.882 61.48 61.295 61.412 61.63 61.89 63.477 62.715 63.065 63.535 64.015 64.522 64.99 65.55 66.115 66.667 67.225 67.83 68.362 68.882 69.37
59.298 59.278 59.24 59.203 59.208 59.21 59.208 59.238 59.248 59.198 59.18 59.045 58.725 58.653 58.655 58.63 58.753 58.75 58.765 58.718 58.728 58.708 58.658 58.705 58.71 58.685 58.73 58.683 58.72 58.728 58.713 58.72 58.77 59.64 61.125 60.315 58.813 58.793 58.713 58.295 57.375 56.73 56.043 55.38 54.693 54.293 58.193 62.905 60.55 54.99 60.13 66.28 64.465 55.598 54.93 54.783 54.783 55.11 55.415 55.878 56.738 56.378 56.125 56.263 56.748 56.5 56.33 56.515 56.52 56.728 56.958 57.203 57.39 57.488 57.538 57.543 57.545 57.568 58.163 60.2 58.545 59.47 58.593 59.718 59.93 60.533 59.325 58.19 58.05 57.975 57.94 57.965 57.958 57.955 58.035 58.05 58.365 58.313 58.368 58.093 57.935 57.413 57.055 56.935 57.403 56.548 56.348 56.21 55.978 55.698 55.48 55.44 56.183 55.175 54.343 53.965 53.408 51.765 51.08 51.598 52.56 53.218 51.04 51.108 51.493 53.693 53.398 54.663 54.03 55.253 55.13 57.075 54.008 54.41 54.795 55.055 55.085 55.038 54.978 54.955 54.935 54.873 54.883 54.84 54.823 54.803 54.78 54.72 54.753 54.775 54.783 54.77 54.75 54.735 54.703 54.748 54.78 54.785 54.765 54.76 54.75 54.743 54.713 54.693 54.688 54.668 54.665 54.67 54.67 54.67 54.62 54.585 54.535 54.5 54.473 54.478 54.453 54.485 54.483 54.498 54.503 54.473 54.503 54.538 54.533 54.538 54.533 54.563 54.608 54.61 54.62 54.628 54.643 54.67 54.72 54.738 54.75 54.755 54.725 54.708 54.99 55.733 54.413 54.098 54.053 53.933 53.968 53.923 53.863 53.82 55.558 59.593 59.388 59.155 58.725 58.073 58.088 57.533 57.265 58.28 58.56 56.43 54.09 53.998 53.995 53.955 53.95 53.953 53.913 53.923 54.025 54.07 54.635 54.288 55.998 62.243 62.27 62.315 62.358 62.39 63.015 62.33 62.255 62.135 62.02 61.933 59.87 60.148 60.035 60.025 60.245 60.368 60.53 60.645 60.84 60.903 60.958 61.35 61.4 61.325 61.435 61.735 55.452 54 55.708 56.075 58.097 61.812 63.065 62.355 60.965 54.972 53.385 53.385 53.408 53.325 53.403 55.467 54.788 54.515 54.055 53.73 53.805 54.085 54.127 54.038 53.815 53.89 53.92 53.877 53.952 54.625 54.228 53.77 53.638 53.74 53.695 53.623 53.763 55.608 55.06 54.118 56.55 60.245 58.972 54.56 54.025 54.06 54.137 54.192 54.232 54.305 54.382 54.402 54.442 54.502 54.592 54.632 54.692 54.785 54.787 55.147 57.805 59.012 57.7 55.665 55.382 55.35 55.437 55.54 55.657 55.685 55.712 55.76 55.772 55.777 55.82 55.89 55.985 55.875 55.777 55.557 55.592 55.617 55.72 55.75 55.747 55.727 55.72 56.707 56.097 55.825 55.932 55.885 55.957 55.935 55.96 56.007 56.062 56.067 56.107 56.082 56.055 56.185 56.21 56.342 56.31 56.317 56.412 56.392 56.462 56.442 56.392 56.492 56.572 56.597 56.64 56.572 56.572 56.652 56.64 56.695 56.677 56.715 56.775 56.797 56.832 56.925 56.925 56.915 56.922 56.992 57.04 57.065 57.04 57.132 57.117 57.247 57.235 57.202 57.21 57.195 57.265 57.262 57.252 57.207 57.23 57.145 57.117 57.26 57.755 58.875 59.665 60.732 62.775 63.175 64.34 63.537 61.705 61.057 61.327 61.837 61.705 61.79 62.087 63.327 62.802 63.292 63.75 64.222 64.682 65.172 65.735 66.275 66.857 67.41 68.027 68.575 69.082 69.565
59.278 59.268 59.235 59.185 59.165 59.218 59.22 59.158 59.185 59.148 59.14 59.17 58.808 58.648 58.678 58.583 58.673 58.738 58.77 58.748 58.775 58.725 58.678 58.643 58.643 58.62 58.585 58.563 58.56 58.615 58.648 58.683 58.703 58.74 59.745 61.613 60.198 58.81 58.815 58.763 58.203 57.508 56.493 55.7 55.14 55.15 56.52 58.84 59.005 56.073 59.028 63.15 61.98 56.065 55.208 55.23 55.6 55.968 56.13 56.733 57.545 57.618 57.928 56.948 57.393 57.415 57.623 57.85 56.835 57.053 57.293 57.46 57.52 57.585 57.62 57.603 57.653 58.123 58.838 58.64 58.275 58.375 58.68 58.595 58.353 59.845 59.898 59.543 59.108 58.268 58.145 58.193 58.238 58.2 58.208 58.248 58.403 58.36 58.323 58.213 58.083 57.803 57.318 57.013 56.825 56.61 56.43 56.273 56.063 55.805 55.61 57.155 58.613 55.975 54.525 54.208 53.718 52.693 52.028 51.895 51.845 51.89 52.013 52.048 55.883 59.285 61.045 57.545 54.885 56.375 58.583 62.178 60.788 54.655 54.873 56.1 57.085 55.055 54.97 54.925 55.255 54.958 54.795 54.825 54.833 54.808 54.763 54.788 54.793 54.773 54.793 54.803 54.788 54.77 54.775 54.818 54.81 54.803 54.808 54.785 54.765 54.76 54.738 54.71 54.723 54.705 54.7 54.713 54.685 54.675 54.65 54.565 54.543 54.508 54.508 54.485 54.45 54.493 54.495 54.465 54.498 54.498 54.533 54.558 54.52 54.523 54.543 54.573 54.66 54.663 54.628 54.62 54.648 54.683 54.708 54.75 54.763 54.76 54.715 54.925 56.01 54.563 54.18 54.16 54.09 54.013 53.983 53.943 53.88 53.893 59.288 60.62 60.395 60.205 59.965 59.74 59.535 58.88 57.415 58.54 58.385 54.71 54.61 54.213 54.058 54.06 54.045 53.988 53.975 53.88 53.875 53.92 53.863 53.813 56.375 61.165 61.23 61.365 61.485 61.618 61.755 61.838 61.948 62.023 62.145 61.933 60.748 61.035 61.34 61.503 61.743 61.705 61.842 61.838 62.225 61.958 61.865 62.64 61.835 61.8 61.72 61.553 55.985 54.25 53.572 53.542 56.9 61.462 63.055 62.385 60.515 55.085 53.385 53.42 53.432 53.38 53.43 54.517 54.482 54.505 54.178 53.682 53.89 53.752 54.197 54.083 53.97 53.705 53.752 53.715 53.803 53.76 53.955 53.818 54.025 54.025 53.99 53.943 54.303 54.938 55.257 54.025 55.302 57.427 55.755 54.285 54.21 54.152 54.227 54.217 54.277 54.352 54.435 54.465 54.487 54.522 54.602 54.73 54.695 54.767 54.812 55.247 58.027 59.247 58.827 56.8 55.442 55.417 55.542 55.565 55.65 55.712 55.562 55.505 55.61 55.572 55.367 55.357 55.395 55.44 55.515 55.57 55.587 55.6 55.595 55.587 55.59 55.592 55.647 55.802 55.797 55.82 55.825 55.837 55.915 55.952 55.982 56.04 56.06 56.162 56.22 56.285 56.235 56.27 56.28 56.335 56.357 56.42 56.59 56.497 56.497 56.77 56.542 56.622 56.64 56.657 56.68 56.685 56.645 56.6 56.685 56.725 56.737 56.752 56.832 56.81 56.86 56.857 56.9 56.91 56.987 56.98 56.995 57.075 57.02 57.057 57.08 57.087 57.142 57.18 57.182 57.26 57.412 57.415 57.477 57.35 57.202 57.162 57.127 57.17 57.527 58.232 59.145 59.825 60.602 61.965 62.747 62.345 60.572 61.125 61.315 61.84 61.977 62.012 62.382 62.69 62.987 63.467 63.96 64.412 64.875 65.415 65.905 66.485 67.07 67.632 68.252 68.79 69.267 69.79
59.245 59.23 59.23 59.193 59.155 59.19 59.175 59.145 59.158 59.16 59.193 59.343 58.978 58.733 58.693 58.615 58.723 58.718 58.74 58.773 58.788 58.698 58.683 58.648 58.638 58.585 58.575 58.568 58.563 58.548 58.53 58.56 58.643 58.72 58.76 59.158 61.64 59.498 58.84 58.86 58.733 57.675 56.968 56.153 56.873 59.808 61.635 62.298 56.513 56.098 56.723 56.583 58.67 56.578 55.683 56.19 56.395 56.945 57.483 57.508 57.548 57.593 57.515 57.528 59.475 61.47 61.608 59.598 57.228 57.4 57.55 57.588 57.573 57.61 57.64 57.658 58.095 58.473 59.638 58.298 58.45 58.548 59.085 59.715 58.493 59.793 59.123 59.333 60.383 60.393 59.04 58.63 59.07 58.48 58.358 58.355 58.39 58.325 58.328 58.238 58.068 57.855 58.088 57.433 56.918 56.693 56.55 56.658 56.168 55.878 55.818 55.95 56.41 56.848 56.38 54.675 53.908 52.048 52.175 52.025 51.94 51.973 52.513 52.583 62.033 61.593 61.375 56.115 55.43 55.55 57.03 56.185 56.598 55.93 57.715 63.715 61.105 55.395 55.045 54.998 54.918 54.873 54.813 54.755 54.763 54.798 54.78 54.788 54.785 54.803 54.8 54.793 54.823 54.82 54.808 54.823 54.815 54.833 54.838 54.78 54.783 54.77 54.763 54.735 54.743 54.733 54.725 54.73 54.718 54.713 54.633 54.568 54.523 54.493 54.483 54.448 54.475 54.518 54.49 54.513 54.523 54.533 54.568 54.545 54.533 54.545 54.563 54.588 54.65 54.663 54.618 54.64 54.663 54.683 54.695 54.723 54.78 54.768 54.88 56.108 54.723 54.313 54.28 54.163 54.12 54.093 54.053 53.975 53.955 56.07 61.693 61.628 61.513 61.22 61 60.8 60.683 59.255 58.16 58.68 58.18 55.715 55.923 55.053 55.333 54.71 54.318 54.085 54.043 53.953 53.915 53.86 53.82 53.823 55.543 58.515 58.848 59.37 60.485 60.628 60.738 60.815 60.925 61.033 61.155 61.023 60.285 61.085 61.67 61.61 61.835 61.37 61.283 61.138 61.097 60.925 60.785 60.688 60.462 60.485 60.388 60.283 55.605 54.24 55.077 54.715 56.998 59.96 60.487 60.048 58.028 54.403 53.47 53.472 53.502 53.438 53.482 53.638 53.728 53.642 53.68 53.63 53.62 53.667 53.675 53.688 53.693 53.713 53.72 53.737 53.76 53.778 53.815 53.842 53.873 53.885 53.803 53.835 53.82 53.868 53.82 53.862 53.942 54.17 53.83 53.927 54.082 54.165 54.222 54.14 54.45 54.452 54.447 54.42 54.52 54.527 54.58 54.825 54.795 54.747 54.82 55.07 56.802 57.137 56.462 55.645 55.065 55.01 54.972 55.012 55.03 55.062 55.675 55.157 55.252 55.492 55.36 55.395 55.395 55.435 55.44 55.425 55.437 55.455 55.517 55.545 55.605 55.63 55.695 55.725 55.742 55.84 55.857 55.902 55.932 55.96 56.077 56.14 56.22 56.26 56.262 56.422 56.41 56.72 57.222 57.642 57.925 57.93 58.465 58.382 58.375 58.975 58.587 57.945 57.427 57.047 56.782 56.737 56.755 56.755 56.735 56.725 56.73 56.77 56.772 56.827 56.86 56.872 56.987 57.017 56.982 56.977 57.01 56.955 56.99 57.122 57.035 57.092 57.09 57.15 57.17 57.225 57.37 57.405 57.445 57.452 57.282 57.17 57.15 57.107 57.28 57.685 58.472 59.392 60.052 61.06 61.935 60.15 60.877 61.232 61.372 61.507 61.885 62.337 62.692 62.752 63.2 63.67 64.142 64.577 65.055 65.585 66.11 66.66 67.225 67.76 68.385 68.945 69.452 69.947
59.228 59.195 59.178 59.155 59.153 59.158 59.16 59.153 59.155 59.14 59.203 59.39 59.518 58.768 58.61 58.563 58.593 58.68 58.755 58.805 58.768 58.663 58.65 58.628 58.56 58.51 58.473 58.45 58.49 58.503 58.495 58.535 58.548 58.635 58.728 58.725 60.2 61.05 58.878 58.89 58.918 58.32 57.435 56.843 60.163 62.953 64.633 62.468 56.935 56.693 57.375 58.61 56.563 56.225 56.585 56.698 57.303 57.573 57.565 57.615 57.625 57.678 58.513 60.695 62.575 63.11 62.61 59.66 57.928 57.603 57.65 57.665 57.655 57.655 57.648 57.768 58.488 59.59 58.948 58.958 58.723 58.443 58.565 58.753 58.698 58.893 59.975 62.583 64.965 65.463 61.57 60.935 59.23 58.795 59.188 58.45 58.67 58.638 58.16 58.055 57.918 57.71 57.415 57.043 56.968 56.748 56.613 56.408 56.183 55.968 55.91 55.765 55.298 54.995 54.953 54.113 52.91 52.548 52.505 52.308 52.19 52.168 52.815 52.953 55.328 56.768 56.595 55.415 55.548 55.653 55.608 55.508 56.618 55.988 57.498 60.098 58.79 55.448 55.22 55.07 54.98 54.92 54.848 54.728 54.755 54.778 54.748 54.715 54.768 54.79 54.79 54.798 54.815 54.823 54.798 54.82 54.835 54.835 54.828 54.835 54.815 54.788 54.788 54.775 54.775 54.753 54.733 54.748 54.755 54.693 54.645 54.598 54.525 54.495 54.463 54.448 54.488 54.485 54.458 54.508 54.528 54.553 54.585 54.555 54.56 54.593 54.583 54.59 54.648 54.655 54.64 54.658 54.67 54.695 54.713 54.75 54.815 54.928 56.118 55.015 54.388 54.388 54.36 54.223 54.24 54.17 54.103 54.028 54.005 55.325 60.358 60.96 61.315 61.613 61.738 61.665 61.605 59.033 58.71 58.805 58.63 55.225 57.01 56.19 56.738 57.015 54.41 54.12 54.058 54.033 53.928 53.91 53.848 53.873 54.52 54.198 54.138 54.69 54.635 54.875 56.088 56.205 57.013 57.93 58.755 58.905 58.77 59.77 60.333 60.203 60.13 59.96 59.542 59.01 58.78 57.943 58.195 56.66 57.1 55.728 54.833 55.5 53.868 53.72 54.12 53.95 53.915 53.92 53.77 53.72 53.615 53.548 53.51 53.55 53.618 53.583 53.54 53.897 53.897 54.025 54.145 53.79 53.725 53.735 53.78 53.767 53.768 53.792 53.795 53.818 53.855 53.885 53.915 54.245 54.337 54.487 53.95 53.94 53.975 53.97 53.952 53.987 54.015 53.922 53.865 54.007 54.077 54.105 54.137 54.18 54.235 54.267 54.295 54.35 54.37 54.445 54.465 54.527 54.557 54.607 54.647 54.702 54.727 54.817 54.837 54.927 55.405 54.985 55.01 55.07 55.805 56.272 55.817 55.125 55.237 55.41 55.235 55.267 55.225 55.265 55.302 55.355 55.382 55.472 55.505 55.557 55.65 55.69 55.747 55.757 55.845 55.885 55.845 55.91 55.98 56.092 56.137 56.245 56.315 56.7 57.552 58.085 58.437 58.977 59.802 59.36 59.022 59.11 59.517 60.645 60.467 60.41 59.345 59.427 58.875 58.587 58.265 57.685 56.832 56.777 56.777 56.74 56.712 56.705 56.747 56.827 56.83 56.857 56.887 56.942 56.992 56.95 56.975 56.965 56.982 57.03 57.032 57.06 57.097 57.13 57.162 57.135 57.195 57.307 57.38 57.412 57.265 57.202 57.185 57.195 57.13 57.317 58.035 59.19 61.232 61.707 67.72 68.117 62.725 61.267 61.417 61.54 61.782 62.427 62.682 62.902 63.36 63.812 64.26 64.722 65.155 65.705 66.272 66.822 67.387 67.972 68.58 69.137 69.62 70.162
59.203 59.193 59.178 59.155 59.178 59.163 59.153 59.11 59.133 59.145 59.18 59.338 59.143 58.788 58.63 58.565 58.553 58.575 58.678 58.673 58.665 58.623 58.588 58.52 58.46 58.428 58.408 58.408 58.43 58.438 58.46 58.518 58.538 58.608 58.658 58.73 58.775 60.878 60.215 58.925 58.935 58.748 57.933 57.293 58.868 62.035 59.12 56.823 58.748 60.513 59.78 57.278 57.193 57.41 57.97 57.633 57.655 57.653 57.685 57.845 58.593 60.598 62.133 63.368 63.9 62.805 61.393 59.87 58.155 57.808 57.75 57.75 57.75 57.835 57.85 58.083 58.918 59.903 59.248 59.085 58.685 58.565 58.58 58.67 58.633 58.695 58.893 61.19 63.343 61.508 63.255 64.665 63.595 59.59 58.8 58.76 58.563 58.31 58.145 57.903 57.78 57.605 57.265 57.1 57.045 56.893 56.69 56.4 56.225 56.083 55.963 55.618 55.095 55.538 54.475 53.44 53.358 53.52 55.705 56.118 52.498 52.9 57.45 55.255 54.61 54.48 54.68 55.148 55.413 55.625 55.688 57.323 58.173 55.78 56.293 60.053 63.453 61.048 55.615 57.743 55.71 54.958 54.88 54.765 54.708 54.675 54.62 54.68 54.725 54.773 54.763 54.778 54.81 54.828 54.838 54.843 54.845 54.858 54.86 54.863 54.848 54.818 54.818 54.808 54.783 54.76 54.75 54.733 54.735 54.723 54.645 54.598 54.523 54.508 54.498 54.483 54.478 54.493 54.5 54.515 54.528 54.55 54.578 54.59 54.568 54.573 54.6 54.598 54.64 54.65 54.645 54.66 54.695 54.738 54.77 54.795 54.955 56.045 55.208 54.48 54.478 54.478 54.35 54.303 54.318 54.22 54.175 54.098 54.048 54.555 55.033 55.688 57.648 59.2 60.283 60.673 60.853 56.165 56.86 57.663 56.79 54.41 55.035 55.158 55.493 56.323 54.163 54.153 54.125 54.073 54.025 53.983 53.908 53.945 54.355 54.563 54.21 55.69 56.473 55.555 55.293 54.465 53.883 55.613 54.363 53.953 54.25 54.693 55.57 55.655 55.255 54.553 53.885 53.9 53.853 53.78 53.765 53.725 53.7 53.695 53.685 53.697 53.632 53.575 53.64 53.647 53.647 53.63 53.633 53.658 54.325 53.665 53.67 53.645 53.695 53.698 53.74 54.132 54.252 54.233 54.222 53.903 53.825 53.833 53.87 53.87 53.825 53.875 53.895 53.923 53.94 53.938 53.93 54.035 54.182 54.197 54.02 53.985 54.028 54.048 54.05 54.038 54.09 53.955 53.947 54.137 54.225 54.285 54.28 54.307 54.292 54.307 54.397 54.487 54.457 54.505 54.537 54.577 54.557 54.585 54.675 54.647 54.697 54.722 54.712 54.772 54.76 54.785 54.83 54.822 54.902 54.905 54.965 54.995 55.022 55.092 55.127 55.187 55.227 55.34 55.38 55.37 55.39 55.47 55.547 55.59 55.66 55.697 55.732 55.777 55.77 55.917 55.94 56.14 56.125 56.245 56.447 57.247 58.015 58.625 58.83 59.145 59.497 60.062 61.565 61.82 60.465 60.507 60.71 61.102 61.127 61.337 60.697 60.427 59.742 59.53 59.085 58.917 58.67 58.015 57.32 56.827 56.817 56.817 56.865 56.815 56.845 56.865 56.89 56.95 57.027 57.027 57.062 57.105 57.11 57.152 57.145 57.12 57.125 57.12 57.135 57.12 57.135 57.2 57.225 57.25 57.352 57.312 57.245 57.167 57.142 57.142 57.207 57.895 59.697 66.14 70.442 71.135 63.587 61.327 61.43 61.585 61.915 62.43 62.722 63.087 63.532 63.95 64.41 64.852 65.31 65.855 66.415 66.942 67.497 68.075 68.675 69.215 69.73 70.28
59.203 59.188 59.213 59.208 59.188 59.145 59.128 59.103 59.093 59.128 59.185 59.185 59.17 58.8 58.648 58.593 58.548 58.588 58.628 58.603 58.563 58.543 58.485 58.418 58.398 58.408 58.413 58.418 58.413 58.395 58.415 58.483 58.543 58.623 58.608 58.703 58.84 59.435 61.215 59.25 58.928 58.923 58.803 58.053 57.663 57.573 57.06 57.168 60.918 60.433 60.51 57.96 57.508 57.848 58.433 57.72 57.765 57.783 57.913 59.62 61.49 63.338 63.778 64.178 63.353 61.78 60.845 61.098 58.968 58.04 58.105 58.363 58.173 58.093 58.095 59.378 60.605 59.35 59.3 59.185 58.765 58.753 58.76 58.7 58.715 58.743 58.883 59.085 59.873 60.123 64.448 69.948 61.443 59.613 59.648 59.73 59.085 58.353 58.02 57.845 57.565 57.483 57.28 57.058 57 57.07 56.958 56.803 56.355 56.21 55.765 55.403 55.12 54.633 54.323 54.415 54.113 53.88 55.335 57.673 53.523 55.275 53.765 54.39 54.4 54.413 54.635 56.02 56.48 55.505 55.573 56.368 58.23 55.973 55.545 57.655 58.498 58.415 56.455 57.745 55.565 55.245 54.94 54.848 54.703 54.59 54.57 54.645 54.673 54.698 54.74 54.773 54.825 54.853 54.843 54.815 54.818 54.853 54.89 54.908 54.855 54.833 54.855 54.845 54.828 54.785 54.76 54.753 54.745 54.7 54.63 54.588 54.578 54.545 54.513 54.488 54.495 54.51 54.52 54.51 54.553 54.56 54.583 54.593 54.595 54.638 54.613 54.623 54.643 54.675 54.678 54.69 54.705 54.765 54.818 54.935 55.843 55.093 54.59 54.555 54.585 54.52 54.37 54.38 54.345 54.325 54.255 54.175 54.123 54.19 54.173 54.12 54.128 54.328 55.408 56.485 55.673 54.433 54.373 54.615 54.7 54.58 54.405 54.515 54.5 54.615 54.17 54.115 54.128 54.113 54.065 54.028 53.97 53.968 54.48 54.663 54.255 54.38 55.063 54.588 55.068 54.12 53.908 55.505 54.15 53.848 53.858 53.835 53.76 53.755 53.748 53.758 53.76 53.752 53.763 53.76 53.752 53.77 53.775 53.815 53.835 53.895 53.74 53.663 53.79 53.852 53.847 53.825 53.835 53.882 53.917 53.925 53.875 53.788 53.79 53.785 53.84 54.087 54.24 54.17 54.3 53.975 53.92 53.888 53.88 53.915 53.905 53.905 53.888 53.912 53.905 53.868 53.87 53.89 53.943 53.91 53.935 53.943 53.943 53.94 53.987 53.958 54.005 53.98 54 54.04 54.1 54.135 54.142 54.17 54.19 54.192 54.23 54.237 54.282 54.302 54.362 54.402 54.402 54.475 54.475 54.535 54.595 54.62 54.652 54.697 54.735 54.8 54.82 54.86 54.887 54.925 54.977 55.06 55.042 55.09 55.155 55.185 55.252 55.342 55.377 55.425 55.485 55.55 55.595 55.615 55.682 55.702 55.745 55.822 55.98 56.105 56.12 56.225 57.35 58.907 59.33 59.355 59.805 59.805 59.847 60.287 61.015 61.83 62.695 63.57 63.242 62.247 61.9 62.017 62.52 66.99 63.332 61.532 61.035 60.647 60.105 59.597 59.452 59.282 58.805 57.08 56.972 56.982 56.992 56.947 56.96 56.995 56.997 57.01 57.06 57.097 57.13 57.162 57.162 57.197 57.22 57.212 57.182 57.225 57.172 57.092 57.167 57.1 57.117 57.2 57.235 57.245 57.21 57.185 57.185 57.115 57.072 57.38 59.242 63.932 72.627 72.145 66.282 61.267 61.527 61.605 62.12 62.485 62.825 63.205 63.597 64.002 64.46 64.905 65.407 65.925 66.472 67.04 67.597 68.197 68.76 69.315 69.847 70.375
59.25 59.248 59.238 59.26 59.225 59.183 59.14 59.093 59.09 59.14 59.11 59.155 59.378 58.833 58.688 58.6 58.528 58.593 58.603 58.57 58.503 58.468 58.41 58.398 58.54 58.685 58.753 58.755 58.695 58.553 58.473 58.475 58.528 58.608 58.625 58.66 58.823 59.088 61.065 60.38 58.983 58.94 61.76 59.885 58.903 59.16 57.443 59.335 58.263 57.69 59.145 57.725 58.198 58.33 59.733 58.325 57.973 57.99 59.973 62.048 63.35 63.858 62.968 62.938 64.023 62.55 61.243 61.29 60.67 58.148 58.435 58.723 59.133 59.76 58.783 59.7 60.678 60 59.215 59 58.853 58.928 58.898 58.898 58.985 58.908 58.973 59.13 59.123 62.168 64.85 64.248 68.078 65.773 59.275 60.513 60.395 58.9 58.255 57.905 57.743 57.38 57.208 57.045 57.045 57.273 57.425 61.165 57.765 56.213 55.748 55.355 55.54 56.29 55.028 54.69 54.308 54.128 54.4 55.663 54.653 55.158 54.063 54.603 54.603 54.523 55.008 56.968 57.348 55.603 55.638 55.79 56.12 55.66 55.56 55.573 55.63 55.538 55.38 55.988 56.768 56.273 55.25 54.928 54.813 54.713 54.64 54.623 54.613 54.543 54.658 54.755 54.815 54.84 54.79 54.783 54.783 54.843 54.885 54.898 54.888 54.855 54.855 54.903 54.893 54.813 54.783 54.768 54.73 54.68 54.635 54.628 54.625 54.55 54.483 54.455 54.463 54.51 54.565 54.58 54.608 54.603 54.59 54.635 54.68 54.683 54.675 54.675 54.678 54.67 54.703 54.718 54.768 54.793 54.91 56.228 55.283 54.623 54.615 54.625 54.628 54.49 54.44 54.465 54.443 54.395 54.348 54.295 54.228 54.263 54.32 54.32 54.215 54.203 54.188 54.21 54.18 54.235 54.153 54.13 54.115 54.11 54.118 54.163 54.163 54.135 54.13 54.115 54.14 54.12 54.12 54.053 54.043 54.04 54.048 54.058 54.445 54.39 53.965 53.97 53.968 53.935 53.983 53.973 53.993 53.978 53.955 53.963 53.948 53.94 53.933 53.958 53.965 53.987 53.978 53.993 53.95 53.932 53.935 53.987 53.99 53.967 53.907 53.8 53.893 53.97 53.93 53.935 53.888 53.91 53.903 53.897 53.86 53.833 53.837 53.825 53.792 53.843 53.82 53.815 53.818 53.825 53.788 53.77 53.77 53.8 53.82 53.827 53.83 53.822 53.812 53.825 53.835 53.865 53.885 53.905 53.932 53.903 53.947 53.938 53.95 53.98 53.997 54.052 54.092 54.057 54.102 54.147 54.185 54.212 54.26 54.25 54.272 54.295 54.37 54.4 54.402 54.437 54.445 54.525 54.555 54.595 54.645 54.682 54.717 54.747 54.78 54.837 54.875 54.92 54.935 54.992 55.042 55.095 55.09 55.125 55.19 55.22 55.325 55.375 55.392 55.475 55.51 55.562 55.625 55.67 55.707 55.832 55.842 56.17 56.37 56.855 57.585 58.297 58.69 63.405 64.727 64.867 63.815 63.867 62.467 61.487 62.087 62.335 63.102 63.56 63.865 63.145 63.127 63.58 63.55 65.022 64.045 62.61 62.282 61.882 62.545 63.945 60.745 60.802 59.57 59.282 58.357 57.812 57.412 57.177 57.867 58.027 57.862 57.22 57.717 57.91 58.457 58.305 57.952 58.145 57.76 57.46 57.42 57.307 57.257 57.225 57.202 57.11 57.122 57.175 57.217 57.22 57.192 57.21 57.147 57.147 57.102 57.08 57.247 57.665 64.54 66.815 67.33 64.597 61.66 61.737 62.182 62.595 62.892 63.237 63.615 64.05 64.497 64.997 65.49 66.02 66.53 67.127 67.697 68.292 68.812 69.337 69.852 70.377
59.283 59.275 59.255 59.268 59.24 59.19 59.16 59.083 59.045 59.055 59.11 59.188 59.28 58.835 58.673 58.663 58.55 58.563 58.553 58.535 58.485 58.4 58.438 58.653 58.835 58.935 58.955 58.985 58.935 58.833 58.705 58.503 58.455 58.575 58.66 58.683 58.738 58.92 59.745 61.198 58.995 58.97 59.735 59.328 57.85 59.768 63.61 68.975 64.838 57.743 57.798 57.8 59.085 58.803 60.465 59.193 58.958 60.938 62.645 63.733 63.588 62.348 60.708 61.723 63.143 63.655 62.21 60.298 58.693 58.153 58.82 58.445 58.268 59.403 59.128 59.655 59.335 61.02 60.885 60.263 59.57 59.098 58.97 59.038 59.1 59.103 59.145 59.128 59.523 61.28 61.16 59.985 60.13 59.135 59.103 59.7 60.29 60.108 59.845 58.17 58.82 57.77 57.31 57.088 57.013 57.08 57.248 59.943 57.128 56.11 56.295 55.99 59.35 59.743 55.918 54.953 54.625 54.413 54.535 54.175 55.775 56.058 54.608 54.48 54.465 56.148 55.518 55.943 55.74 55.71 55.745 55.765 55.815 55.655 55.583 55.588 55.6 55.425 55.925 56.273 59.135 59.293 57.698 55.895 55.285 54.823 54.748 54.635 54.638 54.595 54.615 54.7 54.82 54.825 54.768 54.788 54.828 54.843 54.9 54.88 54.903 54.9 54.883 54.928 54.895 54.838 54.8 54.748 54.73 54.69 54.65 54.628 54.613 54.555 54.585 54.488 54.528 54.548 54.598 54.65 54.663 54.668 54.693 54.723 54.76 54.71 54.72 54.71 54.703 54.723 54.74 54.755 54.803 54.845 55.728 55.21 54.71 54.703 54.673 54.663 54.613 54.523 54.525 54.563 54.49 54.498 54.433 54.35 54.355 54.393 54.6 54.663 54.385 54.353 54.353 54.323 54.308 54.29 54.298 54.305 54.258 54.31 54.303 54.368 54.39 54.353 54.36 54.335 54.328 54.378 54.318 54.263 54.185 54.203 54.18 54.193 54.593 54.693 54.205 54.138 54.155 54.133 54.148 54.123 54.155 54.128 54.115 54.073 54.075 54.065 54.065 54.055 54.028 54.023 54.025 53.998 53.985 53.965 53.975 53.962 53.95 53.943 53.955 53.927 53.923 53.917 53.903 53.913 53.908 53.913 53.888 53.88 53.858 53.86 53.868 53.847 53.8 53.792 53.843 53.825 53.803 53.833 53.798 53.8 53.763 53.833 53.88 53.853 53.888 53.873 53.885 53.905 53.932 53.952 53.928 53.932 53.967 53.932 53.958 53.975 54.01 54.035 54.047 54.062 54.092 54.065 54.11 54.157 54.202 54.18 54.252 54.27 54.265 54.305 54.36 54.407 54.417 54.487 54.475 54.522 54.547 54.622 54.662 54.677 54.7 54.785 54.865 54.817 54.87 54.915 54.982 55.077 55.037 55.097 55.16 55.202 55.237 55.315 55.337 55.405 55.477 55.507 55.542 55.587 55.657 55.827 55.86 55.955 56.745 57.587 59.007 58.362 59.277 59.582 62.157 66.61 66.595 65.902 64.995 64.97 64.177 63.32 63.417 63.5 63.65 64.042 64.62 65.792 66.212 66.64 69.267 64.53 63.955 63.712 63.407 63.407 65.945 69.105 63.727 61.212 60.592 60.39 61.112 60.255 59.547 59.337 60.507 61.642 60.662 59.365 59.292 59.237 59.412 60.877 59.277 58.782 58.735 58.727 58.48 57.92 58.152 57.35 57.31 57.227 57.097 57.1 57.162 57.152 57.212 57.267 57.19 57.147 57.11 57.017 57.065 57.215 57.605 59.687 60.942 62.28 63.48 62.475 62.292 62.615 62.897 63.205 63.607 64.027 64.497 64.987 65.512 66.077 66.56 67.142 67.745 68.307 68.817 69.315 69.88 70.322
59.285 59.28 59.28 59.248 59.225 59.17 59.143 59.085 59.023 59.04 59.048 59.123 59.378 58.94 58.698 58.71 58.568 58.535 58.538 58.493 58.438 58.398 58.653 58.858 58.945 59.068 59.105 59.125 59.08 58.99 58.838 58.67 58.53 58.573 58.618 58.69 58.755 58.92 59.015 61.553 59.025 58.98 58.993 59.773 58.735 61.558 71.813 71.403 60.458 57.868 57.883 57.948 59.288 59.538 59.23 59.838 61.838 63.218 63.833 63.005 61.78 59.955 58.508 59.865 62.203 63.94 63.66 61.853 58.59 58.16 58.158 58.693 59.508 61.348 60.745 59.345 59.298 59.538 60.108 60.813 61.055 60.085 59.785 59.353 59.23 59.265 59.365 59.308 60.59 62.915 59.58 59.593 59.735 59.215 58.99 58.99 58.91 60.365 60.893 61.558 60.275 58.055 57.725 57.683 57.055 56.985 56.943 60.488 59.065 61.678 56.868 56.728 59.575 57.993 55.628 55.438 54.99 54.9 55.455 55.015 55.513 54.94 58.523 56.848 54.735 55.68 55.74 55.755 55.853 55.9 55.903 55.88 55.978 55.798 55.653 55.593 55.593 55.578 56.588 58.918 62.005 62.163 58.04 57.598 57.62 55.313 54.838 54.78 54.705 54.623 54.6 54.69 54.915 54.79 54.72 54.798 54.833 54.885 54.89 54.893 54.905 54.923 54.923 54.938 54.92 54.865 54.808 54.765 54.708 54.683 54.68 54.7 54.683 54.605 54.543 54.5 54.618 54.605 54.678 54.743 54.758 54.758 54.773 55.023 56.4 54.885 54.72 54.708 54.748 54.77 54.785 54.805 54.988 56.108 55.25 54.81 54.803 54.775 54.743 54.75 54.645 54.625 54.658 54.625 54.55 54.593 54.578 54.473 54.463 54.493 54.628 54.553 54.503 54.475 54.535 54.513 54.508 54.473 54.458 54.488 54.43 54.438 54.405 54.443 54.425 54.383 54.38 54.36 54.39 54.358 54.318 54.345 54.313 54.275 54.28 54.28 54.22 54.228 54.213 54.21 54.228 54.198 54.243 54.173 54.183 54.13 54.158 54.105 54.118 54.14 54.103 54.085 54.062 54.062 53.995 54.037 54 54.038 54.02 53.99 54.013 53.967 53.99 53.99 53.958 53.94 53.903 53.907 53.935 53.93 53.923 53.917 53.908 53.85 53.862 53.862 53.862 53.835 53.875 53.845 53.825 53.86 53.833 53.827 53.805 53.833 53.835 53.845 53.892 53.88 53.868 53.88 53.905 53.892 53.912 53.94 53.943 53.935 53.955 53.987 54.007 54.04 54.02 54.037 54.057 54.07 54.12 54.127 54.172 54.17 54.237 54.245 54.267 54.27 54.31 54.392 54.415 54.392 54.482 54.505 54.502 54.587 54.63 54.69 54.727 54.77 54.855 54.917 54.925 54.985 55.027 55.095 55.15 55.172 55.21 55.282 55.307 55.34 55.44 55.482 55.57 55.6 55.67 55.74 55.94 55.967 56.305 58.087 58.2 58.467 60.23 62.652 62.865 62.625 63.67 62.252 63.367 62.097 63.312 64.162 66.175 64.06 66.417 66.962 68.83 69.147 69.585 69.225 69.762 69.84 70.392 67.34 65.165 65.555 65.857 64.697 64.062 64.452 63.45 62.285 61.895 61.855 62.635 62.882 62.385 63.352 63.227 62.555 61.625 60.07 60.057 60.27 60.412 63.55 61.745 59.5 59.282 58.932 58.957 59.245 58.77 58.027 57.527 57.375 57.247 57.167 57.117 57.162 57.17 57.182 57.162 57.11 57.085 57.082 57.032 57.002 57.145 57.495 59.242 61.302 63 63.48 62.362 62.662 62.935 63.212 63.577 64.012 64.492 64.997 65.537 66.1 66.61 67.177 67.75 68.292 68.76 69.29 69.807 70.222
