ncols 443
nrows 32
xllcorner    428060
yllcorner    541276
cellsize     2
NODATA_value -9999
36.802 36.752 36.625 36.527 36.425 36.347 36.262 36.215 36.175 36.057 35.952 35.845 35.83 35.85 35.832 35.685 35.582 35.475 35.532 35.84 35.737 35.79 35.792 35.715 35.772 35.815 35.845 35.862 35.875 35.837 35.842 35.845 35.86 35.902 35.957 35.982 35.937 35.897 35.862 35.857 35.822 35.78 35.792 35.805 35.812 35.802 35.805 35.842 35.84 35.812 35.8 35.802 35.815 35.8 35.767 35.74 35.727 35.692 35.66 35.665 35.685 35.69 35.675 35.68 35.67 35.652 35.647 35.652 35.667 35.665 35.642 35.647 35.645 35.627 35.622 35.672 35.672 35.672 35.707 35.772 35.897 36.05 36.147 36.027 35.987 36.01 36.027 36.067 36.097 36.107 36.052 36.047 36.062 36.117 36.117 36.11 36.02 36.03 36.02 36 35.96 35.955 35.947 35.905 35.947 36.015 36 36.107 36.877 36.177 35.942 35.96 35.997 36 35.997 35.992 36.01 36.04 36.015 36.052 36.072 36.085 36.162 36.05 36.062 36.052 36.04 36.07 36.07 36.062 36.077 36.11 36.117 36.14 36.167 36.152 36.117 36.12 36.152 36.047 36.102 36.142 36.082 36.057 36.047 36.037 36.007 35.987 36 35.99 35.98 36.062 36.052 36.072 37.115 36.365 36.215 36.245 36.322 36.332 36.302 36.202 36.182 36.22 36.27 36.28 36.357 36.397 36.412 36.43 36.375 36.29 36.292 36.407 36.317 36.207 36.2 36.18 36.135 36.132 36.152 36.137 36.73 36.792 36.115 36.387 36.12 36.062 36.012 35.982 35.935 35.937 35.9 35.882 35.855 35.845 35.835 35.89 36.275 36.562 36.812 36.41 37.557 36.422 36.095 36.055 36.037 36.02 36.045 36.145 36.235 36.297 36.287 36.262 36.245 36.222 36.22 36.25 36.245 36.245 36.252 36.295 36.27 36.265 36.282 36.26 36.255 36.245 36.222 36.197 36.2 36.187 36.167 36.172 36.167 36.155 36.142 36.13 36.14 36.107 36.087 36.077 36.067 36.08 36.065 36.06 36.04 36.01 35.995 35.997 35.99 35.975 35.965 35.965 35.89 35.842 35.797 35.827 35.82 35.815 35.787 35.76 35.78 35.785 35.772 35.797 35.79 35.812 35.787 35.772 35.787 35.8 35.77 35.767 35.78 35.792 35.785 35.762 35.76 35.735 35.747 35.752 35.755 35.742 35.727 35.735 35.712 35.737 35.747 35.722 35.73 35.725 35.725 35.712 35.7 35.707 35.717 35.705 35.712 35.73 35.68 35.69 35.682 35.675 35.665 35.662 35.652 35.647 35.68 35.617 35.57 35.552 35.555 35.58 35.617 35.637 35.665 35.695 35.695 35.697 35.745 35.775 35.81 35.83 35.837 36.124 36.75 36.98 37.026 36.899 36.831 36.676 36.566 36.292 35.942 35.981 35.895 35.289 34.422 33.167 31.818 31.83 31.826 -9999 -9999 -9999 -9999 -9999 38.402 39.364 40.317 41.26 38.954 40.409 37.367 37.481 34.904 35.84 37.572 39.24 38.531 38.05 36.773 36.172 36.011 35.985 36.04 36.074 36.085 36.126 36.182 36.207 36.275 36.287 36.31 36.335 36.332 36.337 36.365 36.32 36.325 36.362 36.365 36.327 36.315 36.385 36.365 36.327 36.285 36.242 36.135 36.027 35.895 35.767 35.625 35.535 35.432 35.377 35.367 35.332 35.325 35.332 35.36 35.355 35.345 35.32 35.32 35.3 35.302 35.32 35.335 35.315 35.31 35.342 35.335 35.322 35.332 35.35 35.347 35.362 35.367 35.347 35.377 35.397 35.405 35.415 35.437 35.447 35.47 35.475 35.507 35.5 35.51 35.517 35.537 35.572 35.602 35.607 35.647 35.642 35.665 35.66 35.69
36.937 36.88 36.77 36.657 36.555 36.435 36.312 36.245 36.237 36.095 35.995 35.955 35.932 35.925 35.88 35.74 36.245 35.692 35.602 36.38 35.865 35.862 35.82 35.762 35.78 35.81 35.852 35.887 35.875 35.882 35.867 35.852 35.89 35.925 35.972 35.97 35.945 35.907 35.865 35.835 35.81 35.8 35.842 35.825 35.83 35.797 35.817 35.812 35.822 35.82 35.827 35.822 35.795 35.772 35.74 35.722 35.712 35.697 35.667 35.677 35.66 35.657 35.672 35.68 35.695 35.69 35.66 35.675 35.695 35.64 35.665 35.657 35.645 35.635 35.632 35.645 35.657 35.687 35.747 35.885 36 36.05 36.067 36.06 36.04 36.02 36.042 36.057 36.067 36.09 36.072 36.082 36.09 36.1 36.05 36.015 36.007 35.982 35.967 35.977 35.97 35.947 35.925 35.907 35.907 35.93 35.942 35.977 35.995 36.695 36.347 35.91 35.97 35.99 36.01 35.997 36.012 36.052 36.05 36.07 36.592 39.82 38.025 36.08 36.077 36.082 36.07 36.055 36.08 36.077 36.08 36.092 36.12 36.115 36.127 36.122 36.095 36.157 36.145 36.092 36.37 36.742 36.082 36.097 36.045 36.017 36.002 35.952 35.98 35.982 36.015 36.077 36.077 36.215 37.422 36.167 36.197 36.232 36.267 36.28 36.215 36.17 36.182 36.18 36.27 36.282 36.33 36.417 36.422 36.412 36.4 36.372 36.357 36.34 36.325 36.317 36.31 36.27 36.225 36.185 36.222 36.207 36.197 36.565 36.412 36.137 36.145 36.115 36.02 35.962 35.917 35.925 35.92 35.907 35.862 35.86 35.885 35.987 36.942 36.307 36.517 36.395 36.262 36.202 36.092 36.05 36.012 36.012 36.092 36.185 36.255 36.277 36.29 36.235 36.175 36.255 36.265 36.255 36.232 36.24 36.252 36.297 36.292 36.28 36.295 36.282 36.27 36.247 36.24 36.24 36.23 36.207 36.205 36.182 36.19 36.165 36.162 36.157 36.142 36.11 36.097 36.107 36.085 36.102 36.067 36.05 36.055 36.035 36.042 36.01 36 35.992 35.935 35.912 35.885 35.825 35.825 35.805 35.792 35.807 35.782 35.79 35.765 35.797 35.785 35.787 35.797 35.787 35.797 35.795 35.8 35.777 35.77 35.765 35.792 35.785 35.762 35.777 35.777 35.755 35.77 35.77 35.75 35.747 35.747 35.732 35.745 35.73 35.745 35.735 35.755 35.742 35.737 35.727 35.717 35.697 35.702 35.73 35.707 35.705 35.695 35.685 35.677 35.71 35.692 35.657 35.642 35.665 35.7 35.662 35.575 35.537 35.54 35.555 35.61 35.652 35.685 35.682 35.7 35.737 35.78 35.807 35.81 35.812 35.85 35.92 36.419 36.849 36.783 36.6 36.613 36.631 36.662 36.516 36.168 35.913 35.982 35.64 34.414 33.791 32.462 31.843 31.858 -9999 -9999 -9999 -9999 -9999 -9999 40.407 40.546 40.117 43.306 43.137 37.49 37.95 34.39 35.281 37.137 39 39.842 38.364 37.497 36.172 35.988 35.908 35.916 36.023 36.133 36.209 36.242 36.207 36.267 36.285 36.272 36.255 36.28 36.292 36.29 36.345 36.347 36.347 36.347 36.337 36.362 36.367 36.317 36.265 36.235 36.155 36.047 35.91 35.797 35.66 35.537 35.455 35.402 35.38 35.307 35.312 35.32 35.31 35.327 35.332 35.325 35.335 35.337 35.315 35.312 35.297 35.315 35.322 35.312 35.322 35.327 35.335 35.327 35.337 35.347 35.347 35.362 35.385 35.387 35.395 35.412 35.402 35.43 35.437 35.482 35.5 35.53 35.51 35.515 35.55 35.537 35.55 35.58 35.607 35.632 35.635 35.657 35.645 35.655
37.04 36.962 36.877 36.76 36.642 36.515 36.375 36.32 36.272 36.147 36.097 36.077 36.172 36.105 36.01 36.25 37.782 36.35 35.66 35.935 35.84 35.862 35.815 35.77 35.765 35.817 35.86 35.862 35.895 35.87 35.882 35.887 35.887 35.93 35.957 35.955 35.92 35.9 35.875 35.832 35.812 35.825 35.83 35.837 35.842 35.802 35.795 35.81 35.842 35.842 35.827 35.797 35.765 35.757 35.727 35.697 35.692 35.687 35.682 35.66 35.657 35.695 35.657 35.687 35.687 35.68 35.672 35.69 35.667 35.67 35.672 35.662 35.665 35.632 35.635 35.62 35.665 35.742 35.88 35.985 35.992 36.055 36.055 36.04 36.027 36.062 36.08 36.095 36.065 36.07 36.105 36.11 36.06 36.05 36.027 36.037 36.002 36.07 36.027 36.04 36.025 36 35.925 35.89 35.922 35.892 35.855 35.99 36 36.242 36.512 36.205 35.957 35.947 35.97 35.98 35.992 36.045 36.052 36.057 36.08 36.112 36.067 36.077 36.11 36.11 36.1 36.08 36.085 36.087 36.047 36.11 36.102 36.1 36.125 36.112 36.1 36.142 36.167 36.17 36.145 36.052 36.097 36.11 36.065 36.057 36 35.98 35.967 36.532 36.567 36.092 36.087 36.585 37.192 36.165 36.197 36.2 36.212 36.175 36.155 36.15 36.167 36.277 36.385 36.392 36.385 36.43 36.472 36.45 36.4 36.365 36.365 36.317 36.347 36.43 36.45 36.395 36.332 36.31 36.295 36.287 36.267 36.262 36.18 36.132 36.375 36.17 36.032 35.945 35.897 35.875 35.897 35.925 35.9 35.885 36.202 36.38 36.422 36.51 36.512 36.497 36.272 36.127 36.11 36.105 36.072 36.107 36.17 36.182 36.24 36.305 36.32 36.275 36.167 36.15 36.237 36.28 36.265 36.207 36.215 36.22 36.275 36.277 36.295 36.295 36.297 36.287 36.272 36.247 36.25 36.222 36.21 36.22 36.197 36.182 36.182 36.16 36.162 36.142 36.122 36.12 36.117 36.122 36.102 36.077 36.062 36.035 36.04 36.025 36.03 36.027 36.01 35.917 35.91 35.855 35.855 35.83 35.85 35.81 35.795 35.775 35.762 35.79 35.81 35.807 35.782 35.785 35.797 35.792 35.787 35.785 35.795 35.782 35.772 35.775 35.777 35.75 35.767 35.762 35.762 35.757 35.757 35.76 35.762 35.735 35.737 35.752 35.735 35.735 35.755 35.742 35.76 35.74 35.74 35.7 35.68 35.732 35.712 35.707 35.712 35.702 35.7 35.665 35.66 35.687 35.677 35.662 35.635 35.617 35.562 35.54 35.517 35.55 35.605 35.657 35.702 35.697 35.73 35.772 35.792 35.822 35.837 35.827 35.855 35.871 36.092 36.673 36.882 36.668 36.562 36.582 36.648 36.671 36.317 35.89 35.857 35.733 34.601 33.769 32.818 31.927 32.015 32.211 -9999 -9999 -9999 -9999 -9999 40.401 39.39 39.358 38.875 38.402 38.52 39.372 35.606 35.517 37.443 39.263 39.82 39.195 37.204 36.213 35.964 35.882 35.902 35.982 36.143 36.261 36.273 36.245 36.257 36.265 36.232 36.202 36.207 36.227 36.27 36.305 36.322 36.35 36.375 36.377 36.34 36.3 36.27 36.212 36.14 36.022 35.92 35.807 35.692 35.58 35.477 35.415 35.407 35.365 35.33 35.295 35.297 35.297 35.295 35.32 35.312 35.325 35.335 35.33 35.325 35.317 35.305 35.315 35.337 35.307 35.307 35.317 35.322 35.335 35.367 35.38 35.387 35.39 35.395 35.41 35.435 35.412 35.407 35.427 35.457 35.482 35.51 35.525 35.505 35.55 35.572 35.562 35.57 35.595 35.585 35.612 35.61 35.622 35.66
37.117 37.03 36.952 36.835 36.7 36.58 36.44 36.34 36.297 36.255 36.257 36.195 36.207 36.17 36.11 35.955 35.802 36.742 35.84 35.875 35.892 35.862 35.847 35.802 35.767 35.83 35.845 35.852 35.86 35.835 35.892 35.917 35.91 35.94 35.955 35.932 35.932 35.9 35.88 35.857 35.85 35.842 35.847 35.847 35.812 35.802 35.805 35.83 35.832 35.855 35.81 35.802 35.78 35.752 35.735 35.72 35.68 35.675 35.67 35.65 35.662 35.695 35.685 35.667 35.682 35.672 35.652 35.66 35.68 35.685 35.687 35.68 35.662 35.642 35.63 35.662 35.755 35.887 35.977 36.002 36.01 36.027 36.042 36.045 36.047 36.072 36.125 36.135 36.18 36.172 36.14 36.11 36.045 36.067 36.02 36 36.077 36.49 36.072 36.032 36.067 36.072 36.06 35.982 35.92 35.865 35.865 35.892 35.957 36.002 36.007 36.84 36.267 35.927 35.997 35.98 35.972 36.037 36.047 36.055 36.055 36.067 36.092 36.092 36.11 36.132 36.115 36.092 36.09 36.095 36.087 36.085 36.087 36.08 36.107 36.107 36.13 36.187 36.202 36.18 36.12 36.092 36.052 36.065 36.047 36.032 36 35.982 35.99 36.21 36.442 36.102 36.18 36.75 36.642 36.595 36.225 36.16 36.117 36.13 36.15 36.145 36.262 36.342 36.42 36.442 36.442 36.512 36.522 36.565 36.452 36.392 36.395 36.355 36.345 36.322 36.455 36.495 36.447 36.407 36.382 36.352 36.29 36.232 36.207 36.137 36.532 37.69 36.64 35.947 35.872 35.86 35.88 35.947 35.91 35.902 36.502 37.242 37.027 37.485 37.08 36.352 36.272 36.212 36.125 36.127 36.14 36.2 36.215 36.235 36.285 36.327 36.325 36.32 36.275 36.207 36.175 36.187 36.255 36.24 36.212 36.225 36.242 36.242 36.242 36.3 36.305 36.29 36.272 36.275 36.247 36.247 36.235 36.217 36.202 36.207 36.182 36.2 36.162 36.157 36.15 36.127 36.112 36.11 36.09 36.075 36.082 36.067 36.07 36.055 36.02 36.055 36.152 35.927 35.872 35.867 35.867 35.837 35.805 35.825 35.802 35.79 35.842 35.8 35.795 35.84 35.782 35.797 35.815 35.797 35.792 35.795 35.78 35.767 35.79 35.787 35.775 35.767 35.77 35.762 35.755 35.76 35.762 35.75 35.752 35.745 35.737 35.732 35.722 35.737 35.747 35.732 35.735 35.752 35.7 35.71 35.722 35.715 35.727 35.71 35.707 35.692 35.69 35.67 35.67 35.7 35.727 35.74 35.605 35.602 35.58 35.525 35.497 35.56 35.6 35.652 35.692 35.687 35.74 35.765 35.787 35.797 35.81 35.842 35.87 35.884 35.935 36.349 36.865 36.818 36.568 36.53 36.619 36.731 36.487 36.12 35.796 35.799 35.448 34.165 33.325 32.638 32.551 32.32 32.395 -9999 -9999 -9999 -9999 -9999 39.365 38.729 38.008 37.771 35.84 33.766 34.341 34.849 40.274 39.109 37.788 37.84 36.839 36.19 35.906 35.865 35.965 36.009 36.127 36.24 36.246 36.242 36.222 36.212 36.185 36.162 36.187 36.24 36.252 36.28 36.317 36.34 36.372 36.337 36.29 36.245 36.182 36.097 36.005 35.892 35.787 35.672 35.587 35.492 35.435 35.387 35.38 35.357 35.335 35.285 35.285 35.325 35.327 35.32 35.322 35.33 35.32 35.317 35.33 35.327 35.315 35.327 35.355 35.335 35.322 35.337 35.335 35.34 35.367 35.38 35.38 35.425 35.425 35.422 35.447 35.445 35.44 35.447 35.43 35.465 35.507 35.525 35.532 35.57 35.582 35.555 35.572 35.595 35.62 35.605 35.63 35.605 35.627
37.182 37.097 37.012 36.905 36.787 36.665 36.49 36.4 36.372 36.385 36.427 36.28 36.25 36.202 36.21 36.05 35.862 36.18 35.865 35.937 35.902 35.857 35.822 35.777 35.77 35.817 35.805 35.827 35.832 35.855 35.897 35.922 35.917 35.945 35.937 35.945 35.952 35.925 35.9 35.862 35.862 35.84 35.845 35.832 35.8 35.807 35.817 35.852 35.842 35.845 35.817 35.78 35.78 35.757 35.72 35.71 35.667 35.662 35.67 35.655 35.672 35.697 35.695 35.677 35.662 35.655 35.642 35.655 35.705 35.692 35.682 35.662 35.677 35.662 35.667 35.735 35.915 36.002 36 35.997 36.027 36.055 36.072 36.072 36.05 36.082 36.152 36.24 36.192 36.175 36.112 36.045 36.04 36.035 35.985 35.967 36.027 36.082 36.082 36.075 36.107 36.06 36.055 36.035 36 35.935 35.882 35.892 35.91 35.972 36.022 36.087 36.742 36.417 35.997 35.995 36.002 35.992 36.075 36.025 36.04 36.077 36.065 36.077 36.125 36.112 36.127 36.125 36.122 36.077 36.07 36.097 36.105 36.092 36.092 36.077 36.145 36.182 36.195 36.17 36.102 36.117 36.06 36.042 36.052 36.005 36.01 36.017 36.01 36.075 36.095 36.15 36.375 36.61 36.172 36.575 36.67 36.117 36.09 36.152 36.122 36.207 36.287 36.33 36.375 36.405 36.467 36.502 36.545 36.567 36.555 36.437 36.377 36.357 36.355 36.372 36.312 36.392 36.47 36.442 36.375 36.32 36.292 36.24 36.225 36.195 36.192 36.177 37.167 36.17 35.927 35.88 35.845 35.87 35.93 35.927 36.052 36.7 36.702 36.865 36.3 36.285 36.55 36.305 36.177 36.182 36.212 36.25 36.235 36.285 36.312 36.337 36.355 36.325 36.292 36.267 36.22 36.16 36.187 36.235 36.247 36.232 36.22 36.23 36.252 36.267 36.31 36.282 36.292 36.312 36.282 36.262 36.26 36.225 36.225 36.217 36.217 36.19 36.192 36.185 36.17 36.137 36.155 36.135 36.125 36.102 36.1 36.092 36.2 36.1 36.05 35.975 35.925 35.912 35.897 35.882 35.832 35.827 35.812 35.822 35.785 35.805 35.795 35.785 35.78 35.82 35.805 35.782 35.805 35.772 35.775 35.782 35.797 35.76 35.795 35.777 35.802 35.78 35.767 35.765 35.755 35.767 35.777 35.762 35.752 35.75 35.737 35.747 35.732 35.745 35.747 35.757 35.727 35.732 35.73 35.742 35.725 35.735 35.707 35.692 35.707 35.685 35.737 35.697 35.685 35.692 35.765 35.657 35.645 35.612 35.575 35.52 35.527 35.59 35.632 35.65 35.677 35.692 35.732 35.75 35.777 35.777 35.817 35.857 35.882 35.877 35.911 36.053 36.613 36.869 36.692 36.536 36.553 36.614 36.7 36.289 35.901 35.792 35.796 35.18 34.015 33.137 32.531 32.564 32.769 32.618 32.377 -9999 -9999 -9999 -9999 36.407 35.652 35.412 33.735 35.945 35.093 37.856 41.269 38.515 36.679 36.845 36.323 36.074 35.965 35.952 36.097 36.118 36.175 36.217 36.222 36.173 36.18 36.17 36.195 36.185 36.217 36.227 36.235 36.297 36.365 36.34 36.31 36.265 36.187 36.152 36.115 35.997 35.87 35.767 35.647 35.585 35.53 35.445 35.442 35.385 35.372 35.36 35.327 35.322 35.317 35.315 35.32 35.337 35.31 35.317 35.312 35.325 35.31 35.317 35.322 35.347 35.362 35.33 35.35 35.36 35.36 35.34 35.35 35.385 35.355 35.402 35.42 35.447 35.45 35.452 35.48 35.492 35.465 35.472 35.487 35.515 35.535 35.537 35.567 35.585 35.57 35.585 35.622 35.632 35.64 35.62 35.632
37.277 37.152 37.037 36.96 36.832 36.67 36.552 36.492 36.492 36.495 36.492 36.397 36.287 36.255 36.182 36.042 35.937 35.86 35.87 35.925 35.902 35.857 35.817 35.795 35.79 35.802 35.787 35.792 35.795 35.842 35.872 35.892 35.9 35.94 35.945 35.97 36.002 35.975 35.927 35.892 35.88 35.855 35.82 35.815 35.83 35.83 35.817 35.835 35.85 35.817 35.802 35.752 35.737 35.75 35.74 35.695 35.662 35.642 35.63 35.655 35.652 35.677 35.675 35.662 35.672 35.672 35.677 35.687 35.72 35.722 35.71 35.682 35.66 35.657 35.737 35.882 36.225 36.075 36.002 36.007 36.045 36.092 36.107 36.102 36.107 36.125 36.19 36.182 36.13 36.125 36.05 36.027 36.027 35.967 36 36.182 36.362 36.072 36.09 36.072 36.072 36.04 36.065 36.04 35.987 36.002 35.985 35.89 35.897 35.895 35.987 36.012 36.142 36.815 36.267 36.01 36.022 36.05 36.297 36.06 36.08 36.057 36.062 36.067 36.062 36.065 36.1 36.14 36.177 36.097 36.085 36.087 36.105 36.112 36.107 36.1 36.137 36.157 36.175 36.117 36.127 36.105 36.067 36.03 36.04 36.032 36.022 36.045 36.085 36.115 36.117 36.23 36.702 36.177 36.717 36.14 36.74 36.087 36.122 36.065 36.157 36.23 36.275 36.33 36.36 36.372 36.41 36.497 36.552 36.582 36.58 36.545 36.42 36.397 36.37 36.392 36.327 36.317 36.285 36.27 36.317 36.342 36.317 36.26 36.252 36.275 36.205 36.11 36.28 36.415 35.952 35.865 35.822 35.835 35.872 35.975 36.06 36.112 36.215 36.252 36.255 36.245 36.312 36.25 36.237 36.252 36.252 36.27 36.295 36.332 36.335 36.36 36.36 36.335 36.327 36.335 36.332 36.282 36.185 36.187 36.22 36.257 36.26 36.23 36.237 36.217 36.287 36.287 36.302 36.337 36.392 36.285 36.277 36.247 36.25 36.245 36.207 36.195 36.202 36.202 36.185 36.167 36.18 36.132 36.142 36.092 36.117 36.117 36.102 36.067 36.027 35.987 35.942 35.93 35.917 35.865 35.84 35.832 35.797 35.807 35.83 35.785 35.795 35.817 35.802 35.82 35.795 35.792 35.782 35.82 35.81 35.792 35.81 35.807 35.802 35.8 35.8 35.785 35.78 35.785 35.772 35.76 35.77 35.757 35.75 35.75 35.765 35.74 35.74 35.742 35.735 35.74 35.737 35.717 35.71 35.717 35.725 35.725 35.727 35.712 35.74 35.787 35.717 35.707 35.695 35.7 35.695 35.59 35.63 35.602 35.545 35.547 35.55 35.565 35.585 35.632 35.657 35.692 35.71 35.74 35.757 35.772 35.807 35.847 35.882 35.897 35.908 35.926 36.265 36.827 36.799 36.529 36.549 36.552 36.6 36.318 36.028 35.819 35.81 35.609 34.895 34.041 33.447 33.043 32.808 32.025 32.31 32.84 32.829 -9999 -9999 34.858 34.69 34.935 35.989 36.739 34.62 33.685 35.581 37.636 36.618 35.873 36.206 36.09 36.264 36.166 36.272 36.317 36.218 36.186 36.181 36.172 36.154 36.147 36.225 36.222 36.197 36.265 36.29 36.365 36.387 36.307 36.252 36.185 36.132 36.065 35.99 35.89 35.772 35.64 35.58 35.512 35.485 35.442 35.42 35.382 35.37 35.345 35.34 35.312 35.317 35.315 35.33 35.307 35.287 35.322 35.34 35.337 35.325 35.325 35.31 35.332 35.347 35.34 35.35 35.37 35.375 35.36 35.362 35.375 35.38 35.402 35.43 35.44 35.437 35.455 35.455 35.47 35.482 35.477 35.48 35.515 35.532 35.55 35.565 35.565 35.597 35.582 35.607 35.607 35.637 35.64 35.64
37.407 37.215 37.09 36.957 36.875 36.68 36.665 36.637 36.577 36.532 36.492 36.365 36.3 36.252 36.14 36.102 35.997 35.957 35.915 35.917 35.88 35.86 35.817 35.825 35.817 35.782 35.747 35.757 35.8 35.842 35.842 35.88 35.905 35.95 35.955 35.965 36.012 35.992 35.97 35.927 35.89 35.877 35.85 35.842 35.82 35.817 35.83 35.847 35.822 35.785 35.775 35.757 35.755 35.725 35.717 35.672 35.672 35.66 35.637 35.627 35.622 35.645 35.665 35.66 35.665 35.675 35.69 35.697 35.707 35.702 35.705 35.682 35.675 35.7 35.817 35.992 36.067 36.095 36.072 36.07 36.08 36.08 36.12 36.115 36.142 36.157 36.192 36.155 36.112 36.065 36.01 36.012 35.98 36.115 38.362 38.492 41.977 36.985 36.097 36.212 36.185 36.055 36.042 36.032 36.037 35.995 36.017 35.97 35.91 35.932 35.922 35.932 36.027 36.06 36.835 36.477 36.027 36.08 36.117 36.087 36.09 36.105 36.082 36.077 36.082 36.085 36.092 36.122 36.187 36.122 36.102 36.107 36.112 36.132 36.102 36.14 36.152 36.162 36.107 36.125 36.12 36.105 36.075 36.09 36.035 36.02 36.047 36.105 36.142 36.107 36.325 36.877 36.247 36.142 36.115 36.042 36.075 36.075 36.545 36.115 36.157 36.217 36.257 36.27 36.297 36.337 36.357 36.44 36.495 36.527 36.527 36.565 36.505 36.405 36.385 36.415 36.375 36.357 36.322 36.315 36.307 36.307 36.35 36.315 36.33 36.355 36.267 36.137 36.075 36.357 35.997 35.915 35.87 35.875 35.882 35.982 36.11 36.182 36.255 36.257 36.225 36.227 36.267 36.272 36.285 36.307 36.315 36.327 36.332 36.342 36.347 36.342 36.33 36.332 36.35 36.345 36.347 36.33 36.23 36.187 36.202 36.262 36.305 36.262 36.242 36.22 36.24 36.305 36.32 36.302 36.302 36.29 36.29 36.292 36.272 36.255 36.235 36.2 36.235 36.217 36.202 36.205 36.195 36.157 36.177 36.15 36.122 36.122 36.07 36.05 36.017 35.997 35.942 35.945 35.897 35.847 35.81 35.827 35.817 35.822 35.817 35.802 35.822 35.822 35.827 35.817 35.815 35.805 35.805 35.787 35.805 35.795 35.79 35.795 35.795 35.795 35.8 35.785 35.782 35.772 35.752 35.775 35.772 35.77 35.752 35.752 35.77 35.752 35.745 35.752 35.752 35.727 35.732 35.732 35.735 35.732 35.757 35.722 35.73 35.692 35.752 35.685 35.737 35.705 35.787 35.707 35.605 35.612 35.615 35.612 35.59 35.557 35.575 35.562 35.612 35.63 35.647 35.702 35.727 35.725 35.75 35.767 35.802 35.82 35.85 35.86 35.852 35.898 36.016 36.592 36.854 36.903 37.502 37.915 37.422 36.375 36.103 35.831 35.795 35.821 35.766 35.045 33.868 33.246 32.206 31.772 32.217 32.867 32.904 32.66 -9999 -9999 35.582 36.476 36.958 37.39 34.18 33.442 34.348 35.473 36.072 36.067 36.057 36.439 36.607 36.384 36.336 36.357 36.267 36.204 36.147 36.159 36.169 36.147 36.217 36.207 36.205 36.242 36.307 36.33 36.312 36.252 36.18 36.145 36.042 35.97 35.9 35.802 35.687 35.582 35.502 35.482 35.467 35.437 35.382 35.357 35.36 35.365 35.33 35.307 35.315 35.312 35.312 35.295 35.302 35.325 35.332 35.347 35.325 35.317 35.315 35.325 35.34 35.347 35.357 35.392 35.372 35.375 35.387 35.382 35.4 35.407 35.415 35.437 35.457 35.467 35.42 35.465 35.465 35.475 35.49 35.505 35.497 35.54 35.557 35.58 35.595 35.592 35.612 35.607 35.62 35.64 35.63
37.5 37.29 37.13 36.97 36.87 36.747 36.762 36.775 36.67 36.59 36.522 36.422 36.345 36.247 36.187 36.142 36.06 36.012 35.95 35.915 35.845 35.822 35.812 35.792 35.81 35.767 35.722 35.772 35.82 35.832 35.877 35.91 35.927 35.977 35.955 35.987 36.01 35.982 35.955 35.94 35.897 35.88 35.86 35.847 35.825 35.827 35.8 35.792 35.787 35.772 35.75 35.737 35.725 35.71 35.702 35.675 35.672 35.637 35.63 35.625 35.64 35.66 35.69 35.707 35.71 35.72 35.72 35.707 35.705 35.7 35.68 35.667 35.687 35.79 35.922 35.997 36.065 36.09 36.107 36.105 36.095 36.105 36.067 36.122 36.177 36.187 36.177 36.125 36.047 36.035 36.017 35.967 36.05 39.757 43.772 44.117 44.585 43.755 39.107 36.2 36.24 36.105 36.095 36.02 36.05 36.015 36.047 36.027 35.967 35.91 35.91 35.91 35.987 36.045 36.092 36.792 36.497 36.082 36.1 36.105 36.075 36.102 36.097 36.092 36.087 36.082 36.115 36.127 36.152 36.17 36.122 36.095 36.095 36.092 36.137 36.14 36.152 36.147 36.14 36.152 36.142 36.112 36.09 36.102 36.087 36.097 36.14 36.147 36.152 36.272 36.867 36.42 36.152 36.122 36.095 36.037 36.045 36.02 36.775 36.642 36.172 36.232 36.242 36.245 36.275 36.327 36.325 36.35 36.417 36.457 36.485 36.567 36.582 36.457 36.372 36.375 36.385 36.39 36.372 36.35 36.297 36.287 36.322 36.35 36.372 36.362 36.262 36.182 36.112 36.61 36.045 35.987 35.907 35.917 35.92 36.012 36.182 36.275 36.297 36.287 36.277 36.297 36.307 36.317 36.34 36.327 36.34 36.352 36.332 36.325 36.325 36.33 36.285 36.29 36.305 36.322 36.332 36.317 36.26 36.225 36.227 36.217 36.225 36.295 36.277 36.23 36.267 36.322 36.285 36.315 36.312 36.317 36.322 36.312 36.287 36.262 36.267 36.232 36.24 36.237 36.22 36.22 36.192 36.197 36.195 36.167 36.15 36.132 36.06 36.06 35.995 35.98 35.97 35.922 35.857 35.827 35.812 35.8 35.87 35.827 35.82 35.835 35.837 35.815 35.825 35.797 35.802 35.81 35.802 35.8 35.797 35.79 35.77 35.797 35.797 35.792 35.805 35.785 35.767 35.76 35.78 35.77 35.777 35.78 35.76 35.785 35.765 35.752 35.75 35.752 35.74 35.73 35.735 35.735 35.727 35.732 35.735 35.75 35.737 35.697 35.71 35.682 35.705 35.722 35.717 35.642 35.602 35.625 35.632 35.587 35.597 35.597 35.6 35.627 35.61 35.645 35.66 35.675 35.692 35.697 35.727 35.752 35.775 35.787 35.81 35.85 35.835 35.856 35.89 36.217 36.779 37.013 37.959 37.886 38.517 38.344 36.33 35.946 35.776 35.753 35.847 35.54 34.986 34.289 32.486 31.816 33.1 33.308 32.701 32.393 -9999 -9999 36.306 36.248 36.156 36.327 35.7 34.83 35.092 35.761 35.817 36.108 36.059 36.571 36.684 36.513 36.373 36.442 36.313 36.237 36.173 36.204 36.209 36.224 36.23 36.22 36.235 36.275 36.305 36.295 36.252 36.18 36.12 36.05 35.965 35.897 35.797 35.707 35.61 35.512 35.45 35.465 35.457 35.43 35.382 35.385 35.37 35.345 35.327 35.32 35.332 35.322 35.32 35.292 35.295 35.315 35.31 35.31 35.32 35.305 35.305 35.29 35.325 35.342 35.362 35.37 35.365 35.382 35.412 35.392 35.417 35.392 35.405 35.43 35.435 35.477 35.46 35.482 35.455 35.477 35.48 35.5 35.495 35.53 35.552 35.555 35.572 35.587 35.602 35.63 35.607 35.645 35.637
37.597 37.365 37.185 37.035 36.88 36.887 36.852 36.822 36.74 36.637 36.522 36.525 36.397 36.272 36.165 36.137 36.142 36.085 36.015 35.942 35.865 35.86 35.857 35.85 35.812 35.785 35.775 35.835 35.875 35.902 35.947 35.937 35.955 35.99 35.995 35.96 35.975 35.972 35.942 35.915 35.895 35.882 35.88 35.865 35.835 35.83 35.82 35.81 35.802 35.78 35.76 35.727 35.7 35.69 35.682 35.657 35.657 35.632 35.63 35.665 35.672 35.67 35.685 35.697 35.715 35.722 35.735 35.722 35.74 35.697 35.685 35.655 35.742 35.872 35.957 35.99 36.045 36.067 36.077 36.107 36.122 36.1 36.117 36.142 36.172 36.165 36.115 36.015 36.025 36.01 36.007 36.03 40.887 44.032 44.54 44.92 45.18 44.322 41.757 36.077 36.11 36.122 36.25 36.067 36.012 36.06 36.072 36.037 36.037 35.985 35.955 35.925 35.922 36.03 36.055 36.06 36.662 36.592 36.03 36.062 36.067 36.087 36.12 36.127 36.117 36.097 36.107 36.14 36.137 36.132 36.142 36.115 36.092 36.117 36.122 36.127 36.102 36.165 36.16 36.142 36.125 36.11 36.1 36.085 36.097 36.105 36.12 36.12 36.202 37.03 36.52 36.2 36.17 36.062 36.052 36.107 36.015 36.057 36.127 36.432 36.867 36.165 36.29 36.43 36.942 37.252 37.44 37.202 37.197 37.307 36.767 36.567 36.615 36.542 36.452 36.392 36.385 36.41 36.382 36.385 36.37 36.322 36.317 36.36 36.422 36.352 36.21 36.16 36.102 36.162 36.152 36.01 36.017 35.925 35.917 36.03 36.227 36.325 36.34 36.362 36.337 36.34 36.352 36.355 36.367 36.36 36.365 36.337 36.332 36.327 36.29 36.295 36.252 36.305 36.315 36.322 36.31 36.29 36.257 36.197 36.202 36.205 36.192 36.187 36.235 36.245 36.255 36.28 36.285 36.297 36.277 36.325 36.36 36.302 36.302 36.295 36.287 36.26 36.257 36.227 36.197 36.197 36.215 36.202 36.18 36.185 36.16 36.147 36.067 36.005 36.072 36.1 35.975 35.912 35.835 35.837 35.827 35.845 35.882 35.85 35.847 35.832 35.845 35.81 35.82 35.822 35.812 35.8 35.815 35.805 35.802 35.797 35.79 35.795 35.802 35.812 35.785 35.79 35.77 35.772 35.777 35.762 35.775 35.762 35.765 35.76 35.75 35.762 35.77 35.75 35.745 35.735 35.75 35.755 35.742 35.725 35.717 35.737 35.802 35.717 35.717 35.71 35.812 35.877 35.68 35.622 35.59 35.625 35.645 35.62 36.087 35.64 35.595 35.625 35.632 35.64 35.647 35.66 35.692 35.722 35.72 35.722 35.752 35.767 35.792 35.805 35.81 35.832 35.848 35.959 36.533 37.215 38.211 37.307 38.684 38.595 37.558 36.19 35.806 35.704 35.707 35.61 35.347 34.946 33.768 32.285 32.006 33.141 32.173 32.42 32.588 -9999 35.453 35.379 35.046 35.898 35.778 34.705 34.485 37.677 36.167 36.337 36.302 36.322 36.609 36.522 36.317 36.355 36.322 36.246 36.204 36.201 36.236 36.248 36.235 36.245 36.282 36.282 36.267 36.232 36.177 36.13 36.052 35.985 35.922 35.815 35.725 35.647 35.567 35.505 35.48 35.452 35.435 35.417 35.387 35.382 35.367 35.362 35.317 35.325 35.33 35.31 35.302 35.302 35.315 35.32 35.295 35.305 35.32 35.3 35.307 35.32 35.32 35.325 35.317 35.35 35.382 35.387 35.377 35.405 35.41 35.412 35.417 35.427 35.42 35.46 35.475 35.427 35.455 35.465 35.472 35.48 35.512 35.547 35.547 35.56 35.567 35.597 35.595 35.595 35.62 35.63 35.627
37.705 37.432 37.247 37.077 36.997 36.98 36.947 36.83 36.822 36.73 36.632 36.475 36.347 36.242 36.225 36.197 36.175 36.125 36.067 35.962 35.905 35.905 35.89 35.845 35.82 35.792 35.785 35.852 35.905 35.93 35.94 35.962 35.977 36.027 36.05 36.015 35.965 35.967 35.95 35.932 35.907 35.892 35.892 35.877 35.837 35.827 35.83 35.83 35.812 35.772 35.755 35.725 35.707 35.665 35.672 35.657 35.662 35.64 35.667 35.67 35.67 35.667 35.68 35.697 35.705 35.712 35.72 35.737 35.717 35.705 35.697 35.742 35.89 35.942 35.972 35.987 36.035 36.05 36.075 36.105 36.1 36.1 36.112 36.147 36.137 36.107 36.02 35.985 35.97 36.005 36.04 39.08 44.085 44.902 45.35 45.305 44.615 42.96 37.82 36.05 36.132 36.15 36.187 36.127 36.087 36.087 36.105 36.082 36.042 36.04 35.977 35.925 35.92 35.98 35.992 36.087 36.077 36.71 36.635 36.042 36.057 36.1 36.105 36.095 36.12 36.117 36.125 36.125 36.147 36.235 36.562 36.13 36.15 36.097 36.097 36.095 36.095 36.142 36.16 36.092 36.097 36.105 36.087 36.082 36.13 36.112 36.105 36.162 36.755 36.562 36.155 36.152 36.085 36.025 36.067 36.062 36.05 36.102 36.655 36.102 36.45 36.975 36.937 36.442 36.65 36.275 36.26 36.197 36.222 36.482 37.282 36.905 36.55 36.61 36.515 36.422 36.367 36.387 36.405 36.44 36.4 36.372 36.335 36.337 36.512 36.442 36.305 36.195 36.147 36.097 36.6 36.007 35.952 35.937 35.97 36.127 36.25 36.3 36.357 36.367 36.37 36.375 36.385 36.382 36.395 36.387 36.34 36.347 36.327 36.277 36.272 36.257 36.29 36.327 36.332 36.342 36.355 36.32 36.287 36.237 36.22 36.225 36.227 36.205 36.187 36.2 36.257 36.36 36.302 36.285 36.265 36.295 36.33 36.32 36.317 36.307 36.3 36.29 36.272 36.247 36.26 36.227 36.24 36.235 36.207 36.187 36.167 36.13 36.06 36.02 36.032 36.022 35.922 35.855 35.817 35.83 35.835 35.927 35.862 35.847 35.845 35.837 35.822 35.825 35.827 35.812 35.827 35.827 35.825 35.822 35.785 35.812 35.795 35.807 35.792 35.807 35.79 35.787 35.792 35.785 35.785 35.762 35.777 35.77 35.772 35.762 35.765 35.77 35.76 35.75 35.745 35.745 35.727 35.742 35.745 35.735 35.71 35.707 35.725 35.682 35.71 35.707 35.902 35.837 35.69 35.647 35.612 35.592 35.627 35.63 36.03 35.66 35.607 35.605 35.655 35.687 35.662 35.665 35.71 35.717 35.732 35.73 35.757 35.745 35.772 35.802 35.807 35.83 35.838 35.861 36.18 36.873 37.798 38.078 38.492 37.064 37.07 36.235 35.985 35.719 35.641 35.606 35.619 35.18 34.31 33.111 32.117 33.082 32.82 33.114 33.08 -9999 -9999 35.345 35.378 35.626 35.221 34.316 34.924 35.026 35.616 35.846 36.572 36.215 36.447 36.451 36.344 36.328 36.33 36.212 36.182 36.158 36.2 36.222 36.196 36.227 36.262 36.257 36.197 36.167 36.125 36.065 35.997 35.97 35.877 35.755 35.667 35.592 35.54 35.487 35.467 35.452 35.437 35.417 35.392 35.382 35.37 35.332 35.342 35.33 35.325 35.322 35.34 35.34 35.355 35.347 35.332 35.342 35.36 35.325 35.315 35.307 35.325 35.315 35.335 35.327 35.365 35.385 35.382 35.37 35.39 35.415 35.412 35.412 35.435 35.475 35.472 35.445 35.432 35.467 35.452 35.455 35.507 35.507 35.527 35.552 35.567 35.605 35.582 35.605 35.622 35.615 35.635
37.812 37.55 37.365 37.21 37.132 37.005 36.955 36.83 36.815 36.737 36.642 36.457 36.322 36.225 36.175 36.177 36.15 36.122 36.047 36.01 35.955 35.917 35.892 35.852 35.83 35.835 35.84 35.89 35.907 35.925 35.935 35.98 36.035 36.075 36.085 36.045 35.997 35.987 35.967 35.952 35.922 35.907 35.895 35.9 35.862 35.865 35.885 35.882 35.82 35.77 35.755 35.74 35.72 35.662 35.657 35.657 35.66 35.665 35.687 35.665 35.677 35.685 35.697 35.692 35.697 35.7 35.727 35.725 35.71 35.707 35.76 35.907 35.995 35.992 36.002 36.032 36.037 36.07 36.09 36.092 36.09 36.07 36.115 36.14 36.142 35.972 35.955 35.992 35.995 36.035 36.845 43.295 44.4 45.182 45.735 45.377 44.557 43.735 41.075 36.375 36.147 36.172 36.205 36.162 36.162 36.142 36.097 36.097 36.1 36.062 36.047 35.985 35.937 35.97 35.987 36.07 36.07 36.137 36.72 36.64 36.06 36.072 36.09 36.1 36.115 36.107 36.12 36.135 36.145 36.357 36.875 36.142 36.147 36.132 36.112 36.082 36.087 36.115 36.147 36.122 36.062 36.125 36.12 36.117 36.172 36.117 36.177 36.812 36.565 36.172 36.15 36.095 36.035 36.022 36.057 36.09 36.085 36.105 36.202 36.512 36.657 36.295 36.147 36.087 36.15 36.137 36.162 36.167 36.192 36.24 36.385 37.262 37.225 36.665 36.525 36.535 36.432 36.372 36.387 36.4 36.415 36.395 36.387 36.332 36.477 36.555 36.43 36.305 36.22 36.15 36.237 35.99 35.957 35.942 36.02 36.132 36.207 36.265 36.332 36.367 36.377 36.387 36.392 36.365 36.365 36.392 36.387 36.365 36.33 36.275 36.267 36.257 36.327 36.335 36.365 36.35 36.35 36.367 36.31 36.257 36.245 36.26 36.247 36.232 36.225 36.19 36.187 36.25 36.295 36.29 36.272 36.252 36.285 36.31 36.332 36.345 36.31 36.3 36.292 36.277 36.265 36.23 36.255 36.242 36.227 36.175 36.137 36.097 36.075 36.007 36.047 35.932 35.885 35.83 35.822 35.812 35.82 35.99 35.862 35.852 35.837 35.83 35.84 35.822 35.815 35.812 35.825 35.85 35.817 35.815 35.807 35.82 35.802 35.805 35.79 35.797 35.797 35.812 35.782 35.775 35.772 35.79 35.79 35.78 35.775 35.762 35.747 35.765 35.762 35.752 35.767 35.777 35.762 35.74 35.735 35.73 35.727 35.812 35.71 35.672 35.692 35.717 35.722 35.72 35.61 35.617 35.622 35.62 35.65 35.62 35.612 35.62 35.635 35.622 35.632 35.672 35.68 35.675 35.68 35.69 35.685 35.71 35.722 35.747 35.78 35.782 35.812 35.807 35.812 35.843 35.943 36.483 36.782 36.772 37.432 36.957 36.767 36.647 36.396 35.933 35.638 35.604 35.641 35.529 35.066 33.852 33.097 32.871 32.786 32.937 33.217 33.168 -9999 -9999 35.48 35.106 34.703 34.868 32.651 32.842 34.146 35.725 36.53 36.493 36.374 36.394 36.347 36.31 36.284 36.2 36.195 36.179 36.173 36.179 36.204 36.25 36.235 36.19 36.187 36.162 36.082 36.052 35.985 35.912 35.81 35.705 35.605 35.545 35.515 35.472 35.46 35.452 35.437 35.407 35.412 35.365 35.342 35.35 35.34 35.377 35.367 35.35 35.352 35.347 35.352 35.362 35.36 35.32 35.362 35.35 35.35 35.342 35.322 35.317 35.335 35.34 35.35 35.367 35.36 35.38 35.37 35.375 35.382 35.397 35.402 35.445 35.465 35.452 35.447 35.455 35.452 35.44 35.465 35.49 35.52 35.545 35.557 35.582 35.595 35.595 35.597 35.647 35.655
37.915 37.692 37.482 37.345 37.222 37.085 36.952 36.82 36.775 36.735 36.64 36.405 36.427 36.282 36.117 36.13 36.142 36.107 36.092 36.075 36.017 35.982 35.915 35.885 35.885 35.93 35.935 35.925 35.88 35.852 35.927 36.04 36.085 36.1 36.085 36.07 36.06 36.015 35.99 35.952 35.945 35.922 35.917 35.905 35.895 35.895 35.912 35.852 35.805 35.755 35.745 35.735 35.682 35.672 35.68 35.657 35.682 35.68 35.685 35.68 35.69 35.702 35.697 35.702 35.697 35.722 35.755 35.757 35.74 35.755 35.86 35.962 36.015 36.04 36.06 36.06 36.062 36.07 36.087 36.06 36.067 36.047 36.1 36.112 36.025 35.992 35.952 35.94 35.93 36.007 38.032 42.952 44.75 45.302 45.132 45.7 45.365 44.565 43.542 41.517 38.89 36.117 36.145 36.17 36.152 36.147 36.122 36.102 36.112 36.095 36.08 36.05 36.022 35.982 35.987 35.985 36.062 36.102 36.082 36.647 36.575 36.05 36.097 36.127 36.135 36.157 36.152 36.165 36.142 36.157 36.16 36.142 36.165 36.165 36.13 36.125 36.112 36.142 36.135 36.142 36.162 36.27 36.202 36.152 36.14 36.28 36.787 36.705 36.172 36.15 36.085 36.05 36.07 36.017 36.082 36.105 36.082 36.222 36.71 36.232 36.12 36.11 36.057 36.132 36.112 36.125 36.13 36.147 36.162 36.237 36.222 36.26 37.28 36.927 36.537 36.597 36.582 36.442 36.38 36.41 36.435 36.41 36.425 36.387 36.36 36.6 36.53 36.44 36.37 36.245 36.187 36.07 35.96 35.937 36.007 36.1 36.155 36.202 36.325 36.382 36.37 36.382 36.382 36.37 36.392 36.392 36.385 36.367 36.325 36.27 36.297 36.287 36.322 36.33 36.327 36.337 36.32 36.345 36.302 36.245 36.237 36.265 36.195 36.217 36.222 36.247 36.205 36.192 36.24 36.275 36.272 36.265 36.275 36.3 36.32 36.295 36.31 36.332 36.32 36.29 36.287 36.295 36.262 36.247 36.25 36.2 36.155 36.12 36.147 36.062 36.005 35.897 35.86 35.842 35.82 35.85 36.07 35.887 35.827 35.835 35.83 35.855 35.845 35.822 35.842 35.845 35.825 35.845 35.835 35.822 35.82 35.82 35.825 35.812 35.817 35.802 35.797 35.785 35.785 35.8 35.787 35.792 35.787 35.775 35.772 35.787 35.777 35.767 35.755 35.767 35.782 35.752 35.747 35.752 35.752 35.742 35.8 35.75 35.732 35.742 35.705 35.875 35.662 35.657 35.625 35.62 35.645 35.63 35.647 35.632 35.642 35.622 35.622 35.637 35.63 35.637 35.67 35.69 35.697 35.7 35.697 35.687 35.71 35.75 35.782 35.787 35.775 35.815 35.812 35.82 35.849 36.105 36.629 36.765 36.799 36.826 36.828 36.789 36.678 36.283 35.838 35.63 35.644 35.652 35.518 34.999 34.312 32.837 32.969 33.53 33.338 33.079 32.315 32.726 33.366 34.93 34.818 34.383 32.537 32.442 33.234 34.906 36.007 36.609 36.54 36.283 36.336 36.319 36.262 36.225 36.194 36.17 36.173 36.161 36.229 36.238 36.202 36.175 36.17 36.122 36.07 36.005 35.962 35.857 35.755 35.622 35.57 35.51 35.5 35.477 35.457 35.452 35.41 35.402 35.392 35.352 35.367 35.367 35.375 35.387 35.39 35.365 35.355 35.37 35.372 35.375 35.367 35.367 35.36 35.362 35.365 35.362 35.345 35.355 35.36 35.365 35.372 35.365 35.382 35.385 35.375 35.38 35.392 35.377 35.402 35.425 35.465 35.46 35.45 35.422 35.457 35.452 35.47 35.48 35.492 35.512 35.542 35.562 35.577 35.572 35.622 35.62 35.632
38.03 37.797 37.592 37.462 37.322 37.187 36.987 36.837 36.77 36.712 36.667 36.535 36.407 36.277 36.195 36.17 36.107 36.135 36.15 36.125 36.06 35.995 35.945 35.922 35.955 36.012 36.005 35.962 35.872 35.867 35.922 36.052 36.09 36.107 36.12 36.105 36.082 36.047 36.012 35.977 35.97 35.947 35.922 35.925 35.937 35.932 35.92 35.87 35.815 35.757 35.762 35.727 35.722 35.685 35.68 35.695 35.707 35.712 35.702 35.695 35.702 35.695 35.692 35.715 35.71 35.752 35.752 35.745 35.777 35.847 35.95 35.985 36.012 36.032 36.055 36.065 36.077 36.09 36.07 36.03 36.052 36.06 36.1 36.025 35.94 35.94 35.932 35.945 35.99 36.05 41.91 44.212 45.045 44.64 44.287 45.072 45.702 45.387 44.627 43.847 41.375 37.095 36.18 36.157 36.157 36.157 36.142 36.107 36.102 36.112 36.092 36.075 36.092 36.067 35.992 35.987 36.01 36.047 36.112 36.107 36.527 36.657 36.082 36.107 36.17 36.147 36.17 36.162 36.162 36.172 36.202 36.167 36.167 36.177 36.195 36.167 36.167 36.155 36.165 36.16 36.142 36.322 36.207 36.175 36.23 36.875 36.712 36.225 36.175 36.132 36.045 36.055 36.06 36.065 36.105 36.077 36.215 36.657 36.265 36.057 36.092 36.58 36.077 36.085 36.095 36.105 36.125 36.137 36.14 36.167 36.18 36.19 36.247 36.947 36.94 36.55 36.675 36.542 36.415 36.372 36.387 36.43 36.42 36.435 36.417 36.472 36.597 36.545 36.48 36.44 36.43 36.587 36 35.965 35.965 36.06 36.065 36.18 36.27 36.325 36.385 36.39 36.387 36.39 36.417 36.417 36.407 36.375 36.35 36.292 36.285 36.32 36.342 36.33 36.295 36.295 36.287 36.292 36.252 36.227 36.187 36.142 36.17 36.19 36.22 36.235 36.205 36.205 36.17 36.185 36.26 36.31 36.305 36.27 36.307 36.3 36.29 36.34 36.325 36.322 36.3 36.29 36.275 36.275 36.26 36.197 36.19 36.13 36.122 36.08 35.952 35.88 35.862 35.85 35.862 35.882 35.847 35.832 35.847 35.832 35.857 35.87 35.85 35.847 35.83 35.84 35.84 35.815 35.815 35.825 35.832 35.805 35.822 35.817 35.81 35.815 35.807 35.807 35.807 35.795 35.805 35.815 35.777 35.782 35.765 35.762 35.775 35.767 35.772 35.76 35.782 35.772 35.772 35.76 35.762 35.747 35.77 35.732 35.73 35.722 35.707 35.677 35.867 35.615 35.62 35.652 35.657 35.652 35.64 35.607 35.642 35.625 35.617 35.645 35.63 35.647 35.605 35.665 35.697 35.7 35.697 35.697 35.732 35.77 35.81 35.795 35.77 35.792 35.822 35.8 35.846 35.888 36.11 36.288 36.497 36.714 36.817 36.832 36.753 36.576 36.165 35.828 35.692 35.724 35.662 35.288 35.199 34.141 35.629 34.588 34.266 33.933 32.444 31.786 32.597 -9999 -9999 33.039 32.176 32.204 32.566 34.135 35.461 36.493 36.806 36.398 36.307 36.292 36.274 36.242 36.202 36.191 36.188 36.192 36.237 36.203 36.179 36.175 36.14 36.09 36.045 35.962 35.89 35.77 35.68 35.562 35.507 35.482 35.467 35.475 35.45 35.427 35.405 35.405 35.385 35.372 35.37 35.385 35.395 35.4 35.387 35.39 35.362 35.38 35.365 35.37 35.38 35.385 35.377 35.387 35.382 35.38 35.36 35.38 35.375 35.357 35.36 35.377 35.372 35.38 35.385 35.385 35.397 35.392 35.387 35.405 35.445 35.42 35.425 35.432 35.472 35.472 35.472 35.495 35.49 35.515 35.547 35.55 35.552 35.56 35.577 35.602 35.612
38.125 37.877 37.667 37.525 37.417 37.257 37.052 36.97 36.87 36.732 36.622 36.49 36.38 36.345 36.267 36.19 36.177 36.177 36.2 36.152 36.06 36.025 35.997 36.035 36.095 36.087 36.042 35.96 35.902 35.902 35.975 36.07 36.087 36.107 36.115 36.1 36.065 36.042 36.027 35.98 35.99 35.957 35.952 35.935 35.95 35.93 35.902 35.87 35.82 35.76 35.732 35.712 35.707 35.697 35.7 35.722 35.705 35.705 35.712 35.702 35.68 35.687 35.67 35.712 35.727 35.75 35.74 35.74 35.83 35.922 35.96 35.995 35.995 36.01 36.04 36.05 36.052 36.085 36.032 36.037 36.03 36.052 35.97 35.957 35.935 35.917 35.892 35.962 35.98 36.09 37.807 42.517 44.005 43.892 43.417 44.207 45.035 45.717 45.455 44.655 43.895 42.855 37.98 36.167 36.162 36.165 36.147 36.247 36.52 36.147 36.115 36.105 36.092 36.097 36.06 35.972 35.995 36.005 36.1 36.122 36.14 36.612 36.85 36.117 36.137 36.162 36.157 36.167 36.17 36.202 36.175 36.17 36.185 36.202 36.212 36.202 36.217 36.217 36.192 36.137 36.145 36.2 36.185 36.157 36.87 36.752 36.212 36.192 36.18 36.082 36.07 36.075 36.077 36.1 36.082 36.195 36.645 36.202 36.072 36.07 36.165 37.607 36.157 36.105 36.11 36.102 36.152 36.147 36.162 36.157 36.162 36.172 36.222 36.567 36.637 37.212 36.685 36.535 36.52 36.457 36.392 36.43 36.427 36.447 36.415 36.452 36.455 36.65 36.58 36.527 36.442 36.502 36.277 36.052 36.05 36.032 36.04 36.182 36.232 36.307 36.367 36.412 36.397 36.39 36.392 36.405 36.412 36.362 36.36 36.315 36.315 36.32 36.295 36.267 36.285 36.295 36.297 36.295 36.21 36.182 36.155 36.1 36.112 36.152 36.212 36.22 36.202 36.23 36.197 36.177 36.192 36.3 36.335 36.28 36.31 36.277 36.262 36.315 36.33 36.342 36.337 36.327 36.305 36.295 36.207 36.255 36.187 36.105 36.102 35.99 35.932 35.88 35.87 35.885 35.89 35.872 35.852 35.86 35.852 35.867 35.862 35.857 35.86 35.842 35.822 35.835 35.842 35.832 35.835 35.835 35.827 35.815 35.812 35.835 35.81 35.807 35.825 35.82 35.815 35.812 35.82 35.797 35.797 35.785 35.777 35.782 35.785 35.782 35.79 35.765 35.747 35.76 35.765 35.76 35.747 35.757 35.717 35.72 35.742 35.757 35.69 35.672 35.635 35.61 35.65 35.66 35.645 35.645 35.645 35.632 35.64 35.625 35.62 35.627 35.64 35.66 35.607 35.612 35.627 35.65 35.695 35.73 35.745 35.78 35.77 35.782 35.767 35.787 35.785 35.81 35.835 35.851 35.854 35.869 35.987 36.217 36.462 36.713 36.762 36.672 36.531 36.189 35.813 35.733 35.737 35.705 35.152 34.26 34.774 35.964 34.986 35.307 33.27 32.302 32.678 -9999 -9999 -9999 32.045 32.008 32.156 32.844 35.257 36.048 36.534 36.653 36.334 36.289 36.268 36.259 36.212 36.226 36.192 36.176 36.208 36.199 36.188 36.142 36.105 36.03 35.985 35.882 35.797 35.7 35.602 35.537 35.485 35.465 35.452 35.447 35.432 35.422 35.385 35.41 35.397 35.397 35.395 35.415 35.397 35.405 35.402 35.392 35.397 35.407 35.397 35.415 35.397 35.402 35.397 35.405 35.405 35.387 35.372 35.382 35.4 35.382 35.39 35.382 35.415 35.412 35.417 35.407 35.435 35.42 35.415 35.447 35.457 35.44 35.437 35.45 35.475 35.475 35.465 35.49 35.495 35.495 35.51 35.517 35.515 35.582 35.597 35.557 35.605
38.287 38.02 37.79 37.585 37.462 37.345 37.21 37.095 36.967 36.827 36.705 36.585 36.467 36.4 36.332 36.252 36.26 36.285 36.285 36.2 36.072 36.03 36.07 36.105 36.117 36.077 35.997 35.922 35.89 35.897 35.98 36.037 36.087 36.115 36.115 36.107 36.085 36.045 36.03 36.022 35.995 35.96 35.962 35.977 35.955 35.905 35.892 35.835 35.81 35.757 35.72 35.7 35.7 35.727 35.72 35.695 35.707 35.715 35.73 35.707 35.682 35.657 35.69 35.715 35.72 35.737 35.745 35.79 35.882 35.94 35.942 35.99 35.985 36 36.027 36.017 36.027 36.032 36.03 36.037 36.037 35.96 35.925 35.945 35.945 35.96 35.96 35.975 36.03 36.055 36.045 36.38 39.945 39.26 39.582 43.43 44.195 44.992 45.667 45.507 44.717 43.907 40.94 38.267 36.142 36.127 36.122 36.725 37.865 36.287 36.242 36.13 36.105 36.13 36.08 36.027 36.03 36.002 36.007 36.067 36.13 36.14 36.475 36.835 36.237 36.137 36.165 36.177 36.177 36.192 36.195 36.197 36.207 36.195 36.227 36.23 36.237 36.232 36.205 36.195 36.187 36.167 36.18 36.595 36.767 36.285 36.207 36.147 36.045 36.085 36.1 36.067 36.1 36.092 36.205 36.647 36.15 36.07 36.08 36.11 36.097 36.137 36.125 36.135 36.135 36.152 36.157 36.16 36.12 36.125 36.132 36.117 36.217 36.38 36.375 37.065 37.327 36.455 36.49 36.515 36.48 36.422 36.42 36.457 36.412 36.45 36.422 36.482 36.627 36.607 36.562 36.497 36.42 36.737 36.12 36.065 36.062 36.307 36.217 36.26 36.347 36.387 36.417 36.39 36.365 36.395 36.407 36.362 36.345 36.32 36.317 36.332 36.295 36.287 36.287 36.312 36.322 36.29 36.197 36.162 36.11 36.11 36.12 36.14 36.175 36.175 36.225 36.225 36.195 36.195 36.192 36.18 36.27 36.317 36.29 36.275 36.292 36.295 36.315 36.357 36.33 36.315 36.317 36.275 36.197 36.192 36.177 36.14 36.062 35.96 35.897 35.865 35.855 35.86 35.905 35.875 35.87 35.865 35.865 35.87 35.867 35.835 35.84 35.835 35.827 35.837 35.835 35.847 35.825 35.815 35.827 35.817 35.827 35.82 35.832 35.81 35.795 35.792 35.812 35.82 35.807 35.795 35.785 35.795 35.772 35.767 35.78 35.78 35.765 35.757 35.767 35.77 35.767 35.76 35.792 35.75 35.735 35.75 35.75 35.707 35.695 35.66 35.64 35.647 35.662 35.665 35.615 35.63 35.62 35.65 35.665 35.645 35.647 35.655 35.67 35.66 35.657 35.637 35.637 35.62 35.657 35.725 35.775 35.76 35.775 35.795 35.76 35.755 35.787 35.807 35.8 35.817 35.832 35.811 35.821 35.891 36.041 36.315 36.636 36.693 36.638 36.501 36.051 35.726 35.732 35.783 35.67 34.829 34.657 37.755 36.644 35.141 34.366 -9999 -9999 -9999 -9999 -9999 -9999 32.018 31.989 32.375 37.261 37.299 36.141 36.608 36.42 36.321 36.292 36.284 36.229 36.279 36.225 36.163 36.161 36.171 36.181 36.13 36.065 35.965 35.887 35.81 35.722 35.622 35.545 35.492 35.492 35.452 35.44 35.442 35.42 35.407 35.392 35.405 35.402 35.38 35.4 35.397 35.397 35.405 35.41 35.425 35.41 35.425 35.43 35.432 35.41 35.437 35.44 35.427 35.432 35.42 35.405 35.39 35.4 35.392 35.405 35.402 35.427 35.43 35.43 35.442 35.45 35.465 35.462 35.447 35.462 35.477 35.445 35.477 35.487 35.482 35.5 35.482 35.51 35.502 35.517 35.522 35.532 35.572 35.607 35.587 35.602
38.412 38.172 37.947 37.725 37.597 37.465 37.34 37.215 37.072 36.975 36.872 36.71 36.565 36.48 36.422 36.365 36.347 36.352 36.307 36.175 36.02 36.017 36.072 36.102 36.092 36.102 36.065 35.962 35.902 35.912 35.975 36.015 36.1 36.137 36.142 36.157 36.135 36.102 36.082 36.057 36.037 36.012 35.98 35.957 35.932 35.897 35.872 35.85 35.795 35.75 35.725 35.712 35.72 35.72 35.71 35.687 35.69 35.72 35.717 35.7 35.687 35.667 35.7 35.707 35.705 35.725 35.782 35.845 35.892 35.925 35.947 35.947 35.975 35.98 36.002 36.03 36.007 36.02 36.015 36.015 35.977 35.902 35.917 35.937 35.97 35.992 35.985 35.977 36.017 36.032 36.037 36.085 38.46 37.142 37.512 39.7 43.195 44.137 44.94 45.67 45.497 44.74 43.942 41.47 38.35 39.025 40.385 37.84 37.18 36.36 37.507 36.17 36.212 36.147 36.107 36.152 36.117 36.042 35.995 36.017 36.077 36.15 36.172 36.637 37.082 36.195 36.137 36.15 36.175 36.165 36.21 36.217 36.205 36.227 36.247 36.215 36.225 36.385 36.29 36.177 36.202 36.19 36.707 36.792 36.21 36.147 36.177 36.09 36.097 36.107 36.105 36.135 36.115 36.195 36.7 36.182 36.1 36.115 36.085 36.077 36.077 36.087 36.105 36.147 36.13 36.117 36.155 36.145 36.142 36.155 36.142 36.152 36.182 36.217 36.257 36.247 36.352 37.085 36.632 36.537 36.542 36.562 36.52 36.427 36.442 36.457 36.482 36.475 36.502 36.585 36.63 36.602 36.527 36.617 36.262 36.267 36.4 36.125 36.197 36.245 36.302 36.342 36.385 36.397 36.36 36.352 36.355 36.345 36.335 36.327 36.362 36.337 36.31 36.3 36.307 36.312 36.362 36.332 36.162 36.145 36.107 36.115 36.107 36.127 36.14 36.175 36.217 36.217 36.222 36.222 36.227 36.207 36.195 36.252 36.302 36.302 36.3 36.282 36.277 36.317 36.332 36.325 36.307 36.257 36.202 36.192 36.2 36.097 35.98 35.927 35.897 35.88 35.867 35.88 35.885 35.87 35.862 35.847 35.855 35.862 35.855 35.847 35.862 35.832 35.835 35.862 35.847 35.835 35.837 35.812 35.837 35.812 35.83 35.817 35.82 35.817 35.81 35.802 35.812 35.805 35.802 35.792 35.797 35.807 35.787 35.77 35.782 35.787 35.767 35.777 35.765 35.787 35.782 35.757 35.775 35.742 35.74 35.755 35.7 35.67 35.777 35.655 35.657 35.667 35.66 35.655 35.667 35.637 35.64 35.645 35.66 35.667 35.652 35.647 35.65 35.622 35.642 35.625 35.647 35.63 35.632 35.697 35.752 35.77 35.762 35.747 35.757 35.772 35.775 35.785 35.805 35.812 35.837 35.816 35.82 35.838 35.888 36.033 36.32 36.645 36.684 36.605 36.321 35.814 35.697 35.776 35.827 35.323 35.748 37.62 36.265 33.82 33.903 -9999 -9999 -9999 -9999 -9999 -9999 32.03 32.102 32.324 33.739 34.802 36.586 36.334 36.364 36.305 36.308 36.277 36.37 36.474 36.265 36.163 36.144 36.135 36.121 36.056 35.985 35.897 35.827 35.752 35.665 35.557 35.52 35.475 35.475 35.467 35.455 35.43 35.41 35.422 35.415 35.42 35.417 35.395 35.415 35.392 35.402 35.412 35.39 35.432 35.407 35.437 35.447 35.44 35.435 35.462 35.44 35.427 35.42 35.42 35.445 35.442 35.422 35.44 35.422 35.432 35.46 35.447 35.44 35.455 35.472 35.472 35.482 35.467 35.477 35.457 35.45 35.452 35.475 35.45 35.482 35.497 35.49 35.522 35.525 35.535 35.557 35.592 35.577 35.602 35.61
38.607 38.357 38.105 37.872 37.74 37.61 37.475 37.355 37.22 37.08 36.91 36.765 36.63 36.55 36.497 36.43 36.397 36.397 36.317 36.18 36.08 36.025 36.05 36.092 36.132 36.115 36.1 36.047 35.952 35.972 35.987 36.032 36.132 36.175 36.19 36.17 36.165 36.132 36.117 36.072 36.065 36.03 35.97 35.94 35.945 35.887 35.867 35.832 35.8 35.75 35.712 35.732 35.725 35.727 35.72 35.685 35.692 35.702 35.7 35.685 35.702 35.69 35.7 35.68 35.752 35.732 35.842 36.505 36.49 35.865 35.877 35.887 35.925 35.945 35.97 35.977 36.097 36.09 36.012 35.885 35.905 35.902 35.882 35.987 36.905 35.937 35.935 35.99 36.005 36.052 36.072 36.087 36.065 36.197 36.217 37.025 38.735 41.637 44.115 44.892 45.63 45.552 44.762 43.952 43.365 43.94 44.212 38.932 36.215 36.14 36.94 36.482 36.145 36.107 36.157 36.165 36.187 36.135 36.04 36.1 36.055 36.067 36.172 36.215 36.472 36.997 36.152 36.155 36.187 36.18 36.197 36.212 36.24 36.222 36.252 36.232 36.257 36.687 36.292 36.2 36.217 36.652 36.862 36.175 36.177 36.135 36.105 36.115 36.097 36.095 36.135 36.122 36.137 36.892 36.302 36.105 36.527 36.855 36.125 36.102 36.082 36.1 36.1 36.155 36.16 36.14 36.155 36.155 36.185 36.202 36.207 36.17 36.15 36.187 36.237 36.227 36.27 36.63 37.135 36.577 36.557 36.595 36.582 36.545 36.49 36.455 36.477 36.507 36.485 36.48 36.595 36.702 36.622 36.515 36.422 36.537 36.327 36.177 36.17 36.217 36.295 36.35 36.367 36.375 36.345 36.317 36.317 36.312 36.307 36.315 36.332 36.342 36.335 36.33 36.35 36.35 36.79 36.52 36.15 36.137 36.13 36.14 36.117 36.12 36.122 36.155 36.182 36.185 36.235 36.24 36.225 36.217 36.205 36.182 36.235 36.267 36.292 36.317 36.262 36.307 36.315 36.357 36.315 36.28 36.252 36.237 36.175 35.992 35.937 35.89 35.91 35.882 35.967 35.885 35.902 35.87 35.892 35.877 35.872 35.865 35.86 35.845 35.85 35.865 35.837 35.842 35.827 35.817 35.835 35.83 35.807 35.825 35.83 35.832 35.82 35.825 35.832 35.797 35.795 35.822 35.802 35.802 35.812 35.792 35.815 35.792 35.79 35.752 35.775 35.787 35.767 35.78 35.772 35.74 35.74 35.755 35.732 35.79 35.717 35.675 35.622 35.655 35.687 35.672 35.647 35.66 35.657 35.637 35.66 35.655 35.66 35.672 35.65 35.672 35.652 35.66 35.66 35.652 35.66 35.655 35.635 35.652 35.67 35.735 35.755 35.762 35.765 35.785 35.792 35.782 35.777 35.785 35.805 35.822 35.825 35.813 35.829 35.911 36.053 36.464 36.712 36.675 36.456 36.115 35.772 35.753 35.79 35.577 34.748 33.803 35.564 33.981 36.847 -9999 37.714 37.034 36.598 -9999 -9999 32.189 32.366 32.413 33.287 35.214 36.391 36.044 36.27 36.364 36.288 36.31 36.379 36.384 36.25 36.121 36.116 36.091 36.054 36.007 35.909 35.84 35.755 35.692 35.632 35.527 35.505 35.467 35.49 35.485 35.47 35.445 35.437 35.407 35.447 35.425 35.43 35.422 35.44 35.4 35.427 35.412 35.407 35.397 35.4 35.427 35.397 35.425 35.425 35.435 35.427 35.425 35.417 35.417 35.43 35.445 35.452 35.46 35.472 35.442 35.462 35.47 35.452 35.467 35.485 35.49 35.492 35.512 35.515 35.515 35.487 35.492 35.475 35.472 35.48 35.5 35.525 35.52 35.555 35.577 35.56 35.59 35.575 35.572 35.595
38.807 38.572 38.31 38.04 37.8 37.692 37.575 37.437 37.272 37.105 36.962 36.812 36.682 36.617 36.557 36.477 36.445 36.422 36.327 36.23 36.085 36.042 36.027 36.08 36.095 36.14 36.135 36.11 36.072 36.022 36.047 36.092 36.167 36.197 36.215 36.23 36.23 36.187 36.162 36.115 36.097 36.06 36.002 35.967 35.927 35.865 35.832 35.8 35.792 35.755 35.732 35.715 35.74 35.74 35.72 35.7 35.692 35.7 35.685 35.672 35.67 35.685 35.667 35.665 35.702 35.782 35.82 36.862 37.147 35.835 35.845 35.862 35.875 35.895 35.94 35.962 36.255 36.062 36.012 35.902 35.935 35.935 35.91 35.977 37.275 35.945 35.92 35.985 36.032 36.06 36.062 36.06 36.067 36.047 36.15 36.55 36.767 40.205 42.452 44.022 44.867 45.602 45.605 44.845 44.167 44.68 44.9 44.087 41.525 36.182 36.307 36.317 36.13 36.127 36.195 36.16 36.132 36.152 36.122 36.07 36.087 36.107 36.14 36.165 36.197 36.565 36.927 36.205 36.14 36.165 36.225 36.277 36.295 36.222 36.24 36.25 36.257 36.265 36.2 36.19 36.512 36.83 36.267 36.205 36.19 36.115 36.095 36.1 36.112 36.15 36.127 36.147 36.712 36.275 36.112 36.112 36.835 36.23 36.137 36.13 36.13 36.13 36.147 36.145 36.1 36.147 36.165 36.17 36.195 36.217 36.2 36.197 36.177 36.197 36.222 36.255 36.355 36.275 36.36 37.405 36.685 36.577 36.622 36.61 36.602 36.552 36.475 36.49 36.502 36.515 36.52 36.585 36.687 36.63 36.537 36.517 36.475 36.46 36.27 36.295 36.317 36.362 36.362 36.382 36.35 36.325 36.322 36.28 36.3 36.322 36.307 36.31 36.325 36.335 36.65 36.702 36.63 36.265 36.14 36.147 36.162 36.147 36.145 36.15 36.147 36.15 36.165 36.195 36.22 36.227 36.222 36.245 36.227 36.207 36.185 36.175 36.265 36.317 36.3 36.277 36.305 36.335 36.295 36.292 36.262 36.222 36.05 35.915 35.89 35.875 35.91 35.945 35.905 35.865 35.875 35.872 35.875 35.88 35.877 35.862 35.847 35.867 35.87 35.857 35.835 35.847 35.852 35.852 35.835 35.842 35.835 35.835 35.827 35.822 35.825 35.83 35.83 35.812 35.827 35.82 35.805 35.8 35.807 35.797 35.805 35.805 35.792 35.787 35.777 35.775 35.797 35.782 35.802 35.84 35.767 35.762 35.702 35.717 35.89 35.702 35.665 35.66 35.685 35.652 35.652 35.635 35.605 35.645 35.662 35.637 35.657 35.637 35.635 35.665 35.675 35.672 35.682 35.667 35.662 35.635 35.642 35.627 35.625 35.665 35.715 35.74 35.787 35.802 35.802 35.775 35.772 35.752 35.777 35.805 35.815 35.8 35.785 35.832 35.932 36.178 36.657 36.715 36.605 36.329 35.893 35.795 35.76 35.866 35.602 34.266 39.206 42.555 42.235 39.414 37.339 37.094 36.328 36.204 34.724 32 31.962 32.064 32.533 34.081 35.034 35.142 36.209 36.382 36.386 36.279 36.405 36.417 36.204 36.063 36.046 36.022 35.981 35.926 35.849 35.768 35.707 35.642 35.6 35.537 35.512 35.48 35.475 35.477 35.465 35.452 35.447 35.432 35.437 35.437 35.437 35.422 35.44 35.45 35.442 35.42 35.387 35.41 35.392 35.39 35.375 35.387 35.382 35.395 35.405 35.375 35.41 35.45 35.457 35.467 35.482 35.47 35.457 35.475 35.487 35.497 35.475 35.48 35.485 35.497 35.507 35.527 35.525 35.51 35.53 35.515 35.512 35.5 35.497 35.515 35.51 35.53 35.557 35.58 35.565 35.59 35.59 35.595 35.605
39.025 38.772 38.495 38.232 38.002 37.855 37.68 37.527 37.317 37.135 37 36.86 36.787 36.725 36.645 36.59 36.535 36.452 36.335 36.252 36.165 36.097 36.057 36.082 36.097 36.142 36.162 36.162 36.15 36.11 36.117 36.165 36.21 36.247 36.255 36.28 36.24 36.202 36.152 36.117 36.092 36.067 36.022 36.005 35.947 35.847 35.825 35.807 35.785 35.75 35.715 35.69 35.71 35.72 35.687 35.7 35.682 35.677 35.657 35.637 35.637 35.617 35.605 35.66 35.732 35.767 35.792 35.822 35.832 35.792 35.777 35.865 35.872 35.845 35.897 35.965 36.015 35.907 35.857 35.882 35.905 35.942 35.927 35.862 35.885 35.875 35.947 35.975 35.987 36.002 35.975 36.012 36.075 36.082 36.08 36.062 36.277 37.237 37.587 42.287 44.042 44.82 45.577 45.6 44.942 45.257 44.792 42.96 39.065 36.22 36.177 36.137 36.177 36.162 36.167 36.177 36.157 36.15 36.147 36.12 36.08 36.087 36.097 36.162 36.202 36.24 36.472 36.317 36.197 36.212 36.227 36.222 36.202 36.245 36.29 36.277 36.282 36.262 36.235 36.487 36.72 36.235 36.207 36.175 36.127 36.127 36.147 36.155 36.15 36.167 36.162 36.76 36.3 36.14 36.127 36.122 36.11 36.1 36.137 36.13 36.122 36.135 36.125 36.155 36.18 36.182 36.2 36.197 36.182 36.19 36.195 36.195 36.217 36.21 36.24 36.257 36.262 36.275 36.307 36.495 37.082 36.902 36.615 36.665 36.632 36.645 36.625 36.485 36.525 36.547 36.542 36.505 36.567 36.692 36.632 36.602 36.572 37.04 36.85 36.415 36.37 36.34 36.385 36.397 36.357 36.36 36.362 36.307 36.277 36.28 36.3 36.32 36.315 36.307 36.477 36.94 36.46 36.142 36.14 36.15 36.157 36.142 36.147 36.15 36.147 36.127 36.137 36.162 36.2 36.227 36.23 36.215 36.22 36.202 36.207 36.192 36.212 36.235 36.305 36.327 36.3 36.302 36.295 36.265 36.2 36.112 35.987 35.902 35.895 35.875 35.895 35.91 35.897 35.89 35.895 35.892 35.892 35.86 35.895 35.882 35.855 35.862 35.865 35.86 35.862 35.852 35.862 35.857 35.83 35.847 35.835 35.837 35.832 35.815 35.815 35.82 35.812 35.815 35.797 35.805 35.802 35.805 35.802 35.79 35.81 35.807 35.79 35.792 35.805 35.787 35.782 35.735 35.755 35.757 35.757 35.797 35.675 35.682 35.68 35.672 35.672 35.66 35.657 35.662 35.665 35.677 35.65 35.66 35.642 35.65 35.68 35.64 35.645 35.655 35.657 35.665 35.65 35.672 35.665 35.68 35.677 35.672 35.657 35.64 35.657 35.697 35.772 35.797 35.797 35.767 35.742 35.747 35.752 35.785 35.775 35.802 35.789 35.801 35.885 35.967 36.429 36.712 36.684 36.52 36.036 35.746 35.718 35.742 37.171 41.216 38.176 40.102 37.59 34.717 36.383 37.572 36.172 36.231 34.701 32.183 31.601 32.212 33.042 32.883 32.673 35.502 36.23 36.537 36.466 36.359 36.357 36.528 36.146 36.015 35.98 35.951 35.909 35.848 35.779 35.706 35.655 35.602 35.557 35.54 35.477 35.465 35.472 35.462 35.452 35.442 35.44 35.437 35.445 35.455 35.452 35.422 35.44 35.457 35.435 35.435 35.427 35.405 35.39 35.375 35.372 35.382 35.377 35.402 35.367 35.402 35.402 35.435 35.45 35.47 35.472 35.497 35.492 35.487 35.507 35.497 35.462 35.5 35.51 35.512 35.517 35.52 35.52 35.532 35.52 35.532 35.53 35.515 35.49 35.532 35.53 35.567 35.572 35.585 35.577 35.59 35.6 35.62 35.615
39.177 38.955 38.695 38.427 38.187 38.015 37.82 37.662 37.445 37.247 37.097 36.97 36.927 36.85 36.72 36.647 36.587 36.515 36.41 36.317 36.222 36.145 36.105 36.1 36.095 36.132 36.192 36.207 36.192 36.187 36.205 36.237 36.265 36.287 36.295 36.307 36.26 36.217 36.192 36.15 36.112 36.077 36.055 36.035 35.987 35.88 35.805 35.79 35.785 35.76 35.717 35.72 35.712 35.69 35.68 35.67 35.66 35.66 35.62 35.615 35.592 35.59 35.61 35.682 35.72 35.722 35.737 35.755 35.742 35.75 35.78 35.87 35.872 35.905 35.96 35.947 35.91 35.877 35.857 35.882 35.995 35.912 35.93 35.887 38.402 38.237 35.922 35.94 35.98 35.987 35.972 35.992 36.045 36.065 36.102 36.12 36.122 36.32 36.377 39.1 41.565 44.03 44.772 45.492 45.677 45.062 44.32 43.52 39.235 36.637 36.16 36.167 36.202 36.217 36.19 36.162 36.16 36.165 36.182 36.157 36.137 36.11 36.105 36.102 36.115 36.23 36.18 36.347 36.9 36.372 36.282 36.265 36.215 36.71 36.64 36.41 36.682 36.392 36.542 37.025 36.205 36.225 36.175 36.112 36.15 36.15 36.155 36.167 36.137 36.177 36.695 36.302 36.132 36.16 36.162 36.117 36.112 36.14 36.132 36.13 36.157 36.145 36.172 36.2 36.212 36.212 36.205 36.202 36.195 36.192 36.19 36.227 36.227 36.227 36.222 36.225 36.26 36.285 36.295 36.33 36.415 37.367 36.825 36.592 36.662 36.682 36.665 36.63 36.577 36.535 36.547 36.572 36.565 36.562 36.722 36.665 36.662 36.675 36.672 36.792 36.52 36.397 36.375 36.42 36.422 36.36 36.38 36.345 36.295 36.277 36.227 36.277 36.32 36.282 36.287 36.355 36.21 36.132 36.122 36.105 36.087 36.122 36.142 36.142 36.137 36.137 36.152 36.16 36.17 36.192 36.217 36.182 36.195 36.2 36.197 36.17 36.21 36.195 36.235 36.29 36.3 36.287 36.267 36.26 36.185 36.035 35.957 35.907 35.905 35.905 35.905 35.91 35.875 35.887 35.915 35.9 35.89 35.877 35.88 35.882 35.88 35.867 35.865 35.862 35.857 35.872 35.852 35.847 35.852 35.852 35.832 35.815 35.847 35.835 35.83 35.822 35.817 35.83 35.825 35.81 35.815 35.802 35.8 35.817 35.807 35.802 35.777 35.785 35.795 35.792 35.765 35.765 36.24 36.882 35.792 35.777 35.702 35.665 35.665 35.68 35.667 35.665 35.687 35.67 35.655 35.657 35.65 35.675 35.662 35.675 35.662 35.657 35.66 35.642 35.67 35.662 35.672 35.675 35.65 35.685 35.647 35.642 35.667 35.662 35.662 35.665 35.71 35.75 35.762 35.775 35.745 35.717 35.727 35.75 35.77 35.767 35.757 35.774 35.823 35.873 36.162 36.68 36.75 36.677 36.314 35.832 35.676 35.687 36.248 42.336 42.834 39.613 35.986 36 36.945 38.773 36.552 35.992 34.978 32.864 31.729 32.462 32.971 33.201 33.772 36.503 36.742 38.202 37.908 36.606 36.355 36.475 36.514 36.039 35.95 35.889 35.835 35.774 35.728 35.653 35.603 35.575 35.525 35.527 35.495 35.462 35.455 35.452 35.457 35.442 35.435 35.435 35.462 35.472 35.46 35.475 35.477 35.48 35.447 35.432 35.43 35.45 35.427 35.395 35.395 35.392 35.377 35.382 35.402 35.402 35.417 35.452 35.477 35.465 35.467 35.485 35.492 35.462 35.48 35.5 35.522 35.522 35.527 35.545 35.557 35.537 35.565 35.57 35.557 35.552 35.55 35.56 35.547 35.54 35.557 35.555 35.552 35.592 35.572 35.582 35.597 35.605 35.577
39.302 39.105 38.865 38.6 38.33 38.135 37.947 37.782 37.61 37.427 37.292 37.15 37.065 36.965 36.82 36.732 36.637 36.577 36.512 36.417 36.317 36.242 36.205 36.19 36.185 36.2 36.235 36.23 36.215 36.225 36.255 36.245 36.262 36.287 36.322 36.302 36.302 36.272 36.205 36.137 36.127 36.082 36.05 36.027 36.027 35.977 35.897 35.837 35.785 35.772 35.747 35.737 35.717 35.71 35.677 35.647 35.597 35.617 35.61 35.59 35.58 35.607 35.615 35.65 35.65 35.67 35.707 35.717 35.73 35.765 35.82 37.577 35.887 35.895 35.932 35.885 35.847 35.872 35.852 35.962 36.155 36.027 36.17 38.577 41.91 40.892 37.995 36.115 35.935 35.945 35.992 36.457 36.012 36.045 36.082 36.14 36.117 36.142 36.187 36.1 39.332 43.425 44.717 45.297 45.445 44.907 43.997 39.667 36.88 36.185 36.192 36.217 36.185 36.187 36.212 36.182 36.17 36.187 36.195 36.16 36.18 36.185 36.102 36.105 36.092 36.1 36.132 36.252 36.502 36.867 36.73 37.032 36.845 37.012 36.632 36.66 36.532 36.725 37.057 36.267 36.25 36.177 36.155 36.107 36.127 36.167 36.177 36.137 36.167 36.735 36.437 36.112 36.132 36.185 36.132 36.145 36.16 36.162 36.17 36.127 36.145 36.147 36.207 36.235 36.275 36.237 36.222 36.23 36.232 36.205 36.2 36.23 36.265 36.232 36.235 36.245 36.287 36.275 36.302 36.342 36.417 36.44 37.25 37.062 36.625 36.707 36.687 36.717 36.685 36.54 36.567 36.57 36.59 36.605 36.615 36.687 36.75 36.76 36.722 36.79 36.92 36.72 36.477 36.45 36.457 36.392 36.367 36.342 36.322 36.267 36.25 36.26 36.257 36.262 36.252 36.197 36.147 36.135 36.135 36.105 36.105 36.102 36.122 36.112 36.112 36.122 36.15 36.155 36.18 36.192 36.192 36.187 36.165 36.202 36.217 36.227 36.2 36.205 36.235 36.217 36.275 36.272 36.357 36.28 36.16 35.982 35.897 35.887 35.905 35.895 35.92 35.912 35.877 35.872 35.89 35.895 35.892 35.885 35.885 35.89 35.88 35.877 35.857 35.867 35.85 35.845 35.842 35.847 35.837 35.827 35.852 35.847 35.827 35.832 35.827 35.83 35.822 35.822 35.825 35.822 35.822 35.815 35.817 35.817 35.815 35.792 35.787 35.79 35.8 35.807 36.005 35.777 36.67 35.875 35.882 35.705 35.702 35.687 35.682 35.675 35.677 35.687 35.687 35.675 35.68 35.69 35.672 35.67 35.672 35.682 35.672 35.635 35.65 35.65 35.667 35.672 35.695 35.89 35.68 35.65 35.655 35.637 35.67 35.73 35.82 35.665 35.665 35.707 35.752 35.757 35.747 35.735 35.73 35.717 35.725 35.732 35.725 35.756 35.783 35.893 35.968 36.491 36.769 36.743 36.613 36.099 35.714 36.463 38.083 37.431 35.24 41.02 35.99 36.9 38.447 37.021 37.042 36.444 -9999 -9999 -9999 -9999 35.899 35.933 36.033 36.311 38.651 38.877 38.981 38.03 36.881 36.369 36.498 36.202 36.017 35.911 35.817 35.747 35.681 35.629 35.592 35.55 35.527 35.512 35.482 35.462 35.46 35.462 35.452 35.442 35.437 35.457 35.465 35.47 35.492 35.497 35.5 35.51 35.5 35.5 35.49 35.482 35.452 35.44 35.43 35.44 35.432 35.395 35.407 35.417 35.455 35.465 35.482 35.465 35.475 35.485 35.502 35.492 35.505 35.517 35.505 35.522 35.532 35.552 35.572 35.552 35.58 35.585 35.582 35.587 35.585 35.552 35.547 35.537 35.582 35.542 35.552 35.557 35.577 35.59 35.6 35.592 35.594
39.392 39.195 38.997 38.78 38.457 38.262 38.087 37.947 37.79 37.655 37.482 37.322 37.215 37.085 36.942 36.877 36.817 36.77 36.7 36.592 36.502 36.427 36.342 36.315 36.255 36.242 36.22 36.212 36.22 36.262 36.24 36.257 36.26 36.295 36.337 36.32 36.302 36.28 36.21 36.145 36.115 36.077 36.055 36.027 36.037 36.032 35.972 35.865 35.817 35.782 35.75 35.747 35.747 35.695 35.67 35.65 35.607 35.605 35.58 35.587 35.6 35.642 35.662 35.657 35.66 35.672 35.675 35.682 35.72 35.752 35.805 36.915 35.827 37.122 35.835 35.805 35.867 35.855 35.972 36.035 36.015 36.522 37.945 42.435 43.787 43.497 41.172 37.247 35.892 35.95 36.035 37.635 36.047 36.02 36.067 36.107 36.167 36.152 36.187 36.415 42.447 44.522 45.167 44.865 44.627 44.13 41.5 37.807 36.195 36.222 36.207 36.23 36.222 36.215 36.19 36.17 36.175 36.2 36.187 36.2 36.212 36.21 36.187 36.13 36.122 36.087 36.13 36.225 36.295 36.487 36.717 36.492 36.4 36.437 36.447 36.367 36.305 36.317 36.262 36.237 36.205 36.17 36.17 36.132 36.155 36.227 36.205 36.262 36.697 36.455 36.142 36.412 36.405 36.172 36.14 36.172 36.167 36.18 36.167 36.147 36.157 36.175 36.197 36.23 36.285 36.267 36.255 36.262 36.245 36.232 36.212 36.212 36.237 36.262 36.225 36.277 36.61 36.287 36.312 36.357 36.4 36.407 36.465 37.11 37.005 36.625 36.687 36.73 36.747 36.7 36.647 36.53 36.582 36.637 36.63 36.57 36.685 36.79 36.812 36.797 36.842 37.357 36.792 36.56 36.475 36.465 36.395 36.357 36.35 36.325 36.305 36.27 36.252 36.247 36.222 36.167 36.152 36.132 36.152 36.152 36.137 36.135 36.11 36.087 36.065 36.077 36.125 36.135 36.172 36.167 36.17 36.167 36.172 36.177 36.192 36.232 36.195 36.205 36.22 36.252 36.252 36.235 36.252 36.282 36.105 35.947 35.92 35.922 35.917 35.9 35.907 35.897 35.88 35.887 35.892 35.875 35.89 35.895 35.875 35.865 35.857 35.865 35.862 35.852 35.857 35.85 35.857 35.867 35.837 35.84 35.85 35.852 35.847 35.832 35.825 35.817 35.825 35.83 35.835 35.82 35.815 35.822 35.81 35.817 35.807 35.807 35.797 35.78 35.777 35.797 35.825 36.462 35.777 35.792 35.735 35.697 35.712 35.695 35.68 35.68 35.682 35.685 35.69 35.7 35.68 35.695 35.67 35.667 35.702 35.675 35.655 35.685 35.645 35.665 35.697 35.665 35.685 35.71 35.727 35.672 35.645 35.692 35.682 35.685 35.677 35.687 35.68 35.66 35.682 35.702 35.737 35.737 35.732 35.727 35.73 35.717 35.722 35.73 35.782 35.81 35.89 36.219 36.75 36.817 36.705 36.293 35.816 35.623 36.026 37.304 37.869 38.64 36.734 38.459 40.878 41.459 39.833 38.028 -9999 -9999 -9999 -9999 -9999 35.641 36.13 37.344 35.536 37.517 39.395 39.094 38.858 36.42 36.558 36.38 36.121 36.016 35.864 35.756 35.701 35.645 35.597 35.563 35.54 35.515 35.472 35.475 35.47 35.487 35.455 35.462 35.457 35.48 35.48 35.5 35.522 35.517 35.527 35.532 35.517 35.542 35.532 35.507 35.47 35.455 35.44 35.457 35.47 35.442 35.45 35.452 35.47 35.465 35.467 35.47 35.49 35.492 35.51 35.495 35.487 35.502 35.505 35.547 35.567 35.565 35.575 35.57 35.565 35.572 35.58 35.577 35.577 35.582 35.575 35.57 35.61 35.6 35.612 35.59 35.607 35.592 35.597 35.612 35.604
39.43 39.242 39.087 38.902 38.63 38.41 38.25 38.09 37.97 37.842 37.615 37.475 37.34 37.205 37.122 37.06 37.005 36.952 36.847 36.74 36.607 36.52 36.43 36.347 36.3 36.272 36.212 36.212 36.252 36.275 36.257 36.262 36.275 36.292 36.325 36.305 36.29 36.247 36.212 36.175 36.13 36.11 36.09 36.075 36.085 36.072 36.05 35.99 35.882 35.82 35.777 35.765 35.765 35.725 35.687 35.657 35.61 35.607 35.6 35.607 35.625 35.632 35.67 35.67 35.68 35.702 35.69 35.705 35.712 35.727 35.8 35.877 35.965 36.155 35.812 35.84 35.852 36.035 36.147 36.04 35.957 37.76 43.015 43.84 44.01 43.32 40.035 36.83 35.865 35.977 36.007 35.977 36.012 36.017 36.062 36.097 36.145 36.187 36.137 37.34 41.18 44.03 44.682 44.117 43.465 41.185 39.525 40.432 37.687 36.225 36.237 36.207 36.227 36.24 36.22 36.185 36.205 36.217 36.2 36.205 36.22 36.205 36.19 36.177 36.15 36.145 36.145 36.165 36.28 36.335 36.33 36.357 36.342 36.285 36.312 36.242 36.215 36.237 36.255 36.215 36.127 36.175 36.162 36.137 36.192 36.217 36.222 36.745 36.562 36.19 36.192 36.195 36.407 36.11 36.16 36.17 36.157 36.162 36.157 36.155 36.152 36.187 36.232 36.222 36.212 36.252 36.235 36.257 36.227 36.202 36.23 36.245 36.252 36.26 36.285 36.312 36.332 36.317 36.31 36.337 36.362 36.417 36.445 36.46 37.242 37.087 36.625 36.745 36.79 36.71 36.732 36.667 36.617 36.592 36.607 36.635 36.595 36.627 36.865 36.857 36.827 36.872 36.997 36.877 36.655 36.465 36.417 36.395 36.36 36.347 36.315 36.275 36.275 36.245 36.202 36.18 36.18 36.175 36.165 36.165 36.155 36.16 36.135 36.112 36.072 36.077 36.102 36.115 36.15 36.177 36.185 36.162 36.167 36.177 36.195 36.212 36.207 36.215 36.217 36.212 36.212 36.202 36.2 36.2 36.072 35.96 35.922 35.917 35.98 35.895 35.887 35.905 35.905 35.895 35.897 35.887 35.887 35.897 35.88 35.88 35.872 35.875 35.87 35.877 35.867 35.852 35.85 35.857 35.855 35.85 35.85 35.852 35.837 35.84 35.835 35.83 35.815 35.84 35.84 35.817 35.832 35.83 35.825 35.802 35.822 35.805 35.795 35.795 35.765 35.762 35.9 36.235 35.792 35.91 35.702 35.757 35.69 35.69 35.672 35.662 35.667 35.687 35.685 35.697 35.692 35.682 35.677 35.695 35.68 35.667 35.68 35.672 35.64 35.645 35.667 35.687 35.68 35.687 35.707 35.725 36.157 35.695 35.675 35.675 35.685 35.697 35.677 35.692 35.68 35.692 35.705 35.705 35.707 35.72 35.725 35.717 35.712 35.72 35.762 35.797 35.861 36.03 36.586 36.806 36.778 36.622 36.162 35.691 35.577 35.596 38.684 36.951 40.845 39.485 44.83 45.133 44.219 42.704 -9999 -9999 -9999 -9999 -9999 34.683 34.128 34.411 35.903 37.174 39.033 39.726 39.548 37.096 36.407 36.743 36.851 36.162 36.001 35.833 35.67 35.675 35.617 35.564 35.52 35.5 35.472 35.46 35.47 35.44 35.452 35.455 35.457 35.492 35.515 35.56 35.562 35.572 35.575 35.562 35.557 35.577 35.585 35.53 35.515 35.517 35.487 35.472 35.475 35.487 35.485 35.505 35.465 35.445 35.48 35.502 35.5 35.515 35.522 35.507 35.512 35.492 35.512 35.55 35.567 35.59 35.562 35.555 35.585 35.6 35.575 35.58 35.585 35.597 35.585 35.612 35.605 35.632 35.63 35.617 35.642 35.62 35.645 35.624 35.632
39.507 39.3 39.145 38.975 38.755 38.565 38.442 38.23 38.07 37.925 37.715 37.555 37.415 37.297 37.23 37.162 37.12 37.005 36.91 36.805 36.71 36.597 36.515 36.41 36.395 36.325 36.265 36.272 36.272 36.282 36.285 36.272 36.31 36.295 36.307 36.302 36.31 36.287 36.237 36.205 36.172 36.142 36.157 36.115 36.145 36.115 36.095 36.035 35.97 35.88 35.822 35.772 35.745 35.732 35.695 35.655 35.625 35.602 35.632 35.635 35.625 35.625 35.685 35.682 35.655 35.682 35.682 35.687 35.717 35.76 35.812 35.85 35.862 35.797 35.8 35.84 35.867 35.99 37.087 36.207 37.097 43.005 43.82 44.055 43.417 40.84 36.85 35.895 35.912 35.97 35.94 35.932 35.992 36.012 36.045 36.07 36.122 36.177 36.16 36.135 36.17 39.69 43.77 41.255 37.385 36.195 36.897 39.552 40.285 38.697 36.225 36.222 36.212 36.247 36.237 36.235 36.235 36.222 36.215 36.212 36.237 36.23 36.217 36.185 36.212 36.17 36.162 36.137 36.172 36.28 36.297 36.282 36.242 36.23 36.247 36.255 36.245 36.205 36.21 36.172 36.14 36.147 36.15 36.207 36.207 36.23 36.705 36.552 36.22 36.197 36.165 36.14 36.17 36.202 36.16 36.2 36.207 36.167 36.157 36.162 36.18 36.18 36.227 36.232 36.232 36.222 36.257 36.237 36.22 36.225 36.242 36.29 36.325 36.282 36.33 36.342 36.345 36.36 36.365 36.372 36.402 36.43 36.472 36.452 36.47 36.777 37.235 36.662 36.757 36.795 36.775 36.755 36.75 36.607 36.6 36.627 36.652 36.627 36.71 36.8 36.86 36.857 36.86 36.942 36.86 36.65 36.525 36.412 36.372 36.347 36.317 36.305 36.307 36.267 36.252 36.23 36.205 36.19 36.172 36.155 36.162 36.122 36.12 36.127 36.135 36.137 36.107 36.122 36.14 36.142 36.142 36.175 36.182 36.192 36.215 36.22 36.197 36.19 36.205 36.187 36.187 36.19 36.165 36.16 36.14 36.072 36.002 35.96 35.927 35.905 35.925 35.915 35.93 35.9 35.89 35.902 35.89 35.887 35.885 35.872 35.887 35.882 35.87 35.847 35.857 35.865 35.85 35.865 35.847 35.852 35.847 35.842 35.85 35.857 35.86 35.845 35.837 35.85 35.822 35.84 35.827 35.832 35.822 35.83 35.832 35.812 35.82 35.807 35.772 36.227 36.757 35.77 35.755 35.725 35.64 35.69 35.682 35.677 35.667 35.69 35.69 35.682 35.695 35.675 35.692 35.682 35.7 35.697 35.655 35.667 35.675 35.67 35.665 35.692 35.672 35.687 35.682 35.687 35.692 35.687 35.677 35.685 35.68 35.67 35.67 35.675 35.72 35.692 35.71 35.672 35.69 35.687 35.707 35.715 35.72 35.702 35.737 35.717 35.767 35.774 35.821 35.922 36.267 36.744 36.811 36.77 36.388 35.809 35.524 35.527 35.53 37.724 38.541 32.554 40.122 45.577 45.604 44.562 -9999 -9999 -9999 -9999 -9999 34.238 34.282 34.877 35.488 36.621 38.819 39.451 38.912 37.83 36.486 36.612 37.608 36.592 36.352 36.297 36.104 35.862 35.718 35.648 35.526 35.485 35.465 35.462 35.437 35.465 35.457 35.452 35.45 35.487 35.532 35.565 35.585 35.605 35.597 35.615 35.605 35.587 35.6 35.592 35.575 35.552 35.552 35.55 35.545 35.535 35.512 35.527 35.502 35.5 35.515 35.512 35.505 35.515 35.52 35.515 35.495 35.515 35.51 35.52 35.535 35.555 35.54 35.54 35.577 35.605 35.625 35.612 35.6 35.6 35.587 35.607 35.6 35.637 35.6 35.612 35.662 35.665 35.665 35.648 35.631
39.527 39.35 39.197 39.055 38.882 38.727 38.532 38.327 38.11 37.932 37.762 37.602 37.482 37.392 37.342 37.292 37.227 37.132 37.032 36.92 36.815 36.707 36.602 36.537 36.482 36.387 36.35 36.342 36.31 36.317 36.322 36.312 36.332 36.345 36.34 36.335 36.332 36.317 36.272 36.237 36.242 36.21 36.21 36.167 36.162 36.135 36.082 36.072 36.037 35.962 35.9 35.827 35.777 35.722 35.687 35.652 35.645 35.67 35.685 35.69 35.662 35.66 35.632 35.672 35.675 35.672 35.725 35.69 35.727 35.772 35.84 35.812 35.77 35.822 35.817 35.85 35.965 35.955 35.937 36.012 40.355 42.602 43.912 43.405 41.515 36.43 35.875 35.895 35.932 35.927 35.945 35.965 35.945 35.985 36.04 36.057 36.075 36.082 36.15 36.2 36.185 36.615 39.007 37.242 36.032 36.3 36.32 36.767 39.955 39.932 37.565 36.22 36.225 36.252 36.277 36.237 36.25 36.232 36.237 36.257 36.247 36.207 36.157 36.512 36.382 36.21 36.155 36.147 36.17 36.207 36.235 36.23 36.257 36.28 36.285 36.282 36.275 36.262 36.227 36.22 36.177 36.165 36.227 36.235 36.25 36.697 36.472 36.232 36.242 36.25 36.29 36.147 36.2 36.23 36.177 36.192 36.177 36.16 36.18 36.185 36.185 36.185 36.225 36.232 36.235 36.23 36.242 36.25 36.247 36.252 36.272 36.3 36.305 36.287 36.332 36.34 36.362 36.377 36.377 36.392 36.395 36.405 36.485 36.452 36.445 36.477 37.002 37.155 36.647 36.737 36.777 36.755 36.757 36.72 36.702 36.602 36.617 36.63 36.615 36.645 36.827 36.912 36.872 36.842 36.972 36.995 36.667 36.52 36.43 36.357 36.302 36.312 36.315 36.302 36.29 36.247 36.237 36.202 36.17 36.16 36.177 36.14 36.127 36.122 36.117 36.15 36.14 36.127 36.15 36.137 36.16 36.135 36.147 36.19 36.195 36.205 36.212 36.19 36.19 36.2 36.187 36.167 36.152 36.15 36.142 36.115 36.072 36.017 35.965 35.917 35.897 35.88 35.887 35.9 35.892 35.885 35.88 35.885 35.91 35.887 35.882 35.867 35.885 35.877 35.882 35.875 35.85 35.865 35.855 35.847 35.862 35.85 35.852 35.845 35.845 35.837 35.84 35.83 35.845 35.832 35.817 35.827 35.835 35.822 35.817 35.815 35.81 35.792 35.782 36.352 36.077 36.21 35.73 35.927 35.697 35.68 35.707 35.69 35.7 35.695 35.705 35.687 35.697 35.685 35.685 35.682 35.697 35.69 35.687 35.687 35.675 35.672 35.685 35.707 35.67 35.675 35.7 35.682 35.692 35.682 35.69 35.687 35.667 35.702 35.702 35.682 35.692 35.672 35.677 35.69 35.717 35.672 35.697 35.687 35.717 35.735 35.732 35.75 35.762 35.807 35.819 35.874 35.982 36.514 36.817 36.781 36.608 36.073 35.615 35.464 36.04 38.079 41.36 41.604 44.64 45.796 42.836 44.182 43.648 -9999 -9999 -9999 -9999 -9999 -9999 35.276 35.05 33.859 35.545 37.794 36.727 37.477 36.448 36.456 37.196 37.121 36.277 36.045 36.03 35.961 35.95 35.86 35.715 35.507 35.465 35.505 35.517 35.5 35.492 35.5 35.492 35.502 35.535 35.547 35.557 35.58 35.607 35.607 35.615 35.652 35.65 35.632 35.632 35.612 35.61 35.607 35.572 35.575 35.552 35.55 35.545 35.542 35.52 35.522 35.52 35.532 35.51 35.507 35.492 35.525 35.522 35.535 35.515 35.537 35.545 35.555 35.565 35.577 35.595 35.617 35.605 35.587 35.615 35.62 35.617 35.647 35.637 35.632 35.657 35.692 35.671 35.641 35.655
39.527 39.382 39.235 39.062 38.902 38.75 38.505 38.34 38.162 38.017 37.897 37.735 37.635 37.55 37.465 37.417 37.317 37.237 37.12 37.017 36.887 36.795 36.692 36.635 36.55 36.457 36.432 36.412 36.385 36.36 36.377 36.367 36.347 36.357 36.355 36.362 36.37 36.34 36.3 36.292 36.28 36.247 36.222 36.21 36.16 36.122 36.095 36.057 36.037 36.03 35.967 35.905 35.817 35.755 35.725 35.72 35.742 35.755 35.825 36.66 35.652 35.68 35.637 35.667 35.682 35.695 35.68 35.68 35.722 35.777 35.785 35.762 35.795 35.82 35.887 36.11 35.967 35.887 36.015 36.257 36.445 39.217 43.302 41.265 36.597 35.847 35.867 35.877 35.9 35.915 35.902 35.935 35.915 35.965 35.985 36.02 36.025 36.042 36.12 36.195 36.207 36.517 36.4 35.987 36.18 36.302 36.342 36.327 37.275 38.56 40.347 38.587 36.29 36.262 36.292 36.585 36.252 36.265 36.26 36.267 36.22 36.18 36.612 38.355 40.502 37.34 36.415 36.232 36.195 36.192 36.23 36.272 36.292 36.3 36.295 36.3 36.31 36.267 36.267 36.262 36.182 36.205 36.282 36.265 36.795 36.76 36.235 36.215 36.465 36.212 36.192 36.185 36.22 36.215 36.195 36.177 36.157 36.167 36.197 36.182 36.19 36.19 36.2 36.235 36.227 36.242 36.262 36.242 36.27 36.28 36.29 36.297 36.307 36.302 36.342 36.352 36.38 36.402 36.392 36.392 36.402 36.43 36.46 36.442 36.447 36.447 36.502 36.857 37.335 36.637 36.725 36.78 36.78 36.782 36.777 36.652 36.605 36.65 36.66 36.642 36.645 36.772 36.845 36.84 36.86 36.98 36.962 36.785 36.545 36.422 36.33 36.315 36.287 36.295 36.312 36.29 36.275 36.245 36.242 36.182 36.17 36.155 36.14 36.145 36.15 36.165 36.147 36.15 36.147 36.145 36.132 36.17 36.165 36.157 36.167 36.155 36.152 36.155 36.165 36.195 36.2 36.172 36.122 36.11 36.137 36.127 36.12 36.075 36.022 35.995 35.93 35.922 35.897 35.902 35.905 35.905 35.912 35.905 35.882 35.895 35.892 35.88 35.872 35.877 35.857 35.887 35.862 35.872 35.867 35.847 35.852 35.845 35.855 35.85 35.845 35.845 35.84 35.83 35.825 35.83 35.827 35.827 35.82 35.812 35.845 35.822 35.8 35.797 35.795 35.807 36.142 35.785 35.715 35.745 35.715 35.712 35.707 35.695 35.695 35.702 35.722 35.71 35.68 35.687 35.7 35.705 35.677 35.675 35.685 35.69 35.682 35.707 35.687 35.692 35.692 35.66 35.667 35.69 35.685 35.712 35.712 35.712 35.687 35.72 35.7 35.705 35.71 35.712 35.695 35.7 35.715 35.695 35.7 35.655 35.68 35.71 35.702 35.75 35.785 35.797 35.797 35.832 35.913 36.226 36.751 36.78 36.674 36.322 35.775 35.442 38.674 42.244 44.087 44.652 44.786 44.155 44.916 44.502 42.032 40.836 -9999 -9999 -9999 -9999 -9999 -9999 33.377 32.874 35.931 36.71 36.322 35.676 36.479 36.448 36.727 37.293 36.436 35.972 35.696 35.618 35.611 35.622 35.627 35.59 35.652 35.695 35.757 35.692 35.597 35.58 35.59 35.575 35.58 35.602 35.587 35.595 35.595 35.605 35.62 35.647 35.665 35.67 35.672 35.68 35.682 35.635 35.647 35.625 35.615 35.59 35.585 35.582 35.555 35.545 35.542 35.55 35.54 35.555 35.512 35.52 35.542 35.52 35.532 35.55 35.525 35.552 35.57 35.557 35.585 35.607 35.605 35.607 35.655 35.635 35.622 35.625 35.64 35.647 35.67 35.675 35.681 35.656 35.683
39.502 39.362 39.205 39.032 38.87 38.732 38.572 38.437 38.277 38.14 37.987 37.837 37.74 37.655 37.58 37.505 37.425 37.325 37.22 37.13 37.025 36.922 36.842 36.755 36.637 36.56 36.51 36.477 36.452 36.405 36.39 36.397 36.372 36.38 36.38 36.375 36.345 36.33 36.292 36.287 36.27 36.252 36.217 36.187 36.142 36.117 36.097 36.072 36.065 36.045 36.02 35.957 35.852 35.827 35.802 35.785 35.797 35.775 35.73 35.702 35.652 35.667 35.647 35.627 35.662 35.67 35.682 35.707 35.732 35.745 35.765 35.767 35.762 35.802 36.165 36.165 36.227 38.447 38.427 38.01 41.1 43.377 41.617 37.53 35.805 35.825 35.857 35.86 35.89 35.905 35.922 35.932 35.935 35.95 35.96 35.957 35.985 36.017 36.087 36.14 36.39 36.602 36.067 36.122 36.255 36.312 36.312 36.342 36.945 36.467 39.365 40.26 38.39 36.517 36.37 36.502 36.25 36.245 36.265 36.245 36.172 36.17 38.807 41.742 42.115 38.792 37.162 36.342 36.195 36.207 36.252 36.282 36.282 36.31 36.297 36.302 36.282 36.28 36.277 36.247 36.192 36.215 36.27 36.32 36.97 36.31 36.245 36.24 36.582 36.207 36.237 36.23 36.232 36.222 36.195 36.185 36.217 36.23 36.21 36.235 36.21 36.222 36.237 36.235 36.225 36.262 36.26 36.272 36.29 36.27 36.297 36.292 36.292 36.302 36.347 36.367 36.367 36.39 36.397 36.392 36.397 36.435 36.452 36.467 36.452 36.457 36.467 36.505 36.77 37.202 36.86 36.73 36.812 36.817 36.78 36.747 36.702 36.64 36.672 36.635 36.66 36.647 36.722 36.84 36.827 36.842 36.937 37.247 36.735 36.54 36.43 36.345 36.315 36.29 36.3 36.31 36.312 36.25 36.225 36.197 36.177 36.175 36.167 36.152 36.152 36.165 36.17 36.157 36.155 36.15 36.137 36.175 36.165 36.2 36.157 36.135 36.122 36.137 36.15 36.192 36.16 36.152 36.165 36.142 36.157 36.157 36.155 36.082 36.09 36.04 36.005 35.942 35.905 35.907 35.907 35.902 35.907 35.91 35.905 35.905 35.897 35.89 35.885 35.875 35.88 35.855 35.875 35.875 35.855 35.857 35.855 35.857 35.85 35.855 35.855 35.835 35.845 35.832 35.845 35.837 35.822 35.82 35.815 35.827 35.807 35.852 35.862 35.787 35.815 35.8 36.812 35.697 35.702 35.712 35.702 35.697 35.702 35.7 35.725 35.705 35.685 35.702 35.695 35.66 35.68 35.68 35.73 35.702 35.692 35.682 35.692 35.697 35.692 35.695 35.702 35.697 35.667 35.7 35.715 35.68 35.695 35.687 35.682 35.682 35.685 35.685 35.712 35.685 35.705 35.712 35.71 35.68 35.677 35.672 35.695 35.69 35.71 35.752 35.765 35.77 35.765 35.797 35.86 36.022 36.494 36.782 36.711 36.512 36.142 35.891 39.295 42.631 44.09 45.362 46.117 47.127 45.978 43.853 40.282 39.893 39.556 -9999 -9999 -9999 -9999 -9999 34.744 35.579 36.391 37.116 36.98 36.179 36.037 36.493 36.399 37.102 37.313 36.014 35.668 35.473 35.493 35.549 35.553 35.596 35.627 35.717 35.807 35.872 35.92 35.942 35.852 35.772 35.705 35.692 35.702 35.675 35.675 35.66 35.64 35.632 35.65 35.652 35.677 35.685 35.687 35.695 35.702 35.68 35.67 35.672 35.637 35.61 35.595 35.575 35.575 35.537 35.525 35.545 35.52 35.54 35.54 35.512 35.562 35.555 35.557 35.557 35.567 35.585 35.602 35.605 35.61 35.615 35.627 35.627 35.615 35.61 35.622 35.617 35.642 35.631 35.668 35.678 35.662
39.475 39.355 39.2 39.037 38.882 38.715 38.585 38.467 38.37 38.227 38.11 37.987 37.87 37.79 37.707 37.605 37.527 37.427 37.325 37.235 37.115 37.03 36.945 36.812 36.695 36.64 36.567 36.507 36.467 36.435 36.417 36.412 36.387 36.382 36.377 36.377 36.355 36.32 36.277 36.257 36.247 36.217 36.202 36.187 36.145 36.132 36.087 36.065 36.05 36.047 36.057 36.025 35.93 35.867 35.872 35.862 35.827 35.752 35.7 35.682 35.695 35.662 35.65 35.647 35.652 35.652 35.732 35.765 35.727 35.737 35.777 35.79 35.807 35.907 35.88 36.035 36.845 42.445 43.26 42.795 43.24 43.91 43.697 42.755 38.777 35.8 35.815 35.857 35.892 35.88 35.88 35.895 35.907 35.932 35.93 35.927 35.945 36.01 36.057 36.112 36.475 36.365 36.277 36.22 36.29 36.332 36.32 36.442 36.67 36.312 36.715 38.467 40.552 37.507 36.3 36.275 36.255 36.247 36.25 36.15 36.237 38.95 41.837 42.63 42.95 42.092 41.255 37.172 36.22 36.212 36.23 36.237 36.27 36.277 36.28 36.282 36.28 36.332 36.282 36.245 36.21 36.21 36.31 36.335 36.735 36.51 36.27 36.312 36.235 36.26 36.265 36.23 36.245 36.235 36.212 36.205 36.195 36.255 36.25 36.235 36.26 36.267 36.252 36.292 36.285 36.27 36.247 36.277 36.277 36.257 36.295 36.29 36.282 36.33 36.355 36.347 36.352 36.39 36.405 36.43 36.457 36.442 36.447 36.462 36.445 36.477 36.492 36.49 36.515 36.72 37.46 36.852 36.717 36.795 36.847 36.772 36.797 36.777 36.68 36.65 36.7 36.682 36.685 36.712 36.785 36.84 36.802 36.895 36.84 37.062 36.587 36.442 36.382 36.337 36.31 36.31 36.305 36.285 36.267 36.24 36.207 36.18 36.152 36.16 36.165 36.167 36.172 36.15 36.157 36.167 36.185 36.142 36.132 36.16 36.137 36.13 36.102 36.13 36.17 36.165 36.157 36.122 36.165 36.167 36.18 36.162 36.132 36.13 36.115 36.095 36.052 36.007 35.967 35.905 35.892 35.895 35.897 35.895 35.902 35.902 35.91 35.895 35.89 35.892 35.88 35.862 35.885 35.867 35.87 35.875 35.855 35.855 35.845 35.865 35.845 35.865 35.847 35.842 35.822 35.842 35.845 35.855 35.812 35.847 35.807 35.79 35.78 35.787 35.792 36.635 35.932 35.702 35.71 35.707 35.702 35.692 35.695 35.725 35.71 35.705 35.7 35.687 35.68 35.695 35.707 35.712 35.7 35.702 35.685 35.687 35.707 35.7 35.7 35.697 35.695 35.697 35.687 35.687 35.697 35.68 35.702 35.702 35.717 35.707 35.715 35.722 35.705 35.702 35.68 35.675 35.685 35.685 35.71 35.725 35.697 35.655 35.702 35.735 35.735 35.742 35.735 35.76 35.789 35.886 36.229 36.742 36.782 36.641 36.373 35.88 39.214 41.497 43.884 45.271 43.019 46.873 46.85 45.508 40.365 39.611 39.529 39.213 -9999 -9999 -9999 -9999 35.682 35.472 33.668 33.724 36.458 36.367 36.03 38.422 38.086 36.435 37.414 36.982 35.824 35.519 35.46 35.478 35.5 35.51 35.533 35.57 35.642 35.672 35.72 35.872 36.012 36.065 36.11 36.1 36.02 35.897 35.845 35.817 35.757 35.712 35.702 35.7 35.7 35.68 35.687 35.715 35.732 35.737 35.73 35.7 35.677 35.652 35.642 35.605 35.62 35.582 35.535 35.537 35.537 35.505 35.54 35.55 35.56 35.58 35.582 35.575 35.58 35.57 35.625 35.582 35.612 35.62 35.627 35.607 35.617 35.62 35.637 35.617 35.657 35.623 35.641 35.668 35.681
39.37 39.277 39.15 39.03 38.91 38.785 38.662 38.582 38.462 38.342 38.235 38.11 38.01 37.905 37.815 37.692 37.595 37.485 37.37 37.265 37.17 37.09 36.965 36.842 36.75 36.65 36.61 36.555 36.492 36.455 36.43 36.422 36.412 36.415 36.397 36.42 36.38 36.365 36.295 36.275 36.245 36.217 36.215 36.19 36.142 36.122 36.112 36.077 36.082 36.092 36.052 35.997 35.952 35.912 35.9 35.885 35.855 35.78 35.747 35.71 35.707 35.657 35.657 35.637 35.677 35.757 35.805 35.76 35.712 35.715 35.707 35.815 35.897 36.055 36.05 37.927 41.342 43.595 43.947 43.245 42.927 43.53 44.16 43.76 41.09 38.29 36.855 35.855 35.862 35.87 35.882 35.887 35.915 35.942 35.947 35.955 35.992 36.032 36.062 36.127 36.167 36.197 36.185 36.25 36.29 36.332 36.322 36.335 36.335 36.347 36.327 36.897 39.45 40.33 38.842 37.435 36.247 36.325 36.237 36.177 39.332 41.795 42.617 43.272 42.89 42.035 40.21 37.892 36.255 36.212 36.222 36.265 36.682 36.525 36.3 36.33 36.337 36.325 36.282 36.23 36.217 36.18 36.265 36.387 36.68 36.482 36.282 36.262 36.22 36.23 36.245 36.232 36.235 36.217 36.247 36.227 36.23 36.255 36.275 36.272 36.297 36.277 36.277 36.275 36.292 36.29 36.297 36.305 36.312 36.295 36.285 36.277 36.315 36.345 36.372 36.357 36.365 36.4 36.447 36.472 36.445 36.465 36.48 36.477 36.482 36.507 36.507 36.52 36.482 36.497 36.612 36.967 37.005 36.707 36.817 36.835 36.805 36.815 36.852 36.73 36.662 36.685 36.717 36.692 36.702 36.785 36.822 36.79 36.817 36.992 36.872 36.607 36.485 36.415 36.37 36.312 36.3 36.302 36.285 36.242 36.225 36.225 36.197 36.182 36.18 36.177 36.167 36.167 36.175 36.18 36.185 36.167 36.127 36.162 36.135 36.16 36.135 36.14 36.157 36.135 36.155 36.147 36.147 36.152 36.182 36.17 36.152 36.13 36.122 36.097 36.08 36.052 36.022 35.965 35.937 35.91 35.89 35.892 35.87 35.917 35.917 35.882 35.892 35.887 35.895 35.89 35.89 35.872 35.877 35.88 35.865 35.872 35.87 35.85 35.842 35.84 35.837 35.87 35.85 35.84 35.837 35.845 35.83 35.857 35.862 35.802 35.805 35.792 36.265 35.892 35.797 35.692 35.69 35.69 35.68 35.67 35.702 35.707 35.665 35.687 35.715 35.692 35.675 35.705 35.697 35.715 35.695 35.695 35.702 35.712 35.705 35.705 35.7 35.727 35.71 35.7 35.715 35.722 35.692 35.712 35.71 35.702 35.71 35.712 35.735 35.722 35.725 35.702 35.725 35.705 35.717 35.715 35.697 35.7 35.715 35.7 35.71 35.725 35.705 35.71 35.702 35.715 35.755 35.793 35.987 36.464 36.788 36.742 36.585 36.164 38.379 39.786 43.368 44.864 42.739 45.516 46.209 45.941 39.5 38.582 39.148 -9999 -9999 -9999 -9999 31.676 32.368 32.682 32.266 32.592 35.092 36.86 40.096 42.331 40.581 36.393 36.761 37.474 36.812 35.808 35.572 35.542 35.491 35.488 35.532 35.602 35.677 35.717 35.735 35.792 35.855 35.937 36 36.135 36.272 36.277 36.287 36.252 36.14 36.042 35.942 35.895 35.852 35.792 35.735 35.73 35.755 35.74 35.737 35.71 35.692 35.675 35.68 35.655 35.632 35.602 35.587 35.567 35.6 35.562 35.542 35.527 35.552 35.565 35.57 35.575 35.595 35.612 35.647 35.615 35.645 35.632 35.617 35.637 35.64 35.622 35.655 35.625 35.639 35.654 35.666 35.659 35.664
39.395 39.297 39.17 39.07 38.965 38.867 38.75 38.652 38.527 38.39 38.275 38.135 38.032 37.902 37.78 37.685 37.55 37.477 37.365 37.287 37.227 37.117 37 36.895 36.797 36.72 36.642 36.607 36.53 36.485 36.455 36.437 36.445 36.447 36.452 36.452 36.43 36.387 36.335 36.292 36.257 36.205 36.2 36.195 36.152 36.165 36.12 36.102 36.097 36.07 36.065 36.042 36.002 35.945 35.912 35.917 35.885 35.787 35.775 35.76 35.74 35.702 35.66 35.667 35.747 35.802 35.745 35.73 35.737 35.69 35.762 36.567 35.947 35.947 36.225 42.775 43.61 44.15 43.635 42.672 39.9 41.555 43.457 44.102 43.627 41.63 36.772 35.862 35.875 35.902 35.915 35.905 35.91 35.957 35.955 35.992 35.997 36.082 36.07 36.09 36.12 36.172 36.2 36.237 36.262 36.3 36.3 36.325 36.35 36.332 36.417 36.43 36.347 38.145 40.465 38.422 36.465 36.235 36.197 37.585 41.24 42.3 43.045 43.705 43.537 42.68 41.84 39.677 36.952 36.24 36.22 36.412 38.227 36.942 36.302 36.33 36.335 36.345 36.272 36.267 36.232 36.202 36.27 36.445 36.642 36.617 36.262 36.275 36.227 36.222 36.222 36.202 36.16 36.257 36.997 36.262 36.257 36.282 36.31 36.31 36.307 36.285 36.292 36.295 36.497 36.32 36.312 36.365 36.345 36.337 36.317 36.312 36.342 36.385 36.39 36.392 36.385 36.4 36.435 36.437 36.447 36.475 36.492 36.485 36.482 36.525 36.527 36.585 36.517 36.495 36.485 36.507 37.282 36.962 36.662 36.782 36.837 36.822 36.785 36.787 36.732 36.647 36.69 36.715 36.682 36.69 36.735 36.787 36.822 36.832 36.82 37.045 36.72 36.527 36.442 36.377 36.325 36.282 36.307 36.285 36.26 36.22 36.232 36.22 36.235 36.23 36.197 36.18 36.19 36.177 36.17 36.15 36.145 36.167 36.14 36.127 36.167 36.157 36.14 36.147 36.165 36.162 36.172 36.162 36.175 36.18 36.182 36.122 36.077 36.07 36.075 36.052 36.04 36.002 35.982 35.977 35.887 35.885 35.885 35.902 35.922 35.897 35.977 35.922 35.887 35.872 35.885 35.892 35.877 35.882 35.872 35.87 35.877 35.887 35.85 35.835 35.86 35.86 35.845 35.84 35.832 35.837 35.857 35.887 35.822 35.8 35.815 35.842 35.882 35.725 35.712 35.72 35.73 35.71 35.72 35.712 35.725 35.722 35.702 35.667 35.69 35.7 35.702 35.69 35.69 35.692 35.717 35.71 35.697 35.692 35.715 35.717 35.715 35.722 35.72 35.715 35.732 35.727 35.707 35.717 35.712 35.732 35.69 35.675 35.702 35.717 35.71 35.712 35.745 35.71 35.712 35.702 35.712 35.72 35.707 35.69 35.692 35.7 35.685 35.69 35.682 35.697 35.705 35.748 35.851 36.113 36.643 36.776 36.707 36.526 38.113 39.881 42.689 43.811 43.143 44.388 46.022 45.48 43.487 40.217 39.262 -9999 -9999 -9999 31.678 31.679 31.672 31.671 31.764 32.009 32.775 36.371 40.171 39.588 40.354 37.058 36.43 36.92 37.387 36.36 35.71 35.628 35.514 35.499 35.54 35.557 35.635 35.685 35.765 35.81 35.887 35.925 35.96 36.005 36.085 36.127 36.202 36.375 36.427 36.412 36.475 36.41 36.305 36.085 35.965 35.925 35.862 35.77 35.742 35.745 35.72 35.702 35.682 35.66 35.637 35.62 35.595 35.562 35.59 35.592 35.587 35.56 35.55 35.55 35.54 35.56 35.585 35.615 35.647 35.655 35.655 35.65 35.66 35.68 35.647 35.607 35.655 35.652 35.652 35.661 35.659 35.659 35.667
39.342 39.235 39.125 38.987 38.897 38.805 38.675 38.565 38.477 38.327 38.232 38.13 38.02 37.912 37.78 37.665 37.56 37.49 37.402 37.32 37.222 37.117 37 36.902 36.815 36.735 36.667 36.612 36.527 36.49 36.475 36.442 36.437 36.487 36.51 36.5 36.46 36.4 36.402 36.34 36.297 36.262 36.262 36.212 36.212 36.195 36.192 36.172 36.14 36.105 36.077 36.077 36.045 36.007 35.935 35.905 35.877 35.842 35.8 35.8 35.835 35.762 35.695 35.667 35.752 35.74 35.675 35.697 35.745 35.757 36.015 36.405 36.065 37.232 41.14 43.512 44.122 43.622 41.737 36.265 36.27 37.305 41.87 43.45 43.355 39.412 35.812 35.86 35.882 35.885 35.887 35.905 35.92 35.925 35.915 35.985 36.035 36.072 36.11 36.1 36.132 36.175 36.212 36.215 36.23 36.267 36.267 36.315 36.36 36.307 36.37 36.362 36.357 37.142 38.367 40.297 39.527 36.195 36.205 36.24 38.412 41.627 42.372 43.207 43.97 43.485 42.68 41.865 39.107 36.38 36.27 37.175 36.817 36.312 36.305 36.307 36.325 36.35 36.325 36.312 36.265 36.2 36.3 36.435 36.745 36.617 36.255 36.242 36.195 36.255 36.235 36.165 36.235 36.267 37.247 36.36 36.312 36.29 36.285 36.302 36.292 36.3 36.32 36.337 36.362 36.32 36.347 36.387 36.387 36.355 36.352 36.362 36.415 36.447 36.47 36.44 36.41 36.425 36.435 36.442 36.465 36.475 36.502 36.572 36.552 36.547 36.567 36.57 36.557 36.542 36.565 36.472 36.487 37.095 37.302 36.652 36.772 36.857 36.867 36.807 36.837 36.747 36.62 36.71 36.717 36.7 36.705 36.725 36.797 36.807 36.865 36.872 36.822 36.732 36.502 36.44 36.397 36.315 36.29 36.287 36.285 36.275 36.267 36.262 36.24 36.23 36.222 36.182 36.175 36.165 36.18 36.172 36.15 36.12 36.125 36.16 36.125 36.192 36.17 36.122 36.152 36.18 36.17 36.175 36.18 36.18 36.162 36.137 36.105 36.05 36.04 36.052 36.055 36.042 36.02 35.977 35.935 35.905 35.892 35.877 35.907 35.905 35.925 36.015 35.875 35.877 35.847 35.872 35.875 35.872 35.865 35.875 35.877 35.862 35.86 35.867 35.865 35.857 35.855 35.857 35.857 35.842 35.945 35.817 35.817 35.822 35.867 36.615 35.765 35.755 35.785 35.71 35.735 35.747 35.73 35.722 35.755 35.727 35.717 35.705 35.71 35.705 35.705 35.702 35.702 35.697 35.74 35.73 35.717 35.7 35.702 35.707 35.717 35.72 35.717 35.71 35.715 35.712 35.712 35.712 35.72 35.707 35.692 35.697 35.705 35.712 35.72 35.715 35.72 35.735 35.725 35.717 35.712 35.727 35.692 35.675 35.71 35.65 35.662 35.66 35.672 35.672 35.677 35.698 35.775 35.933 36.378 36.733 36.731 36.668 36.193 38.814 41.174 42.787 44.19 44.745 44.376 44.617 43.811 40.882 41.228 -9999 -9999 -9999 31.679 31.683 31.674 31.679 31.721 33.494 35.604 36.861 36.422 39.819 39.865 39.237 36.509 36.481 37.431 36.806 35.857 35.719 35.569 35.502 35.516 35.586 35.645 35.717 35.755 35.807 35.88 35.925 35.982 36.055 36.087 36.127 36.157 36.18 36.247 36.335 36.425 36.53 36.565 36.562 36.537 36.405 36.227 36.075 36.027 35.882 35.8 35.76 35.722 35.68 35.647 35.63 35.615 35.6 35.582 35.572 35.595 35.58 35.57 35.562 35.567 35.565 35.575 35.59 35.62 35.637 35.627 35.67 35.685 35.682 35.675 35.65 35.657 35.68 35.677 35.683 35.681 35.678 35.681
39.23 39.1 38.992 38.895 38.81 38.7 38.615 38.54 38.425 38.342 38.21 38.127 38.027 37.897 37.787 37.66 37.557 37.462 37.362 37.267 37.177 37.082 36.987 36.912 36.825 36.755 36.68 36.615 36.567 36.527 36.517 36.5 36.482 36.492 36.527 36.542 36.532 36.48 36.445 36.397 36.35 36.342 36.325 36.305 36.302 36.312 36.292 36.25 36.212 36.155 36.12 36.097 36.085 36.057 35.982 35.897 35.865 35.842 35.867 35.85 35.872 35.795 35.745 35.755 35.752 35.74 35.72 35.707 35.762 35.842 35.847 35.997 37.67 40.395 43.502 44.167 43.66 42.072 38.48 36.19 35.902 35.872 35.902 39.637 41.402 36.717 35.81 35.857 35.867 35.87 35.862 35.88 35.9 35.9 35.922 35.965 35.967 36.037 36.08 36.09 36.152 36.192 36.2 36.22 36.197 36.235 36.22 36.255 36.287 36.307 36.357 36.372 36.35 36.375 36.332 38.962 40.362 38.915 36.65 36.245 36.245 38.73 41.447 42.425 43.215 43.777 43.515 42.735 42.39 43.26 38.492 36.252 36.272 36.262 36.26 36.302 36.332 36.322 36.345 36.29 36.267 36.242 36.337 36.427 36.91 36.345 37.04 37.287 36.222 36.27 36.227 36.185 36.247 36.22 36.232 36.272 36.292 36.26 36.34 36.342 36.302 36.3 36.322 36.335 36.342 36.337 36.365 36.357 36.38 36.405 36.392 36.41 36.447 36.42 36.455 36.467 36.452 36.427 36.447 36.447 36.45 36.485 36.487 36.537 36.517 36.525 36.565 36.575 36.577 36.557 36.5 36.467 36.435 36.472 37.025 37.195 36.712 36.752 36.855 36.887 36.835 36.802 36.777 36.74 36.695 36.727 36.72 36.672 36.712 36.797 36.83 36.847 36.785 37.135 36.837 36.557 36.445 36.38 36.325 36.317 36.295 36.307 36.307 36.27 36.235 36.215 36.222 36.23 36.232 36.197 36.177 36.16 36.16 36.17 36.182 36.197 36.162 36.182 36.167 36.145 36.167 36.167 36.172 36.16 36.17 36.192 36.17 36.15 36.122 36.082 36.04 36.017 36.062 36.06 36.027 36.017 35.985 35.967 35.917 35.875 35.89 35.907 35.875 35.9 35.875 35.89 35.885 35.885 35.867 35.867 35.875 35.875 35.865 35.87 35.892 35.88 35.87 35.875 35.865 35.862 35.857 35.875 35.885 35.82 35.83 35.795 35.82 36.01 35.73 35.767 35.722 35.702 35.712 35.72 35.7 35.692 35.727 35.717 35.702 35.71 35.735 35.742 35.685 35.71 35.702 35.71 35.717 35.71 35.7 35.73 35.752 35.722 35.732 35.737 35.717 35.74 35.717 35.717 35.725 35.725 35.74 35.697 35.712 35.73 35.742 35.72 35.722 35.725 35.747 35.755 35.745 35.737 35.745 35.72 35.7 35.67 35.66 35.642 35.65 35.66 35.667 35.652 35.662 35.652 35.703 35.822 36.09 36.612 36.792 36.775 36.493 35.969 38.087 38.133 42.815 43.193 43.728 43.391 40.535 40.395 39.654 -9999 -9999 -9999 -9999 31.681 31.682 31.664 31.622 33.462 35.32 40.189 35.997 38.437 39.464 40.523 36.807 36.374 36.81 37.521 36.144 35.786 35.659 35.551 35.524 35.582 35.687 35.752 35.782 35.842 35.885 35.94 35.98 36.015 36.09 36.135 36.202 36.242 36.275 36.305 36.302 36.307 36.352 36.427 36.447 36.495 36.495 36.532 36.46 36.345 36.395 36.135 35.872 35.767 35.725 35.657 35.615 35.61 35.575 35.572 35.577 35.572 35.562 35.552 35.577 35.597 35.615 35.62 35.635 35.625 35.627 35.64 35.662 35.672 35.672 35.655 35.657 35.678 35.679 35.683 35.685 35.693 35.683
