ncols 441
nrows 32
xllcorner    428110
yllcorner    542224
cellsize     2
NODATA_value -9999
39.032 37.08 35.637 35.052 36.627 37.46 36.937 36.14 34.99 34.487 34.52 34.507 34.555 34.575 34.575 34.6 34.597 34.607 34.622 34.62 34.61 34.575 34.602 34.605 34.587 34.57 34.567 34.587 34.535 34.392 34.385 34.325 34.327 34.325 34.33 34.34 34.372 34.395 34.435 34.45 34.43 34.47 34.457 34.497 34.48 34.49 34.515 34.483 34.493 34.54 34.518 34.518 34.493 34.505 34.505 34.488 34.485 34.46 34.47 34.47 34.463 34.48 34.47 34.468 34.465 34.453 34.468 34.513 34.57 34.553 34.56 34.578 34.603 34.64 34.67 34.7 34.773 36.38 35.393 35.17 35.155 35.163 35.158 35.153 35.155 35.138 35.125 35.145 35.143 35.15 35.14 35.153 35.153 35.153 35.153 35.15 35.153 35.193 35.805 35.97 35.003 35.028 35.068 35.09 35.088 35.098 35.088 35.075 35.095 35.138 35.15 35.163 35.183 35.225 35.24 35.288 35.3 35.295 35.3 35.333 35.36 35.38 35.385 35.465 35.475 35.508 35.548 35.568 35.62 35.66 35.658 35.68 35.805 35.695 35.635 35.598 35.578 35.475 35.418 35.408 35.405 35.408 35.41 35.4 35.408 35.448 35.428 35.433 35.428 35.41 35.413 35.425 35.425 35.428 35.473 35.51 35.6 35.87 35.795 35.61 35.233 35.025 34.983 35.023 34.975 34.965 34.98 35.02 35.115 35.2 35.443 35.513 35.425 35.388 35.303 35.26 35.13 35.118 35.935 35.18 34.925 34.896 34.85 34.813 34.78 34.804 34.834 34.876 34.945 34.995 35.068 35.108 35.154 35.192 35.229 35.271 35.299 35.29 35.289 35.036 34.739 34.282 33.508 32.852 31.925 -9999 -9999 -9999 -9999 -9999 -9999 -9999 -9999 -9999 -9999 -9999 -9999 -9999 -9999 -9999 -9999 -9999 -9999 -9999 -9999 -9999 -9999 -9999 34.194 34.776 35.044 42.322 42.486 39.578 39.171 37.889 41.135 44.154 46.661 47.749 46.704 46.965 48.034 48.499 48.802 50.268 50.958 52.093 53.203 54.19 54.928 55.643 55.585 56.155 56.825 57.523 57.835 57.918 57.49 56.958 56.84 56.865 56.978 57.365 58.903 60.24 65.89 59.963 58.055 59.103 59.538 59.583 59.53 59.655 59.838 60.09 60.37 60.66 60.983 61.29 61.665 61.993 62.313 62.608 62.968 63.24 63.533 63.9 64.26 64.545 64.83 65.243 66.68 66.895 66.098 66.505 66.583 66.87 67.128 67.41 67.825 67.888 68.015 68.238 68.483 68.748 68.973 69.153 69.59 69.665 70.108 70.308 70.423 70.628 70.91 73.418 72.313 71.573 71.798 72.013 72.285 72.54 72.78 72.995 73.175 73.423 73.77 73.94 74.165 74.643 74.748 75.035 75.278 75.493 75.758 75.91 76.1 76.22 76.21 76.238 76.403 76.608 76.628 76.823 76.878 76.828 76.858 76.903 76.96 77.013 77.035 77.045 77.205 77.21 77.325 77.46 77.565 77.738 77.89 77.963 78.313 78.595 78.788 79.018 79.23 79.423 79.753 80.013 80.273 80.528 80.79 81.118 81.348 81.66 81.865 82.218 82.583 82.938 83.24 83.453 83.65 83.768 83.84 83.975 84.11 84.275 84.395 84.535 84.628 84.705 84.81 84.93 85.048 85.21 85.323 85.433 85.568 85.64 85.62 85.625 85.645 85.66 85.635 85.603 85.625 85.62 85.67 85.67 85.688 85.733 85.863 86.015 86.108 86.193 86.288 86.428 86.495 86.568 86.633 86.74 86.873 86.92 87.02 87.088 87.19 87.243 87.323 87.453 87.428 87.475 87.533 87.57 87.61 87.688 87.758 87.82 87.835 87.91 87.938 87.965 88.015
40.572 39.362 37.652 37.517 37.497 37.507 37.515 37.495 37.137 34.967 34.58 36.67 36.272 35.437 34.767 35.112 36.075 35.427 34.64 34.63 34.617 34.615 34.62 34.595 34.587 34.595 34.585 34.622 34.59 34.522 34.495 34.44 34.405 34.367 34.352 34.38 34.377 34.392 34.385 34.427 34.442 34.455 34.472 34.5 34.51 34.515 34.51 34.503 34.505 34.545 34.568 34.558 34.535 34.535 34.545 34.513 34.485 34.488 34.468 34.47 34.468 34.49 34.483 34.463 34.475 34.458 34.458 34.505 34.545 34.575 34.595 34.62 34.648 34.625 34.663 34.718 34.828 36.355 35.263 35.168 35.173 35.153 35.155 35.133 35.158 35.155 35.14 35.138 35.153 35.153 35.14 35.143 35.153 35.145 35.143 35.123 35.15 35.148 35.955 35.878 35.02 35.033 35.045 35.07 35.063 35.065 35.09 35.06 35.095 35.12 35.133 35.165 35.178 35.18 35.198 35.243 35.28 35.26 35.278 35.3 35.335 35.358 35.37 35.425 35.475 35.465 35.52 35.533 35.56 35.6 35.613 35.62 35.648 35.68 35.7 35.745 35.815 35.783 35.69 35.625 35.555 35.49 35.448 35.418 35.433 35.43 35.445 35.45 35.44 35.423 35.425 35.42 35.428 35.453 35.478 35.503 35.478 35.595 35.573 35.428 35.178 35.05 34.995 34.983 34.978 34.955 34.94 34.945 34.975 35.05 35.108 35.243 35.458 35.49 35.345 35.375 35.288 35.625 35.633 35.323 36.658 35.797 34.873 34.851 34.822 34.799 34.831 34.826 34.825 34.908 34.998 35.032 35.109 35.158 35.201 35.227 35.276 35.33 35.322 35.322 35.217 34.59 34.03 33.57 33.136 32.216 -9999 -9999 -9999 -9999 -9999 -9999 -9999 -9999 -9999 -9999 -9999 -9999 -9999 -9999 -9999 -9999 -9999 -9999 -9999 -9999 -9999 -9999 33.603 34.334 34.738 38.373 40.722 41.225 36.81 37.49 40.121 41.879 43.34 45.274 46.564 46.868 48.546 48.272 49.148 50.549 50.272 51.113 52.28 53.323 54.12 54.655 54.908 55.383 56.213 56.913 57.258 57.18 56.868 56.435 56.358 56.27 56.285 56.39 56.548 57.158 61.538 62.153 59.775 59.535 60.243 59.908 59.228 59.378 59.598 59.8 60.063 60.368 60.685 61.035 61.393 61.73 62.08 62.415 62.758 63.078 63.32 63.665 64.025 64.36 64.638 65.048 65.438 65.67 66.008 66.593 66.48 66.653 66.915 67.243 67.55 67.738 67.855 68.095 68.29 68.555 68.773 68.993 69.463 69.463 69.76 69.983 70.193 70.543 70.67 71.043 71.09 71.348 71.548 71.805 72.025 72.373 72.588 72.72 72.94 73.275 73.563 73.723 73.965 74.325 74.493 74.758 74.933 75.22 75.493 75.62 75.795 75.84 75.853 75.895 76.01 76.255 76.263 76.4 76.51 76.545 76.523 76.54 76.575 76.64 76.633 76.653 76.81 76.815 76.945 77.103 77.235 77.42 77.56 77.603 77.94 78.243 78.408 78.655 78.89 79.135 79.413 79.695 79.965 80.205 80.51 80.82 81.125 81.425 81.593 81.905 82.21 82.473 82.865 83.158 83.34 83.665 83.79 83.875 84.035 84.175 84.245 84.395 84.463 84.518 84.56 84.633 84.69 84.795 84.958 85.07 85.183 85.29 85.35 85.348 85.338 85.33 85.313 85.303 85.328 85.343 85.4 85.473 85.593 85.69 85.745 85.818 85.893 85.995 86.1 86.218 86.368 86.455 86.56 86.695 86.8 86.878 87.003 87.075 87.033 87.045 87.088 87.128 87.173 87.24 87.31 87.368 87.445 87.495 87.535 87.623 87.663 87.74 87.773 87.833 87.858
40.495 38.6 37.572 37.487 37.525 37.515 37.575 37.5 37.492 37.582 39.472 40.507 40.657 40.617 39.97 40.275 40.755 39.972 36.985 37.095 36.032 34.957 34.645 34.647 34.647 34.645 34.655 34.66 34.56 34.55 34.532 34.585 34.575 34.527 34.525 34.535 34.537 34.55 34.527 34.547 34.525 34.512 34.547 34.532 34.555 34.54 34.533 34.53 34.538 34.568 34.598 34.593 34.59 34.595 34.585 34.583 34.573 34.56 34.543 34.56 34.55 34.555 34.54 34.538 34.515 34.5 34.515 34.543 34.565 34.628 34.618 34.645 34.673 34.683 34.693 34.733 35.285 36.22 35.278 35.153 35.153 35.155 35.145 35.15 35.16 35.155 35.138 35.138 35.148 35.148 35.14 35.153 35.153 35.15 35.16 35.168 35.163 35.143 36.285 35.52 34.99 34.993 35.018 35.04 35.045 35.055 35.043 35.045 35.065 35.095 35.128 35.135 35.14 35.16 35.17 35.213 35.268 35.24 35.275 35.293 35.298 35.318 35.338 35.405 35.443 35.455 35.483 35.508 35.568 35.568 35.578 35.595 35.628 35.663 35.698 35.685 35.718 35.728 35.71 35.715 35.735 35.713 35.673 35.713 35.59 35.53 35.498 35.488 35.463 35.445 35.448 35.438 35.46 35.488 35.488 35.493 35.49 35.503 35.56 35.488 35.23 35.04 34.99 34.975 34.985 34.95 34.945 34.95 34.953 34.953 34.988 35.068 35.218 35.408 35.325 35.498 35.608 36.805 35.243 35.813 37.59 36.693 35.365 34.874 34.86 34.827 34.781 34.785 34.783 34.821 34.868 34.937 35.043 35.074 35.114 35.207 35.27 35.318 35.368 35.36 35.378 35.164 34.603 34.075 33.682 33.072 32.245 -9999 -9999 -9999 -9999 -9999 -9999 -9999 -9999 -9999 -9999 -9999 -9999 -9999 -9999 -9999 -9999 -9999 -9999 -9999 -9999 -9999 -9999 33.384 34.482 35.764 38.91 36.679 38.667 42.138 41.906 39.163 40.39 42.492 44.706 44.897 47.49 48.264 49.262 49.683 50.295 50.711 51.508 52.515 54.005 53.953 54.353 54.845 56.095 56.298 56.793 56.54 56.255 55.938 55.793 55.78 55.885 55.955 56.15 56.453 56.758 57.018 57.453 59.693 61.555 59.395 58.933 59.083 59.3 59.528 59.823 60.138 60.498 60.8 61.145 61.533 61.865 62.33 62.875 62.873 63.195 63.44 63.82 64.195 64.518 64.818 65.28 65.828 66.553 66.45 66.708 66.625 66.768 67.04 67.273 67.485 67.618 68.16 68.153 68.443 68.563 68.838 69.13 69.333 69.588 69.823 70.03 70.348 70.505 70.718 70.915 71.108 71.348 71.593 71.84 72.14 72.37 72.573 72.82 73.138 73.335 73.498 73.758 74.085 74.243 74.528 74.638 74.968 75.153 75.223 75.34 75.41 75.438 75.475 75.648 75.863 75.918 76.09 76.183 76.16 76.135 76.123 76.155 76.265 76.233 76.275 76.418 76.403 76.545 76.75 76.84 77.005 77.185 77.248 77.578 77.85 78.08 78.335 78.543 78.808 79.138 79.38 79.705 79.89 80.223 80.503 80.853 81.15 81.363 81.733 81.945 82.19 82.498 82.773 82.983 83.26 83.45 83.693 83.91 84.05 84.163 84.223 84.313 84.425 84.47 84.515 84.625 84.658 84.743 84.848 84.903 84.963 85.04 85.07 85.1 85.095 85.09 85.105 85.093 85.108 85.233 85.283 85.433 85.533 85.655 85.758 85.815 85.888 86.003 86.125 86.278 86.36 86.428 86.548 86.655 86.75 86.76 86.813 86.815 86.865 86.905 86.943 87.005 87.063 87.165 87.215 87.32 87.348 87.473 87.51 87.608 87.678 87.738 87.83 87.898
39.575 37.852 37.665 37.547 37.53 37.12 37.535 37.172 37.462 38.19 42.475 42.352 42.037 41.645 41.252 40.93 40.685 40.652 40.69 40.652 40.642 40.662 37.81 35.085 34.68 34.697 34.695 34.665 34.67 34.645 34.62 34.69 34.752 34.73 34.74 34.777 34.825 34.83 34.825 34.835 34.805 34.742 34.765 34.732 34.722 34.65 34.613 34.618 34.613 34.628 34.638 34.628 34.638 34.645 34.65 34.643 34.643 34.65 34.63 34.648 34.63 34.638 34.64 34.62 34.625 34.608 34.623 34.595 34.653 34.65 34.663 34.665 34.663 34.713 34.715 34.763 35.533 36.125 35.245 35.163 35.17 35.155 35.163 35.168 35.148 35.158 35.14 35.135 35.143 35.14 35.148 35.16 35.163 35.153 35.133 35.16 35.168 35.22 36.415 35.198 34.975 34.97 35.01 35.025 35.023 35.028 35.035 35.043 35.065 35.08 35.09 35.11 35.118 35.108 35.17 35.213 35.22 35.215 35.248 35.258 35.28 35.313 35.34 35.36 35.403 35.435 35.48 35.508 35.568 35.55 35.545 35.568 35.605 35.65 35.645 35.653 35.695 35.705 35.7 35.668 35.643 35.66 35.69 35.713 35.723 35.688 35.685 35.66 35.633 35.61 35.55 35.493 35.52 35.585 35.51 35.515 35.568 35.58 35.643 35.553 35.253 35.1 35.028 35 35 34.978 34.98 34.973 34.98 34.968 34.983 34.99 35.028 35.128 35.29 35.455 35.553 35.573 36.103 36.373 37.745 36.263 35.62 35.673 34.973 34.835 34.799 34.753 34.786 34.778 34.809 34.841 34.967 35.014 35.064 35.16 35.213 35.26 35.331 35.359 35.364 35.336 35.168 34.701 34.168 33.694 33.362 32.363 -9999 -9999 -9999 -9999 -9999 -9999 -9999 -9999 -9999 -9999 -9999 -9999 -9999 -9999 -9999 -9999 -9999 -9999 -9999 -9999 -9999 -9999 36.026 42.465 38.899 36.321 43.059 42.786 42.673 40.578 41.114 41.697 44.892 45.825 46.502 48.455 48.621 48.769 49.88 51.164 50.729 51.7 52.4 53.235 53.818 54.31 55.105 55.788 56.183 55.835 55.578 55.338 55.285 55.135 55.413 55.568 55.795 56.543 56.488 56.868 57.395 58.53 59.17 58.96 58.765 58.843 59.058 59.333 59.638 59.91 60.25 60.583 60.935 61.285 61.66 62.015 62.36 62.675 63.028 63.323 63.623 64.015 64.373 64.673 65.073 65.895 66.233 66.213 66.248 66.625 66.575 66.97 67.175 67.343 67.515 67.798 67.98 68.273 68.428 68.623 68.953 69.195 69.493 69.583 69.82 70.11 70.32 70.52 70.72 70.96 71.225 71.468 71.673 71.9 72.18 72.333 72.698 72.898 73.083 73.283 73.578 73.805 73.958 74.145 74.348 74.708 74.785 74.828 74.953 75.085 75.12 75.113 75.31 75.518 75.558 75.785 75.83 75.803 75.738 75.73 75.778 75.85 75.84 75.91 76.048 76.03 76.173 76.343 76.463 76.685 76.798 76.918 77.263 77.478 77.713 78.018 78.188 78.5 78.82 79.045 79.373 79.613 79.968 80.24 80.545 80.87 81.105 81.47 81.765 82.015 82.34 82.6 82.863 83.013 83.248 83.445 83.643 83.793 83.97 84.095 84.163 84.343 84.45 84.478 84.583 84.563 84.638 84.808 85.003 84.868 85.013 85.063 85.033 85.043 84.955 84.948 84.975 85.028 85.153 85.253 85.345 85.438 85.54 85.635 85.73 85.865 85.915 86.028 86.198 86.273 86.28 86.37 86.44 86.49 86.53 86.57 86.655 86.688 86.77 86.83 86.953 86.988 87.12 87.173 87.25 87.31 87.4 87.465 87.57 87.723 87.72 87.798 87.855
38.697 37.592 37.665 37.502 37.54 37.562 37.575 37.48 37.497 38.737 42.4 42.565 42.602 42.642 42.68 42.712 42.562 42.237 41.915 41.51 41.125 40.802 39.712 38.15 37.557 36.767 36.345 34.887 34.797 34.802 34.802 34.862 34.865 34.865 34.915 34.942 35.017 35.057 35.107 35.135 35.12 35.13 35.097 35.027 34.99 34.91 34.863 34.84 34.823 34.803 34.843 34.805 34.785 34.785 34.785 34.765 34.743 34.738 34.73 34.728 34.695 34.685 34.69 34.695 34.715 34.705 34.725 34.725 34.73 34.71 34.73 34.758 34.75 34.775 34.785 34.79 35.948 35.88 35.15 35.158 35.168 35.163 35.155 35.158 35.168 35.155 35.138 35.138 35.138 35.135 35.145 35.158 35.158 35.163 35.143 35.16 35.178 35.21 36.41 35.103 34.958 34.968 35.005 34.995 35.01 35.015 35.038 35.06 35.073 35.08 35.093 35.09 35.103 35.103 35.14 35.17 35.193 35.195 35.228 35.235 35.263 35.28 35.323 35.365 35.395 35.428 35.448 35.488 35.54 35.515 35.5 35.545 35.55 35.58 35.618 35.618 35.64 35.67 35.668 35.645 35.64 35.643 35.66 35.67 35.68 35.685 35.725 35.745 35.735 35.735 35.735 35.638 35.668 35.683 35.57 35.545 35.62 35.598 35.66 35.6 35.28 35.105 35.028 35.033 35 34.993 34.99 34.998 34.973 34.978 34.988 34.968 34.975 35 35.08 35.15 35.198 35.325 35.643 35.408 35.623 35.683 35.72 35.563 35.643 35.21 34.844 34.784 34.785 34.776 34.787 34.777 34.783 34.936 35.05 35.127 35.166 35.244 35.27 35.324 35.346 35.361 35.322 35.177 34.709 34.175 33.786 33.294 32.276 -9999 -9999 -9999 -9999 -9999 -9999 -9999 -9999 -9999 -9999 -9999 -9999 -9999 -9999 -9999 -9999 -9999 -9999 -9999 -9999 -9999 -9999 38.727 38.244 39.738 45.594 41.71 43.881 38.746 40.861 43.339 44.308 45.808 45.792 46.543 49.446 48.095 48.699 50.372 50.018 50.286 51.458 52.233 53.01 53.748 54.475 55.063 55.408 55.003 54.708 54.43 54.683 54.375 54.755 55.125 55.44 55.8 56.258 56.675 57.39 59.668 61.163 58.405 58.46 58.63 58.815 59.08 59.368 59.678 60.048 60.425 60.73 61.085 61.453 61.873 62.253 62.545 62.873 63.19 63.528 63.823 64.203 64.535 65.428 65.493 65.788 66.365 66.028 66.28 66.505 67.413 67.213 67.288 67.553 68.298 68.053 68.3 68.448 68.53 68.785 69.055 69.293 69.418 69.683 69.898 70.143 70.36 70.538 70.773 71.023 71.25 71.498 71.945 71.935 72.188 72.49 72.675 72.848 73.068 73.36 73.563 73.678 73.888 74.11 74.373 74.43 74.5 74.633 74.765 74.785 74.793 74.973 75.145 75.213 75.42 75.385 75.42 75.368 75.478 75.413 75.483 75.443 75.513 75.638 75.658 75.85 75.98 76.145 76.335 76.428 76.598 76.935 77.19 77.418 77.715 77.888 78.2 78.48 78.755 79.095 79.315 79.683 79.96 80.228 80.588 80.855 81.225 81.45 81.763 82.075 82.363 82.545 82.743 82.97 83.263 83.5 83.603 83.72 83.86 83.98 84.025 84.215 84.29 84.498 84.788 87.263 85.575 84.778 84.753 84.9 84.943 84.913 84.898 84.818 84.908 84.983 84.99 85.045 85.168 85.243 85.343 85.493 85.665 85.678 85.7 85.76 85.855 85.953 85.998 86.068 86.155 86.228 86.31 86.4 86.465 86.6 86.64 86.74 86.835 86.91 86.955 87.03 87.13 87.198 87.238 87.335 87.418 87.543 87.615 87.675 87.78 87.825
37.817 37.68 37.59 37.067 37.54 37.567 37.56 37.48 37.525 38.812 42.28 42.312 42.37 42.387 42.435 42.497 42.5 42.535 42.59 42.612 42.675 42.675 41.012 38.227 37.912 38.165 38.012 35.667 34.85 34.89 34.887 34.89 34.892 34.96 34.992 35.065 35.077 35.132 35.16 35.167 35.2 35.315 35.312 35.265 35.252 35.213 35.21 35.158 35.125 35.103 35.123 35.095 35.073 35.068 35.05 35.025 34.99 34.945 34.913 34.88 34.815 34.778 34.77 34.75 34.768 34.763 34.745 34.778 34.783 34.768 34.785 34.785 34.798 34.855 34.848 34.858 36.203 35.573 35.163 35.15 35.168 35.14 35.163 35.15 35.153 35.15 35.133 35.135 35.13 35.135 35.133 35.155 35.15 35.158 35.153 35.16 35.163 35.265 36.48 35 34.928 34.968 34.995 35.008 35 35.01 35.015 35.028 35.048 35.063 35.068 35.073 35.085 35.103 35.115 35.173 35.198 35.195 35.23 35.25 35.26 35.293 35.313 35.37 35.385 35.385 35.415 35.44 35.505 35.508 35.505 35.513 35.5 35.553 35.563 35.56 35.595 35.618 35.62 35.618 35.633 35.643 35.643 35.675 35.668 35.698 35.725 35.728 35.738 35.728 35.728 35.723 35.713 35.695 35.71 35.855 35.685 35.713 35.673 35.51 35.253 35.093 35.033 35.043 35.035 35.035 35.008 34.988 35.005 35.005 34.988 34.993 34.98 34.983 35 35.008 35.045 35.125 35.25 35.218 35.248 35.468 35.75 35.55 35.5 35.468 35.015 34.81 34.806 34.775 34.766 34.76 34.759 34.821 34.959 35.039 35.08 35.163 35.215 35.247 35.298 35.342 35.36 35.333 35.234 34.813 34.225 33.989 32.998 31.971 31.568 -9999 -9999 -9999 -9999 -9999 -9999 -9999 -9999 -9999 -9999 -9999 -9999 -9999 -9999 -9999 -9999 -9999 -9999 -9999 -9999 42.074 40.18 37.81 40.457 42.736 41.524 40.376 40.113 40.89 41.764 40.862 42.932 44.676 45.492 47.095 47.759 48.35 49.487 49.481 49.958 51.165 52.333 53.193 53.643 54.083 54.24 54.203 55.305 53.638 53.633 53.98 54.288 54.673 55.043 55.465 56.155 56.525 57.383 59.865 58.873 58.995 58.483 58.368 58.575 58.833 59.128 59.46 59.83 60.193 60.563 60.92 61.323 61.723 62.058 62.373 62.688 63.025 63.433 63.778 64.06 64.438 64.768 65.088 66.015 66.133 66.015 66.198 66.465 66.725 67.013 67.18 67.753 68.233 67.993 68.153 68.25 68.433 68.675 68.95 69.18 69.355 69.615 69.898 70.13 70.255 70.475 70.745 71.008 71.238 71.365 72.388 71.945 72.05 72.335 72.458 72.665 72.823 73.113 73.303 73.438 73.68 73.898 73.96 74.088 74.153 74.318 74.37 74.338 74.403 74.603 74.785 74.835 75.075 75.033 75.328 75.015 75.713 75.018 75.098 75.06 75.163 75.275 75.355 75.475 75.628 75.775 75.963 76.078 76.248 76.61 76.838 77.088 77.363 77.555 77.87 78.173 78.495 78.83 79.033 79.405 79.708 79.995 80.338 80.585 80.938 81.195 81.515 81.808 82.093 82.265 82.543 82.693 82.98 83.238 83.305 83.43 83.67 84.96 84.23 84.035 84.098 84.153 84.343 86.605 85.185 84.543 84.61 84.743 84.77 84.625 84.573 84.623 84.755 84.67 84.728 84.903 85.015 85.13 85.23 85.343 85.43 85.488 85.493 85.585 85.665 85.743 85.788 85.913 86.013 86.093 86.2 86.338 86.428 86.52 86.598 86.65 86.71 86.833 86.895 86.955 87.015 87.12 87.218 87.34 87.423 87.53 87.608 87.715 87.78 87.85
37.62 37.817 37.822 37.867 38.14 37.51 37.512 37.53 37.472 39.32 41.91 42.087 42.157 42.155 42.207 42.245 42.275 42.307 42.357 42.395 42.412 42.437 40.452 37.885 37.872 37.63 37.95 34.905 34.905 34.91 34.897 34.89 34.91 35.03 35.182 35.317 35.34 35.312 35.28 35.322 35.387 35.415 35.48 35.55 35.517 35.523 35.513 35.44 35.408 35.398 35.388 35.368 35.365 35.358 35.348 35.34 35.308 35.278 35.24 35.203 35.105 35.025 34.99 34.953 34.905 34.888 34.878 34.853 34.868 34.845 34.833 34.843 34.848 34.87 34.858 34.895 36.56 35.588 35.145 35.165 35.153 35.138 35.168 35.145 35.153 35.15 35.148 35.123 35.12 35.113 35.125 35.163 35.158 35.165 35.145 35.173 35.158 35.5 36.403 34.983 34.93 34.938 34.975 34.983 34.99 34.993 35.003 35.008 35.048 35.063 35.078 35.075 35.07 35.078 35.113 35.163 35.18 35.195 35.215 35.235 35.275 35.31 35.333 35.365 35.393 35.43 35.443 35.44 35.505 35.513 35.51 35.518 35.535 35.52 35.555 35.563 35.575 35.578 35.595 35.593 35.6 35.608 35.63 35.655 35.635 35.695 35.71 35.735 35.725 35.723 35.725 35.718 35.703 35.693 35.793 38.643 36.965 35.765 35.783 35.61 35.278 35.215 35.125 35.115 35.115 35.093 35.06 35.065 35.068 35.035 35.04 35.033 35.045 35.053 35.045 35.065 35.048 35.04 35.055 35.07 35.205 35.368 35.615 35.683 35.58 35.483 35.28 35.038 34.815 34.792 34.742 34.753 34.725 34.741 34.816 34.928 35.019 35.105 35.154 35.192 35.232 35.278 35.337 35.341 35.332 35.249 34.774 34.204 33.641 32.689 31.877 -9999 -9999 -9999 -9999 -9999 -9999 -9999 -9999 -9999 -9999 -9999 -9999 -9999 -9999 -9999 -9999 -9999 -9999 -9999 -9999 39.488 40.197 43.407 39.835 42.837 44.196 41.984 38.074 37.547 38.303 38.644 39.369 43.369 45.592 45.906 46.635 46.649 48.238 49.746 49.809 50.187 51.25 52.02 52.443 53.058 53.045 53.99 56.553 54.818 53.1 53.59 54.11 54.488 54.87 55.643 56.075 56.315 57.645 60.565 60.7 60.2 58.393 58.138 58.37 58.648 58.93 59.285 59.665 60.065 60.44 60.835 61.218 61.593 61.93 62.233 62.583 62.93 63.293 63.708 64.02 64.31 64.628 64.978 65.723 65.833 65.853 66.08 66.373 66.655 66.893 67.068 67.32 67.753 67.785 67.995 68.15 68.365 68.62 68.845 69.085 69.238 69.513 69.8 69.96 70.18 70.405 70.773 70.955 71.1 71.235 71.495 71.633 71.898 72.15 72.263 72.438 72.623 72.925 73.025 73.203 73.348 73.563 73.68 73.748 73.785 74.02 73.963 74.008 74.068 74.26 74.503 74.473 74.71 74.833 74.73 75.13 75.213 74.635 74.673 74.648 74.725 74.875 74.95 75.078 75.305 75.433 75.658 75.94 75.915 76.245 76.505 76.77 77.073 77.26 77.645 77.908 78.185 78.503 78.733 79.133 79.453 79.67 80.063 80.345 80.675 80.953 81.278 81.53 81.793 82.02 82.253 82.383 82.635 82.83 83.015 83.165 83.328 85.178 85.278 84.133 83.88 83.893 84.105 84.113 84.178 84.413 84.41 84.575 84.63 84.368 84.33 84.408 84.413 84.443 84.73 84.938 85.035 85.073 85.058 85.135 85.195 85.205 85.303 85.408 85.455 85.6 85.703 85.793 85.915 86.023 86.145 86.248 86.348 86.42 86.5 86.575 86.65 86.783 86.83 86.923 87.018 87.093 87.193 87.315 87.413 87.495 87.595 87.71 87.78 87.853
37.89 37.885 37.892 38.955 39.862 37.392 37.625 37.47 37.495 37 37.612 39.37 40.52 41.2 41.405 41.685 41.977 42.075 42.122 42.17 42.187 42.212 39.982 37.97 37.882 37.88 37.652 34.847 35.07 35.042 34.917 34.917 35.07 35.397 35.572 35.63 35.677 35.702 35.707 35.732 35.75 35.737 35.802 35.81 35.78 35.8 35.748 35.725 35.708 35.665 35.678 35.685 35.665 35.653 35.633 35.655 35.628 35.61 35.588 35.57 35.515 35.438 35.398 35.335 35.265 35.253 35.205 35.135 35.08 35.048 35.015 35.02 35.028 35.015 35.005 35.1 36.75 35.43 35.158 35.163 35.16 35.14 35.148 35.15 35.158 35.165 35.148 35.145 35.12 35.128 35.128 35.148 35.148 35.155 35.16 35.155 35.158 35.575 36.183 34.975 34.915 34.95 34.953 34.97 34.965 34.978 34.968 35.02 35.005 35.043 35.065 35.058 35.075 35.058 35.073 35.128 35.148 35.17 35.198 35.228 35.265 35.288 35.325 35.358 35.368 35.423 35.445 35.438 35.488 35.495 35.503 35.488 35.52 35.52 35.555 35.555 35.555 35.555 35.588 35.608 35.61 35.61 35.633 35.645 35.63 35.663 35.673 35.688 35.733 35.72 35.723 35.725 35.705 35.68 35.713 37.81 40.063 36.868 35.833 35.593 35.375 35.26 35.243 35.26 35.24 35.205 35.18 35.165 35.153 35.15 35.123 35.12 35.113 35.108 35.095 35.103 35.09 35.078 35.063 35.058 35.09 35.13 35.218 35.443 35.42 35.495 35.588 35.35 35.003 34.848 34.755 34.752 34.749 34.725 34.777 34.815 34.913 35.016 35.07 35.116 35.158 35.195 35.269 35.341 35.363 35.367 35.148 34.727 34.321 33.411 32.465 32.009 -9999 -9999 -9999 -9999 -9999 -9999 -9999 -9999 -9999 -9999 -9999 -9999 -9999 -9999 -9999 -9999 -9999 -9999 -9999 -9999 42.249 43.328 42.826 40.501 35.691 36.503 35.416 37.553 38.276 38.499 39.612 40.279 41.08 43.012 45.968 45.267 46.989 48.118 48.664 49.597 50.745 50.683 51.215 51.763 51.845 52.925 51.87 52.188 52.425 52.97 54.055 54.415 54.98 56.403 56.158 56.253 56.568 57.443 60.17 58.965 57.793 57.925 58.183 58.458 58.795 59.133 59.51 59.873 60.52 61.035 61.155 61.488 61.848 62.165 62.488 62.825 63.573 63.588 63.93 64.248 64.565 64.903 65.41 65.68 65.653 65.933 66.228 66.478 66.8 66.975 67.183 67.513 67.623 67.873 68.073 68.268 68.533 68.738 68.99 69.143 69.405 69.61 69.923 70.06 70.298 70.47 70.673 70.96 71.12 71.315 71.505 71.75 72 72.1 72.253 72.415 72.695 72.79 72.96 73.103 73.218 73.395 73.318 73.44 73.608 73.595 73.683 73.715 73.873 74.113 74.11 74.38 74.83 74.7 74.933 74.76 74.278 74.253 74.168 74.658 74.443 74.495 74.633 74.875 75.045 75.545 75.8 75.663 75.838 76.163 76.445 76.765 76.963 77.323 77.595 77.92 78.25 78.483 78.85 79.125 79.39 79.763 80.043 80.423 80.685 80.978 81.203 81.495 81.755 81.978 82.12 82.345 82.553 82.745 82.905 83.013 83.843 83.7 83.545 83.55 83.68 83.865 84.443 83.998 84.005 83.975 83.918 84.153 84.148 84.098 84.163 84.22 84.438 84.693 84.788 84.823 84.88 84.888 84.913 84.968 85.08 85.223 85.278 85.373 85.49 85.603 85.71 85.818 85.915 86.07 86.188 86.265 86.373 86.47 86.558 86.625 86.773 86.828 86.908 86.99 87.068 87.143 87.275 87.385 87.493 87.578 87.683 87.763 87.823
37.875 38.052 37.93 39.06 36.025 34.9 35.015 35.387 35.73 35.655 34.852 35.012 35 34.97 35.887 37.427 37.745 39.045 40.747 41.23 41.465 41.742 39.497 38.295 37.86 38.192 36.642 34.865 34.877 34.92 34.922 35.03 35.45 35.857 35.967 36.002 35.992 35.997 36.03 36.04 36.07 36.052 36.075 36.11 36.067 36.033 36.03 35.998 35.99 35.975 35.935 35.93 35.93 35.903 35.91 35.925 35.905 35.898 35.913 35.908 35.903 35.858 35.823 35.8 35.748 35.738 35.67 35.603 35.558 35.523 35.49 35.418 35.405 35.38 35.35 35.888 37.35 35.28 35.163 35.163 35.145 35.15 35.155 35.138 35.16 35.15 35.158 35.14 35.153 35.16 35.148 35.155 35.143 35.15 35.15 35.165 35.138 35.475 35.753 34.94 34.883 34.913 34.933 34.955 34.943 34.955 34.963 34.983 34.983 35.038 35.043 35.04 35.055 35.045 35.073 35.088 35.138 35.155 35.195 35.21 35.248 35.293 35.303 35.325 35.338 35.39 35.408 35.428 35.483 35.483 35.485 35.483 35.49 35.54 35.55 35.54 35.528 35.568 35.563 35.588 35.618 35.615 35.66 35.67 35.663 35.668 35.675 35.728 35.743 35.735 35.74 35.718 35.708 35.653 35.65 36.968 39.45 39.56 36.01 35.528 35.345 35.245 35.265 35.308 35.318 35.305 35.263 35.265 35.238 35.25 35.258 35.263 35.255 35.245 35.235 35.215 35.175 35.175 35.158 35.145 35.15 35.16 35.193 35.225 35.26 35.373 35.343 35.448 35.473 35.273 34.905 34.815 34.759 34.747 34.741 34.759 34.828 34.94 35.021 35.078 35.132 35.177 35.22 35.299 35.349 35.383 35.32 35.224 34.818 34.117 33.214 32.897 32.429 -9999 -9999 -9999 -9999 -9999 -9999 -9999 -9999 -9999 -9999 -9999 -9999 -9999 -9999 -9999 -9999 -9999 -9999 -9999 41.085 43.51 41.525 41.397 39.851 36.893 35.254 38.18 38.904 37.946 39.091 40.104 42.525 42.807 44.464 45.464 46.753 46.774 47.15 47.892 49.013 49.638 50.185 50.56 50.665 53.138 51.328 51.338 51.978 52.528 53.645 54.495 55.2 55.853 56.165 56.22 56.31 56.825 57.265 57.498 57.55 57.745 57.998 58.268 58.6 59 59.533 59.743 60.218 60.668 61.04 61.34 61.783 62.07 62.4 62.725 63.488 63.523 63.905 64.213 64.525 64.853 65.333 65.613 65.633 65.87 66.11 66.375 66.64 66.843 67.035 67.348 67.535 67.773 67.95 68.198 68.463 68.65 68.888 69.043 69.293 69.49 70.075 70.183 70.143 70.35 70.565 70.758 70.943 71.11 71.45 71.693 71.775 71.918 72.115 72.24 72.488 72.585 72.693 72.843 72.95 73.038 73.025 73.175 73.26 73.238 73.223 73.348 73.503 73.803 73.865 74.15 74.243 74.135 73.785 73.808 73.935 73.898 73.768 73.875 74.155 74.175 74.235 74.405 74.628 74.863 75.073 75.263 75.553 75.865 76.128 76.408 76.645 76.98 77.29 77.628 77.955 78.22 78.53 78.8 79.143 79.453 79.745 80.168 80.428 80.708 80.98 81.225 81.508 81.753 81.873 82.085 82.255 82.453 82.62 82.783 82.94 83.203 83.348 83.398 83.588 83.658 83.698 83.668 83.695 83.68 83.605 83.7 83.92 84.038 83.993 84.185 84.368 84.488 84.538 84.578 84.64 84.675 84.755 84.848 84.963 85.068 85.165 85.27 85.388 85.48 85.605 85.723 85.838 86.003 86.12 86.238 86.308 86.433 86.523 86.61 86.698 86.795 86.883 86.953 87.028 87.14 87.238 87.348 87.478 87.54 87.655 87.72 87.813
36.34 38.012 37.857 37.96 37.985 35.155 34.8 34.937 35.392 35.637 35.98 36.11 36.167 36.077 35.862 35.765 36.427 36.58 36.277 35.825 37.06 38.105 36.997 37.227 38.177 38.097 36.39 34.807 34.865 34.91 34.94 35.305 36.105 36.355 36.39 36.442 36.415 36.42 36.422 36.395 36.405 36.412 36.462 36.495 36.46 36.428 36.403 36.315 36.32 36.29 36.24 36.238 36.22 36.205 36.198 36.195 36.193 36.188 36.205 36.185 36.18 36.178 36.155 36.14 36.123 36.108 36.115 36.083 36.035 36.045 36 35.975 35.938 35.898 35.853 36.488 37.165 35.263 35.19 35.173 35.153 35.158 35.16 35.138 35.148 35.163 35.153 35.158 35.163 35.16 35.145 35.155 35.145 35.16 35.145 35.16 35.208 35.808 35.408 34.92 34.915 34.908 34.918 34.933 34.925 34.96 34.973 34.983 34.978 35.013 35.018 35.025 35.028 35.035 35.038 35.103 35.123 35.138 35.183 35.21 35.258 35.285 35.305 35.318 35.36 35.37 35.39 35.4 35.455 35.45 35.465 35.475 35.5 35.508 35.55 35.538 35.53 35.555 35.59 35.568 35.583 35.603 35.653 35.675 35.673 35.68 35.67 35.71 35.735 35.713 35.72 35.72 35.705 35.668 35.635 35.638 37.368 39.133 36.655 35.488 35.313 35.243 35.268 35.298 35.303 35.3 35.313 35.305 35.293 35.285 35.303 35.315 35.33 35.313 35.305 35.308 35.273 35.268 35.28 35.293 35.248 35.25 35.308 35.333 35.323 35.288 35.285 35.268 35.255 35.345 35.048 34.943 34.823 34.752 34.761 34.791 34.78 34.815 34.94 35.091 35.125 35.15 35.199 35.236 35.308 35.377 35.387 35.353 35.196 34.457 33.902 33.612 33.033 32.059 -9999 -9999 -9999 -9999 -9999 -9999 -9999 -9999 -9999 -9999 -9999 -9999 -9999 -9999 -9999 -9999 -9999 -9999 40.515 44.557 42.85 43.672 42.848 38.783 35.564 36.621 39.254 38.84 38.78 42.498 43.307 41.662 42.224 43.189 44.423 44.486 45.741 47.099 48.088 49.172 48.543 49.195 49.76 49.978 50.323 53.888 58.455 55.348 53.72 54.585 55.225 55.765 56.06 56.175 56.07 56.523 57.005 57.18 57.348 57.533 57.8 58.075 61.298 61.78 59.353 59.553 59.988 60.38 60.82 61.2 61.635 62.013 62.355 62.713 63.13 63.763 64.07 64.128 64.453 64.778 65.443 65.625 65.643 65.873 66.148 66.44 66.635 66.81 66.958 67.248 67.463 67.728 67.84 68.123 68.453 68.58 68.745 68.92 69.143 69.47 70.618 70.233 70.065 70.375 70.508 70.728 70.868 71 71.285 71.438 71.53 71.748 71.953 72.045 72.275 72.313 72.403 72.588 72.65 72.683 72.76 72.875 72.905 72.863 72.805 72.943 73.155 73.525 73.355 73.708 73.643 73.695 73.338 73.428 73.715 73.483 73.363 73.555 73.753 73.82 73.86 74.073 74.205 74.453 74.748 74.988 75.318 75.628 75.863 76.163 76.325 76.693 77 77.31 77.635 77.943 78.235 78.51 78.855 79.148 79.518 79.878 80.133 80.455 80.735 80.983 81.215 81.415 81.568 81.76 81.96 82.18 82.293 82.505 82.593 82.785 83.038 83.093 83.29 83.385 83.375 83.408 83.4 83.41 83.405 83.538 83.658 83.875 84.108 84.058 84.185 84.288 84.348 84.388 84.39 84.483 84.59 84.695 84.82 84.9 85.02 85.16 85.285 85.378 85.523 85.643 85.775 85.935 86.05 86.173 86.255 86.353 86.455 86.548 86.628 86.74 86.855 86.92 86.993 87.093 87.188 87.295 87.415 87.488 87.568 87.668 87.753
34.575 35.162 36.522 37.967 36.997 34.837 35.16 35.98 36.412 36.63 36.825 37.037 37.065 36.917 36.762 36.685 36.675 36.692 36.727 36.715 36.717 36.362 35.347 34.827 36.892 37.22 35.96 34.81 34.842 34.882 35.212 36.12 36.852 36.95 36.96 36.957 36.892 36.917 36.915 36.897 36.87 36.897 36.935 36.94 36.892 36.855 36.788 36.735 36.71 36.693 36.68 36.64 36.628 36.58 36.59 36.575 36.57 36.57 36.555 36.543 36.535 36.51 36.458 36.438 36.445 36.44 36.43 36.428 36.39 36.395 36.4 36.39 36.328 36.273 36.27 37.063 37.835 35.543 35.44 35.378 35.313 35.305 35.298 35.283 35.203 35.175 35.163 35.16 35.173 35.15 35.155 35.158 35.158 35.16 35.173 35.168 35.21 36.08 35.145 34.93 34.9 34.918 34.91 34.93 34.938 34.965 34.97 34.96 34.968 34.973 35.005 34.995 35.008 35.013 35.023 35.063 35.12 35.16 35.18 35.205 35.268 35.285 35.305 35.308 35.33 35.365 35.383 35.39 35.43 35.433 35.46 35.468 35.488 35.505 35.535 35.508 35.52 35.555 35.593 35.555 35.57 35.628 35.665 35.675 35.683 35.685 35.695 35.718 35.705 35.713 35.698 35.698 35.675 35.643 35.628 35.62 35.593 36.913 36.123 35.435 35.328 35.263 35.273 35.283 35.273 35.29 35.295 35.273 35.29 35.27 35.29 35.305 35.313 35.315 35.32 35.335 35.33 35.328 35.313 35.323 35.335 35.32 35.36 35.37 35.375 35.383 35.358 35.33 35.31 35.305 35.25 35.088 34.863 34.818 34.755 34.713 34.708 34.743 34.844 34.967 35.073 35.141 35.172 35.208 35.269 35.335 35.38 35.385 35.294 34.954 34.541 34.096 33.651 32.919 32.42 -9999 -9999 -9999 -9999 -9999 -9999 -9999 -9999 -9999 -9999 -9999 -9999 -9999 -9999 -9999 -9999 -9999 -9999 40.425 41.524 37.941 39.752 39.97 37.113 35.613 38.023 42.128 42.585 40.599 43.648 39.837 39.665 40.467 41.665 43.88 45.816 46.263 46.847 47.717 47.268 47.988 48.548 49.088 49.868 50.74 53.473 59.918 56.175 54.438 54.968 55.37 55.653 55.903 55.803 56.185 56.88 57.065 57.178 57.358 57.608 57.905 58.918 59.015 59.108 59.473 59.838 60.255 60.678 61.085 61.608 61.903 62.283 62.698 63.575 64.153 63.863 64.06 64.373 64.733 65.343 65.443 65.503 65.888 66.165 66.373 66.638 66.818 66.973 67.2 67.37 67.633 67.78 68.033 68.295 68.508 68.65 68.845 69.08 69.33 70.123 69.81 69.96 70.103 70.72 71.048 70.788 70.975 71.133 71.283 71.375 71.623 71.755 71.838 72.068 72.068 72.16 72.295 72.333 72.398 72.405 72.49 72.533 72.53 72.493 72.573 72.803 73.17 73.075 73.158 73.368 73.305 73.285 73.008 73.125 73.17 73.053 73.323 73.483 73.518 73.603 73.755 73.915 74.16 74.4 74.693 75.085 75.393 75.618 76.44 76.57 76.638 76.968 77.138 77.413 77.75 77.99 78.253 78.553 78.84 79.188 79.555 79.87 80.175 80.46 80.72 80.903 81.045 81.238 81.473 81.615 81.89 81.998 82.15 82.198 82.43 82.588 82.715 82.87 82.958 82.995 83.083 83.063 83.195 83.273 83.52 83.49 83.618 83.915 83.895 84.243 84.713 84.095 84.123 84.218 84.313 84.468 84.585 84.678 84.795 84.943 85.095 85.185 85.303 85.445 85.585 85.723 85.838 85.933 86.065 86.175 86.255 86.37 86.44 86.573 86.673 86.753 86.858 86.948 87.01 87.143 87.245 87.36 87.425 87.51 87.58 87.665
34.76 34.637 34.79 35.555 35.622 35.102 36.362 36.855 37.19 37.45 37.63 37.84 37.91 37.925 37.862 37.797 37.755 37.695 37.665 37.592 37.545 37.432 37.245 36.812 36.927 36.905 35.945 35.455 35.602 35.847 36.542 37.372 37.697 37.757 37.74 37.705 37.695 37.7 37.682 37.66 37.637 37.617 37.58 37.56 37.477 37.423 37.32 37.305 37.31 37.208 37.153 37.09 37.073 37.04 37.035 37.038 37.013 36.983 36.973 36.95 36.96 36.923 36.843 36.8 36.84 36.813 36.79 36.743 36.708 36.713 36.705 36.66 36.635 36.575 36.535 38.14 38.745 36.323 35.953 35.813 35.725 35.745 35.815 35.66 35.51 35.425 35.398 35.353 35.328 35.293 35.265 35.258 35.208 35.253 35.233 35.198 35.228 36.488 35.225 34.955 34.923 34.92 34.915 34.918 34.935 34.948 34.965 34.958 34.988 34.978 34.985 34.998 35.015 35.013 35.035 35.073 35.123 35.148 35.205 35.198 35.245 35.278 35.29 35.28 35.323 35.343 35.378 35.388 35.405 35.428 35.425 35.438 35.47 35.49 35.528 35.51 35.548 35.565 35.568 35.58 35.6 35.613 35.66 35.653 35.668 35.693 35.705 35.718 35.748 35.7 35.705 35.718 35.668 35.64 35.623 35.608 35.6 35.628 35.585 35.373 35.343 35.318 35.285 35.295 35.29 35.29 35.285 35.255 35.263 35.253 35.29 35.298 35.3 35.31 35.333 35.323 35.315 35.288 35.285 35.288 35.28 35.303 35.353 35.373 35.373 35.333 35.35 35.37 35.383 35.343 35.368 35.358 35.24 34.985 34.795 34.712 34.691 34.691 34.752 34.868 35.008 35.108 35.121 35.173 35.224 35.298 35.348 35.409 35.377 35.357 35.136 34.671 34.274 33.863 33.03 32.076 -9999 -9999 -9999 -9999 -9999 -9999 -9999 -9999 -9999 -9999 -9999 -9999 -9999 -9999 -9999 -9999 -9999 -9999 -9999 39.624 37.926 39.234 38.575 36.88 39.089 43.771 42.288 42.286 43.088 38.541 38.593 39.04 41.179 43.804 45.675 45.858 45.597 45.619 46.443 46.745 47.67 48.773 49.705 50.695 52.303 52.958 53.338 53.9 54.31 54.77 55.203 55.538 55.613 55.778 56.51 56.913 57 57.215 57.43 57.755 58.078 58.423 58.843 59.31 59.675 60.098 60.543 60.963 61.48 61.798 62.218 62.545 63.46 63.718 63.648 63.94 64.238 64.635 65.323 65.348 65.453 65.725 66.063 66.305 66.51 66.708 66.943 67.203 67.393 67.668 67.718 67.953 68.198 68.4 68.568 68.778 69.015 69.213 69.515 69.615 69.87 70.035 70.605 70.815 71.02 70.825 70.973 71.083 71.258 71.425 71.543 71.645 71.75 71.81 71.943 71.923 72.048 72.085 72.085 72.173 72.178 72.145 72.12 72.183 72.493 72.76 72.63 72.943 72.955 73.57 73.183 72.68 72.75 72.778 72.78 73.275 73.29 73.155 73.33 73.518 73.678 73.87 74.17 74.455 74.803 75.515 75.323 75.8 76.295 76.993 76.7 76.935 77.235 77.51 77.798 78.073 78.423 78.64 78.92 79.345 79.643 79.945 80.235 80.435 80.648 80.77 80.938 81.153 81.308 81.608 81.7 81.79 81.903 82.075 82.223 82.378 82.438 82.463 82.565 82.67 83.275 83.098 83.063 83.098 83.22 83.465 83.645 83.635 83.86 84.175 83.818 83.895 84.04 84.19 84.36 84.475 84.6 84.735 84.853 84.973 85.07 85.213 85.318 85.423 85.595 85.725 85.838 85.973 86.075 86.143 86.27 86.375 86.48 86.583 86.683 86.785 86.865 86.92 87.06 87.183 87.288 87.363 87.473 87.55 87.623
36.08 35.927 36.072 35.747 35.192 36.16 37.167 37.632 37.932 38.222 38.475 38.66 38.767 38.88 38.965 38.895 38.787 38.742 38.715 38.66 38.62 38.502 38.4 38.082 37.785 37.577 37.615 37.425 37.442 37.637 38.1 38.687 38.765 38.74 38.745 38.7 38.705 38.687 38.637 38.597 38.585 38.565 38.525 38.465 38.39 38.283 38.188 38.173 38.208 38.01 37.828 37.753 37.705 37.64 37.623 37.578 37.503 37.453 37.398 37.378 37.358 37.333 37.263 37.225 37.25 37.23 37.208 37.145 37.088 37.063 37.008 36.955 36.918 36.855 36.805 38.448 38.763 39.665 39.353 38.37 38.665 37.243 37.1 37.338 36.79 35.935 36.035 35.628 35.67 35.64 35.48 35.513 35.47 35.413 35.405 35.355 35.383 37.27 35.313 34.955 34.955 34.963 34.938 34.94 34.948 34.943 34.953 34.975 34.98 35 34.998 35.005 35.008 35.013 35.035 35.09 35.128 35.143 35.195 35.213 35.253 35.26 35.27 35.29 35.318 35.32 35.353 35.378 35.39 35.423 35.423 35.413 35.43 35.45 35.493 35.53 35.558 35.56 35.568 35.573 35.555 35.59 35.635 35.64 35.653 35.663 35.688 35.695 35.718 35.725 35.715 35.7 35.668 35.64 35.623 35.595 35.623 38.57 36.293 35.383 35.343 35.303 35.288 35.28 35.278 35.283 35.288 35.263 35.263 35.26 35.273 35.303 35.295 35.298 35.313 35.31 35.288 35.29 35.275 35.273 35.293 35.298 35.33 35.323 35.33 35.335 35.353 35.388 35.395 35.343 35.368 35.378 35.413 35.353 34.933 34.705 34.652 34.671 34.685 34.768 34.871 34.987 35.063 35.098 35.135 35.207 35.286 35.357 35.384 35.371 35.333 35.194 34.742 34.22 33.725 32.784 31.594 -9999 -9999 -9999 -9999 -9999 -9999 -9999 -9999 -9999 -9999 -9999 -9999 -9999 -9999 -9999 -9999 -9999 -9999 -9999 -9999 35.972 37.634 38.753 39.736 39.021 41.639 39.853 37.795 39.856 40.018 39.769 42.767 44.561 46.173 47.174 45.714 45.843 45.955 45.988 47.568 48.72 49.608 50.388 51.373 52.133 52.645 52.93 53.395 54.058 54.643 55.123 55.47 55.5 56.16 56.673 56.885 57.043 57.258 57.53 57.89 58.253 58.675 59.09 59.478 59.895 60.3 60.78 61.238 61.62 62.033 62.403 62.9 63.17 63.523 63.845 64.128 64.545 65.165 65.295 65.395 65.63 65.933 66.205 66.373 66.773 67.02 67.093 67.303 67.585 67.655 67.898 68.11 68.328 68.458 68.703 68.928 69.168 69.418 69.535 69.79 70.008 70.208 70.355 70.495 70.675 70.803 70.94 71.123 71.283 71.35 71.438 71.55 71.558 71.698 71.635 71.82 71.825 71.738 71.83 71.833 71.935 71.73 71.803 72.32 72.098 72.273 72.445 72.33 72.378 72.24 72.255 72.345 72.418 72.445 72.843 72.803 72.84 73.068 73.225 73.46 73.64 73.863 74.245 74.568 74.998 75.155 75.383 75.718 76.073 76.37 76.718 77 77.298 77.593 77.853 78.18 78.433 78.783 79.135 79.403 79.685 79.91 80.13 80.32 80.455 80.648 80.848 81.013 81.23 81.465 81.443 81.57 81.768 81.998 82.035 82.133 82.145 82.235 83.018 82.698 82.715 82.823 82.785 82.935 83.28 83.535 83.47 83.49 83.495 83.563 83.698 83.898 84.095 84.258 84.378 84.483 84.615 84.745 84.873 84.953 85.093 85.22 85.31 85.448 85.613 85.71 85.805 85.963 86.05 86.153 86.26 86.388 86.51 86.573 86.648 86.768 86.873 86.995 87.1 87.213 87.288 87.35 87.445 87.525
37.157 36.975 36.762 36.627 36.792 37.687 38.407 38.535 38.845 39.13 39.35 39.51 39.562 39.565 39.64 39.605 39.55 39.482 39.472 39.47 39.42 39.415 39.4 39.31 39.235 39.11 39.097 39.015 38.96 39.107 39.432 39.575 39.55 39.562 39.547 39.505 39.505 39.537 39.512 39.482 39.455 39.45 39.427 39.385 39.342 39.283 39.225 39.138 39.11 38.98 38.863 38.755 38.64 38.595 38.515 38.403 38.293 38.148 38.04 37.953 37.89 37.805 37.723 37.643 37.655 37.608 37.555 37.528 37.463 37.438 37.365 37.285 37.228 37.185 37.105 37.075 37.01 36.86 37.098 36.68 36.865 37.87 38.303 38.558 39.64 39.473 38.965 38.35 38.13 37.515 36.205 35.845 36.115 35.715 35.71 35.668 36.485 38.243 35.198 34.993 34.993 34.97 34.935 34.965 34.975 34.968 34.945 34.948 34.985 34.99 34.99 34.988 35.01 35.003 35.045 35.085 35.118 35.165 35.208 35.228 35.24 35.253 35.273 35.268 35.305 35.298 35.34 35.375 35.385 35.39 35.395 35.423 35.435 35.465 35.49 35.518 35.538 35.55 35.553 35.538 35.563 35.57 35.613 35.62 35.638 35.658 35.683 35.715 35.683 35.705 35.71 35.673 35.685 35.65 35.62 35.595 35.615 36.388 35.853 35.358 35.325 35.308 35.243 35.253 35.255 35.283 35.268 35.278 35.298 35.303 35.28 35.308 35.31 35.305 35.305 35.3 35.29 35.285 35.27 35.258 35.288 35.318 35.333 35.323 35.333 35.353 35.38 35.378 35.408 35.403 35.388 35.383 35.388 35.405 35.345 34.923 34.663 34.648 34.684 34.696 34.771 34.861 34.97 35.042 35.088 35.126 35.217 35.264 35.325 35.351 35.33 35.311 35.238 34.822 34.337 33.659 32.344 31.957 -9999 -9999 -9999 -9999 -9999 -9999 -9999 -9999 -9999 -9999 -9999 -9999 -9999 -9999 -9999 -9999 -9999 -9999 -9999 -9999 37.034 37.164 36.093 38.904 37.488 38.027 39.477 41.384 40.972 40.01 42.922 43.249 46.546 46.673 46.281 46.455 46.001 46.23 47.034 48.013 49.315 49.575 50.12 50.838 51.693 52.028 52.623 53.418 54.053 54.688 55.188 55.31 55.633 57.033 56.738 56.91 57.098 57.348 57.655 58.003 58.43 58.813 59.258 59.695 60.058 60.508 60.983 61.39 61.82 62.233 62.698 63.028 63.4 63.715 64.1 64.453 65.143 65.153 65.273 65.54 65.855 66.128 66.343 66.545 66.758 66.97 67.22 67.36 67.59 67.835 68.055 68.275 68.368 68.605 68.823 69.058 69.295 69.438 69.698 69.858 70.008 70.223 70.395 70.56 70.648 70.828 70.985 71.113 71.12 71.27 71.285 71.343 71.355 71.443 71.52 71.448 71.355 71.403 71.385 71.313 71.29 71.395 71.623 71.605 71.788 71.965 71.85 71.803 71.785 71.815 71.945 72.063 72.105 72.218 72.293 72.51 72.803 72.983 73.228 73.458 73.7 73.985 74.253 74.653 74.913 75.185 75.488 75.873 76.188 76.52 76.82 77.16 77.425 77.665 77.963 78.235 78.62 78.935 79.133 79.36 79.655 79.828 79.995 80.135 80.425 80.745 80.665 80.92 81.095 81.405 81.22 81.688 81.83 81.765 81.835 81.873 81.913 82.085 82.593 83.198 82.425 82.368 82.563 83.058 83.105 83.155 83.185 83.273 83.378 83.558 83.778 83.973 84.14 84.258 84.375 84.498 84.618 84.703 84.803 84.94 85.06 85.153 85.275 85.428 85.56 85.68 85.77 85.898 86.005 86.138 86.263 86.373 86.448 86.573 86.65 86.763 86.86 86.998 87.098 87.18 87.248 87.333 87.41
38.13 38.175 38.192 38.015 38.12 39.137 39.3 39.35 39.59 39.615 39.637 39.667 39.657 39.647 39.632 39.63 39.642 39.61 39.622 39.607 39.632 39.65 39.692 39.695 39.69 39.675 39.705 39.67 39.71 39.717 39.722 39.7 39.732 39.772 39.765 39.752 39.77 39.79 39.8 39.807 39.787 39.785 39.812 39.825 39.812 39.79 39.805 39.765 39.723 39.748 39.733 39.65 39.605 39.583 39.543 39.465 39.363 39.193 39.058 38.918 38.79 38.68 38.513 38.408 38.358 38.235 38.12 38.018 37.885 37.818 37.715 37.623 37.545 37.48 37.383 37.353 37.215 37.045 36.868 36.723 36.648 36.6 36.513 36.493 36.443 36.468 37.185 38.105 38.098 39.133 39.425 38.905 39.325 38.99 38.353 36.58 37.408 39.128 35.773 35.013 35 34.975 34.96 34.958 34.98 34.973 34.955 34.955 35.01 34.983 34.98 35.005 35.018 35.003 35.045 35.078 35.105 35.173 35.195 35.21 35.245 35.253 35.248 35.28 35.31 35.335 35.343 35.365 35.38 35.383 35.378 35.418 35.438 35.458 35.478 35.493 35.515 35.55 35.56 35.535 35.563 35.565 35.595 35.608 35.633 35.64 35.67 35.685 35.685 35.683 35.675 35.678 35.685 35.663 35.615 35.62 35.65 36.188 36.39 35.3 35.268 35.283 35.255 35.288 35.31 35.31 35.278 35.29 35.308 35.32 35.32 35.325 35.333 35.338 35.305 35.303 35.313 35.295 35.263 35.27 35.273 35.3 35.315 35.3 35.315 35.348 35.363 35.385 35.4 35.413 35.41 35.398 35.405 35.41 35.383 35.355 34.895 34.693 34.612 34.646 34.685 34.754 34.847 34.972 35.066 35.106 35.147 35.193 35.284 35.301 35.306 35.339 35.359 35.317 34.88 34.153 33.501 32.611 31.894 -9999 -9999 -9999 -9999 -9999 -9999 -9999 -9999 -9999 -9999 -9999 -9999 -9999 -9999 -9999 -9999 -9999 -9999 -9999 -9999 34.574 35.275 35.977 36.77 36.64 35.751 38.327 40.833 42.148 45.458 46.404 47.858 46.959 46.373 46.046 45.584 45.811 46.95 47.136 47.84 48.55 48.735 49.618 50.503 51.423 52.613 53.193 54.225 54.063 54.698 55.185 55.338 55.92 56.553 56.705 56.943 57.21 57.425 57.763 58.16 58.565 58.988 59.41 59.795 60.273 60.72 61.208 61.648 62.085 62.5 62.968 63.283 63.603 64.24 64.373 65.035 64.993 65.255 65.518 65.775 66.025 66.278 66.633 66.673 66.965 67.64 67.368 67.573 67.75 67.978 68.203 68.308 68.588 68.738 68.928 69.19 69.323 69.538 69.76 69.943 70.108 70.238 70.4 70.525 70.713 70.815 70.91 70.988 71.138 71.113 71.1 71.12 71.168 71.185 71.053 70.985 71.01 70.933 70.838 70.865 70.988 71.44 71.173 71.315 71.388 71.355 71.358 71.37 71.45 71.583 71.653 71.745 71.928 72.053 72.213 72.52 72.868 73.158 73.403 73.698 73.958 74.105 74.408 74.765 75.09 75.33 75.743 76.03 76.363 76.67 76.995 77.243 77.453 77.758 78.06 78.45 78.75 78.923 79.223 79.545 79.578 79.713 79.818 80.01 80.188 80.353 80.493 80.65 80.788 80.923 81.145 81.218 81.645 81.553 81.55 81.963 82.65 82.018 82.83 82.11 81.968 82.433 82.87 82.858 82.873 82.955 83.025 83.168 83.388 83.63 83.798 83.95 84.085 84.24 84.333 84.468 84.568 84.663 84.755 84.88 85.043 85.123 85.258 85.393 85.52 85.663 85.773 85.868 85.998 86.115 86.233 86.358 86.438 86.538 86.635 86.753 86.883 87.003 87.07 87.153 87.23 87.328
39.245 39.34 39.275 39.29 39.33 39.55 39.6 39.58 39.615 39.602 39.615 39.62 39.627 39.597 39.585 39.607 39.582 39.595 39.602 39.595 39.597 39.627 39.635 39.657 39.677 39.657 39.662 39.695 39.727 39.735 39.757 39.732 39.767 39.8 39.817 39.81 39.832 39.837 39.83 39.83 39.842 39.862 39.875 39.88 39.885 39.89 39.863 39.875 39.87 39.895 39.86 39.855 39.853 39.855 39.845 39.865 39.863 39.838 39.805 39.735 39.7 39.615 39.538 39.41 39.358 39.263 39.118 38.945 38.76 38.593 38.43 38.263 38.145 37.973 37.833 37.74 37.615 37.45 37.215 36.97 36.808 36.72 36.68 36.64 36.615 36.608 36.558 36.55 36.51 36.418 36.753 36.648 37.655 37.925 38.195 39.47 39.285 38.15 35.61 35.043 35.015 34.965 34.965 34.958 34.973 34.975 34.95 34.953 34.998 35.013 34.995 35.003 35.003 35.033 35.05 35.07 35.088 35.145 35.155 35.205 35.228 35.253 35.26 35.293 35.315 35.323 35.34 35.345 35.355 35.383 35.388 35.408 35.42 35.448 35.468 35.47 35.495 35.53 35.523 35.53 35.565 35.595 35.583 35.618 35.613 35.605 35.628 35.675 35.65 35.668 35.688 35.68 35.683 35.688 35.648 35.618 35.623 35.793 36.14 35.308 35.273 35.288 35.298 35.303 35.31 35.3 35.3 35.308 35.285 35.31 35.29 35.305 35.313 35.325 35.315 35.308 35.32 35.308 35.303 35.275 35.298 35.315 35.313 35.313 35.328 35.353 35.375 35.393 35.398 35.415 35.42 35.403 35.385 35.388 35.375 35.355 35.318 34.933 34.715 34.607 34.665 34.679 34.72 34.882 35.011 35.096 35.122 35.148 35.211 35.261 35.294 35.365 35.402 35.424 35.255 34.805 34.227 33.494 32.701 31.756 -9999 -9999 -9999 -9999 -9999 -9999 -9999 -9999 -9999 -9999 -9999 -9999 -9999 -9999 -9999 -9999 -9999 -9999 -9999 -9999 34.447 34.81 35.157 35.179 36.284 38.68 40.361 41.423 43.505 45.06 46.947 45.847 46.015 44.87 44.906 45.448 45.962 46.601 53.438 50.488 47.533 48.148 48.99 50.565 52.97 57.785 58.578 54.415 54.265 54.91 55.12 55.55 56.275 56.643 56.738 57.048 57.23 57.515 57.848 58.255 58.703 59.103 59.553 60.028 60.518 61.003 61.523 61.905 62.418 63.71 63.243 63.495 63.97 64.28 64.983 64.843 65.05 65.38 65.665 65.95 66.173 66.368 66.595 66.833 67.145 67.253 67.475 67.69 67.915 68.133 68.213 68.523 68.705 68.923 69.178 69.268 69.483 69.668 69.825 70.005 70.155 70.273 70.435 70.58 70.698 70.798 70.848 70.955 70.893 70.885 70.92 70.855 70.863 70.69 70.903 70.825 70.523 70.405 70.478 70.573 70.75 70.803 70.878 70.973 71.023 71.013 71.08 71.083 71.308 71.335 71.583 71.8 71.775 72.033 72.38 72.84 73.245 73.468 73.563 73.928 74.018 74.34 75.045 75.103 75.235 75.63 75.898 76.24 76.57 76.83 77.12 77.31 77.565 77.875 78.203 78.5 78.695 79.968 79.183 79.223 79.388 79.51 79.653 79.81 80.008 80.115 80.313 80.418 80.613 80.735 80.853 81.033 81.113 81.258 81.41 81.405 81.723 81.725 81.67 81.763 82.373 82.59 82.665 82.628 82.75 82.793 82.98 83.268 83.495 83.695 83.843 83.96 84.088 84.18 84.258 84.373 84.498 84.55 84.693 84.84 84.975 85.075 85.248 85.353 85.465 85.61 85.738 85.86 85.963 86.105 86.185 86.293 86.418 86.505 86.648 86.775 86.883 87.005 87.045 87.143 87.215
39.507 39.582 39.545 39.562 39.575 39.56 39.565 39.585 39.587 39.602 39.627 39.627 39.64 39.625 39.605 39.622 39.607 39.62 39.63 39.625 39.632 39.637 39.645 39.662 39.685 39.687 39.685 39.715 39.722 39.71 39.727 39.727 39.767 39.812 39.827 39.827 39.842 39.84 39.837 39.832 39.835 39.852 39.865 39.88 39.875 39.88 39.878 39.865 39.88 39.888 39.893 39.88 39.848 39.815 39.808 39.825 39.843 39.855 39.865 39.863 39.848 39.873 39.888 39.858 39.82 39.853 39.783 39.755 39.638 39.545 39.46 39.305 39.113 38.963 38.813 38.603 38.458 38.248 38.06 37.775 37.535 37.365 37.22 37.125 37.055 36.93 36.828 36.788 36.71 36.628 36.473 36.398 36.258 36.213 36.185 36.27 36.265 35.97 35.44 35.068 35.01 35 34.973 34.98 34.988 34.99 34.96 34.983 35 35.018 35.015 35.008 35.005 35.033 35.045 35.088 35.115 35.145 35.188 35.225 35.243 35.255 35.273 35.318 35.323 35.335 35.328 35.358 35.365 35.363 35.385 35.41 35.433 35.438 35.475 35.49 35.5 35.525 35.528 35.533 35.558 35.575 35.595 35.613 35.613 35.635 35.613 35.655 35.645 35.665 35.685 35.668 35.675 35.658 35.645 35.625 35.63 36.24 36.21 35.275 35.283 35.29 35.293 35.33 35.343 35.315 35.335 35.303 35.305 35.313 35.32 35.313 35.338 35.333 35.33 35.333 35.325 35.3 35.31 35.315 35.323 35.318 35.333 35.325 35.325 35.35 35.345 35.38 35.395 35.443 35.423 35.428 35.398 35.385 35.368 35.368 35.378 35.205 34.868 34.63 34.651 34.635 34.676 34.753 34.871 35.035 35.101 35.122 35.158 35.2 35.236 35.33 35.412 35.411 35.396 35.28 34.942 34.24 33.737 33.007 32.089 31.573 -9999 -9999 -9999 -9999 -9999 -9999 -9999 -9999 -9999 -9999 -9999 -9999 -9999 -9999 -9999 -9999 -9999 -9999 -9999 34.594 35.098 35.253 35.207 35.469 35.968 37.281 40.394 44.593 46.547 43.483 42.691 42.041 42.401 46.232 46.657 45.422 45.673 45.91 46.443 47.24 48.07 49.148 50.82 51.695 53.548 53.278 53.868 54.533 54.918 55.155 55.82 56.34 56.558 56.758 57.04 57.253 57.558 57.948 58.41 58.838 59.343 59.853 60.323 60.843 61.333 61.778 62.245 62.905 63.085 63.37 63.933 64.6 64.933 64.785 64.97 65.26 65.553 65.928 66.028 66.295 66.608 66.735 67.085 67.165 67.415 67.613 67.808 68.06 68.153 68.443 68.603 68.845 69.083 69.223 69.428 69.61 69.743 69.898 70.028 70.173 70.365 70.485 70.613 70.663 70.725 70.808 70.695 70.708 70.708 70.608 70.53 70.703 72.613 71.868 71.213 70.015 70.06 70.17 70.315 70.375 70.493 70.783 70.858 70.97 71.128 70.863 70.945 71.033 71.21 71.388 71.523 71.753 72.07 72.338 72.83 73.693 73.273 73.8 74.035 74.273 74.52 74.973 75.1 75.503 75.793 76.033 76.333 76.753 77.085 77.175 77.41 77.69 78.07 78.215 78.463 80.015 80.293 78.95 79.108 79.183 79.33 79.475 79.698 79.815 80.195 80.275 80.248 80.373 80.468 80.655 80.745 80.875 80.965 81.048 81.308 81.368 81.465 81.563 82.188 82.36 82.395 82.365 82.555 82.608 82.82 83.095 83.295 83.485 83.65 83.773 83.885 83.97 84.03 84.175 84.283 84.395 84.54 84.675 84.78 84.933 85.058 85.2 85.328 85.46 85.58 85.725 85.835 85.965 86.06 86.168 86.29 86.393 86.528 86.648 86.785 86.863 86.943 87.03 87.123
39.517 39.542 39.557 39.557 39.585 39.567 39.582 39.582 39.602 39.637 39.625 39.652 39.635 39.605 39.625 39.632 39.642 39.62 39.665 39.662 39.662 39.622 39.64 39.645 39.64 39.68 39.695 39.707 39.707 39.69 39.707 39.735 39.785 39.802 39.817 39.822 39.832 39.82 39.815 39.807 39.835 39.83 39.83 39.855 39.857 39.878 39.875 39.88 39.883 39.89 39.91 39.928 39.87 39.845 39.843 39.853 39.865 39.853 39.853 39.855 39.883 39.893 39.9 39.903 39.903 39.905 39.908 39.88 39.883 39.875 39.893 39.895 39.833 39.795 39.733 39.6 39.465 39.305 39.033 38.828 38.648 38.465 38.29 38.13 37.963 37.805 37.58 37.415 37.288 37.13 36.993 36.77 36.57 36.363 36.288 36.23 36.148 36.07 35.423 35.085 35.023 35 34.998 35.015 35.028 34.98 34.965 34.96 34.98 34.988 34.995 35.008 35 35.028 35.04 35.085 35.11 35.133 35.18 35.235 35.235 35.258 35.27 35.313 35.335 35.318 35.348 35.36 35.383 35.37 35.393 35.418 35.445 35.445 35.47 35.475 35.498 35.508 35.525 35.543 35.553 35.56 35.58 35.563 35.595 35.623 35.635 35.643 35.613 35.633 35.643 35.663 35.665 35.663 35.648 35.655 35.69 36.138 36.808 35.323 35.293 35.308 35.32 35.345 35.313 35.345 35.328 35.33 35.333 35.33 35.338 35.345 35.37 35.345 35.345 35.365 35.358 35.363 35.36 35.35 35.343 35.348 35.353 35.34 35.34 35.355 35.355 35.378 35.388 35.43 35.428 35.428 35.413 35.403 35.388 35.405 35.405 35.308 34.848 34.755 34.608 34.657 34.64 34.666 34.772 34.925 35.024 35.073 35.076 35.079 35.136 35.249 35.335 35.369 35.354 35.349 35.263 34.878 34.498 34.241 32.946 31.882 31.554 -9999 -9999 -9999 -9999 -9999 -9999 -9999 -9999 -9999 -9999 -9999 -9999 -9999 -9999 -9999 -9999 -9999 -9999 35.322 35.253 36.569 37.538 35.722 36.435 37.31 36.052 38.815 40.803 40.585 41.565 41.625 43.028 48.211 46.58 45.15 45.437 44.96 46.015 46.975 47.873 48.783 50.003 51.295 52.388 53.03 53.7 54.263 54.788 54.87 55.23 55.793 56.305 56.495 56.783 57.06 57.345 57.713 58.15 58.593 59.153 59.743 60.225 60.728 61.258 61.715 62.13 62.748 63.003 63.318 63.733 64.223 64.905 64.763 64.898 65.153 65.463 65.738 65.903 66.173 66.7 66.805 66.95 67.173 67.36 67.545 67.773 67.98 68.083 68.363 68.563 68.79 68.96 69.14 69.37 69.54 69.68 69.798 69.94 70.065 70.28 70.435 70.508 70.55 70.533 70.58 70.5 70.555 70.468 70.468 70.245 70.445 71.895 71.783 71.428 69.803 69.703 69.79 69.915 69.988 70.108 70.223 70.303 70.6 70.495 70.485 70.628 70.78 70.905 71.19 71.528 71.608 71.8 72.21 72.463 72.808 73.083 73.513 73.958 74.22 74.503 75.698 77.71 75.318 75.655 75.935 76.205 76.585 77.153 77.163 77.21 77.463 77.845 77.975 78.278 78.385 78.515 78.628 78.82 78.92 79.098 79.205 79.345 79.773 79.88 79.71 79.82 79.983 80.168 80.325 80.673 80.525 80.598 80.858 81.055 81.108 81.253 81.43 82.048 82.125 82.11 82.168 82.258 82.358 82.638 82.9 83.128 83.303 83.45 83.573 83.67 83.763 83.865 83.953 84.098 84.203 84.33 84.468 84.598 84.77 84.88 85.023 85.148 85.29 85.433 85.583 85.693 85.83 85.915 86.03 86.15 86.255 86.418 86.548 86.645 86.75 86.818 86.895 86.99
39.527 39.545 39.57 39.577 39.57 39.582 39.602 39.597 39.607 39.63 39.617 39.602 39.59 39.612 39.642 39.635 39.647 39.652 39.645 39.652 39.645 39.63 39.642 39.657 39.66 39.677 39.722 39.712 39.712 39.687 39.725 39.742 39.767 39.772 39.79 39.8 39.817 39.832 39.817 39.797 39.812 39.822 39.827 39.83 39.847 39.87 39.878 39.875 39.87 39.913 39.915 39.938 39.89 39.873 39.88 39.885 39.893 39.863 39.883 39.888 39.92 39.918 39.903 39.91 39.938 39.938 39.938 39.95 39.928 39.933 39.935 39.92 39.923 39.875 39.885 39.87 39.838 39.805 39.73 39.668 39.62 39.503 39.293 39.153 39.03 38.898 38.675 38.488 38.333 38.153 38.003 37.763 37.33 36.783 36.473 36.39 36.358 37.088 35.585 35.148 35.04 35.013 35.018 35.02 35 34.983 34.935 34.965 34.965 34.96 34.98 34.985 35.01 35.035 35.075 35.09 35.113 35.128 35.163 35.235 35.223 35.228 35.25 35.298 35.335 35.328 35.343 35.333 35.355 35.375 35.388 35.408 35.443 35.458 35.445 35.455 35.495 35.495 35.503 35.523 35.55 35.555 35.575 35.583 35.593 35.613 35.648 35.63 35.625 35.62 35.64 35.668 35.673 35.67 35.643 35.67 35.678 36.085 35.533 35.348 35.298 35.333 35.343 35.353 35.338 35.343 35.355 35.363 35.34 35.343 35.368 35.375 35.378 35.38 35.373 35.388 35.375 35.378 35.375 35.365 35.358 35.37 35.355 35.368 35.355 35.348 35.363 35.363 35.365 35.395 35.398 35.395 35.385 35.403 35.403 35.405 35.41 35.353 35.065 34.758 34.738 34.643 34.634 34.657 34.689 34.821 34.89 34.975 34.992 34.991 35.053 35.186 35.262 35.294 35.319 35.33 35.329 35.266 35.219 34.88 34.137 32.908 31.864 -9999 -9999 -9999 -9999 -9999 -9999 -9999 -9999 -9999 -9999 -9999 -9999 -9999 -9999 -9999 -9999 -9999 -9999 38.208 37.447 35.826 36.025 35.496 35.22 35.951 36.169 41.5 38.648 37.367 41.167 40.585 41.354 45.664 47.777 44.929 44.92 44.756 45.778 46.685 48.05 48.758 50.81 51.61 52.243 52.978 53.63 56.5 55.233 54.77 54.815 55.38 56.02 56.368 56.515 56.853 57.125 57.51 57.948 58.445 58.983 59.503 60.03 60.58 61.198 61.653 62.11 62.543 62.883 63.258 63.653 64.023 64.82 64.675 64.825 65.08 65.403 65.638 65.873 66.165 66.655 66.688 66.91 67.013 67.303 67.438 67.668 67.91 68.005 68.285 68.445 68.678 68.92 69.058 69.255 69.43 69.563 69.69 69.858 70.013 70.175 70.303 70.333 70.398 70.348 70.403 70.41 70.35 70.205 69.975 69.903 70.175 70.683 70.44 71.16 69.193 69.328 69.388 69.508 69.533 69.665 69.785 69.948 69.908 70.013 70.173 70.355 70.515 70.688 71.073 71.363 71.435 71.655 72.013 72.345 72.748 72.958 73.405 73.913 74.168 74.61 74.633 75.99 75.26 75.933 75.863 76.093 76.475 76.54 76.76 77 77.238 77.515 77.693 77.928 78.083 78.333 78.518 78.483 78.65 78.84 78.913 79.715 79.223 79.433 79.408 79.705 79.743 79.888 79.988 80.12 80.168 80.303 80.558 80.778 80.823 80.893 81.29 81.78 81.92 81.855 81.96 82.028 82.155 82.448 82.69 82.895 83.04 83.188 83.353 83.47 83.505 83.668 83.758 83.893 84.023 84.158 84.28 84.425 84.56 84.703 84.853 84.97 85.103 85.255 85.4 85.518 85.635 85.743 85.883 85.99 86.145 86.29 86.388 86.498 86.613 86.688 86.783 86.873
39.507 39.527 39.535 39.575 39.595 39.615 39.605 39.62 39.61 39.63 39.64 39.627 39.632 39.64 39.667 39.665 39.667 39.67 39.65 39.652 39.647 39.675 39.67 39.697 39.69 39.705 39.722 39.725 39.71 39.715 39.745 39.755 39.747 39.765 39.765 39.78 39.802 39.81 39.825 39.797 39.8 39.817 39.81 39.807 39.835 39.833 39.84 39.868 39.87 39.89 39.933 39.938 39.918 39.915 39.92 39.923 39.918 39.923 39.923 39.933 39.933 39.93 39.913 39.95 39.953 39.978 39.978 39.983 39.988 39.978 39.993 39.968 39.933 39.948 39.94 39.923 39.9 39.865 39.85 39.813 39.8 39.805 39.805 39.768 39.73 39.7 39.608 39.493 39.348 39.18 39.023 38.778 38.25 37.403 36.758 36.57 36.558 36.64 35.713 35.215 35.055 35.025 35.003 35.013 35.02 35.005 34.955 34.973 34.953 34.958 34.975 34.955 34.985 35.038 35.09 35.11 35.103 35.12 35.17 35.19 35.225 35.25 35.273 35.315 35.33 35.323 35.31 35.323 35.333 35.358 35.363 35.4 35.43 35.438 35.423 35.438 35.468 35.47 35.505 35.508 35.55 35.538 35.575 35.583 35.6 35.608 35.645 35.648 35.655 35.62 35.638 35.673 35.693 35.69 35.678 35.67 35.693 36.078 35.423 35.355 35.333 35.363 35.363 35.373 35.375 35.37 35.378 35.365 35.368 35.373 35.373 35.375 35.388 35.39 35.39 35.388 35.413 35.403 35.405 35.4 35.375 35.398 35.378 35.375 35.358 35.36 35.37 35.373 35.398 35.425 35.395 35.41 35.415 35.4 35.415 35.405 35.395 35.34 35.143 34.855 34.653 35.278 35.15 34.644 34.616 34.675 34.809 34.852 34.875 34.898 34.991 35.106 35.19 35.221 35.237 35.249 35.273 35.395 35.277 35.161 34.829 34.082 32.883 31.814 -9999 -9999 -9999 -9999 -9999 -9999 -9999 -9999 -9999 -9999 -9999 -9999 -9999 -9999 -9999 -9999 -9999 40.433 41.492 41.303 37.107 37.125 35.108 35.253 36.566 36.219 36.138 38.099 40.904 39.979 40.487 41.076 43.178 43.168 45.381 43.943 44.914 45.885 47.068 48.245 49.785 50.743 51.693 52.783 53.588 58.438 56.873 56.825 54.54 54.725 55.428 56.063 56.305 56.67 56.973 57.335 57.778 58.298 58.863 59.375 59.903 60.45 61.01 61.528 62.02 62.468 62.823 63.173 63.553 64.008 64.76 64.585 64.888 65.028 65.323 65.583 65.765 66.015 66.283 66.525 66.81 66.988 67.285 67.39 67.615 67.828 67.985 68.238 68.363 68.635 68.855 69.005 69.17 69.35 69.473 69.613 69.813 69.99 70.088 70.2 70.283 70.263 70.29 70.365 70.283 70.163 69.85 69.628 69.473 69.503 69.195 69.233 68.928 68.905 68.883 68.963 69.108 69.13 69.285 69.333 69.448 69.548 69.623 69.863 70.153 70.333 70.53 70.85 71.07 71.225 71.51 71.86 72.215 72.573 72.828 73.325 73.713 74.013 74.433 74.733 75.488 75.255 75.795 75.715 75.963 76.585 76.33 76.57 76.765 77.035 77.24 77.458 77.67 77.835 77.995 78.115 78.158 78.273 78.433 78.6 78.705 78.815 78.975 79.115 79.598 79.44 79.65 79.605 79.705 79.848 79.948 80.16 80.43 80.565 80.64 81 81.508 81.633 81.615 81.718 81.74 81.998 82.278 82.508 82.658 82.86 83 83.115 83.24 83.29 83.418 83.565 83.683 83.815 83.97 84.083 84.24 84.383 84.505 84.63 84.795 84.93 85.055 85.233 85.363 85.458 85.595 85.73 85.86 85.968 86.125 86.238 86.343 86.445 86.523 86.64 86.685
39.54 39.54 39.557 39.58 39.6 39.63 39.622 39.647 39.635 39.66 39.632 39.63 39.65 39.682 39.672 39.715 39.687 39.662 39.662 39.672 39.652 39.675 39.67 39.692 39.7 39.725 39.71 39.727 39.725 39.725 39.732 39.765 39.765 39.785 39.8 39.802 39.81 39.822 39.822 39.802 39.802 39.82 39.807 39.817 39.825 39.838 39.815 39.845 39.883 39.89 39.938 39.965 39.94 39.935 39.933 39.945 39.96 39.948 39.935 39.963 39.953 39.975 39.958 39.97 39.973 40 40.028 40.005 40.008 40.015 40.005 40.015 39.993 40.003 39.98 39.97 39.965 39.943 39.908 39.9 39.848 39.843 39.845 39.853 39.855 39.87 39.888 39.883 39.873 39.838 39.76 39.56 38.88 37.825 37.008 36.785 36.778 37.54 36.158 35.268 35.06 35.023 35.028 35 35.018 35.01 34.995 34.998 34.965 34.958 34.978 34.968 34.998 35.055 35.08 35.1 35.113 35.123 35.163 35.178 35.208 35.25 35.293 35.323 35.343 35.31 35.315 35.308 35.32 35.343 35.36 35.408 35.433 35.433 35.43 35.433 35.45 35.47 35.503 35.52 35.555 35.528 35.56 35.603 35.605 35.61 35.638 35.663 35.65 35.648 35.658 35.675 35.678 35.685 35.658 35.68 35.785 36.648 35.408 35.37 35.375 35.398 35.385 35.388 35.385 35.403 35.395 35.395 35.393 35.403 35.385 35.413 35.43 35.423 35.413 35.395 35.43 35.443 35.41 35.435 35.428 35.433 35.42 35.425 35.415 35.398 35.383 35.405 35.425 35.44 35.415 35.438 35.433 35.453 35.425 35.435 35.42 35.328 35.203 34.99 34.785 34.995 35.073 34.975 34.644 34.601 34.706 34.74 34.745 34.803 34.914 35.017 35.125 35.146 35.179 35.2 35.241 35.288 35.237 35.234 35.158 34.935 34.225 32.966 32.117 -9999 -9999 -9999 -9999 -9999 -9999 -9999 -9999 -9999 -9999 -9999 -9999 -9999 -9999 -9999 -9999 40.829 41.484 43.055 42.146 40.025 37.521 35.116 35.226 35.305 35.671 41.893 40.058 39.796 40.041 42.516 42.652 42.966 44.388 44.932 44.575 45.473 46.723 47.558 48.733 50.5 51.44 52.073 52.803 53.503 53.935 54.243 54.368 54.353 54.775 55.668 56.088 56.493 56.785 57.18 57.635 58.61 58.908 59.208 59.748 60.338 60.915 61.433 61.913 62.403 62.725 63.13 63.465 63.95 64.695 64.638 65.113 64.993 65.23 65.54 65.708 65.973 66.228 66.46 66.748 66.9 67.29 67.303 67.55 67.75 67.883 68.14 68.353 68.595 68.775 68.943 69.15 69.263 69.408 69.573 69.758 69.885 70.013 70.095 70.18 70.12 70.198 70.263 70.14 69.855 69.488 69.228 69.04 69.018 68.87 68.585 68.443 68.445 68.485 68.58 68.693 68.733 68.893 68.933 69.123 69.218 69.36 69.705 69.9 70.035 70.42 70.603 70.878 71.03 71.408 71.713 72.085 72.48 72.738 73.18 73.558 73.763 74.15 74.515 75.85 76.428 76.13 75.598 75.703 75.873 76.075 76.365 76.535 76.793 77.033 77.248 77.395 77.5 77.705 77.988 77.898 77.968 78.023 78.153 78.318 78.403 78.563 78.663 78.785 78.955 79.093 79.295 79.428 79.54 79.625 81.073 82.655 80.203 81.085 80.79 81.305 81.343 81.358 81.45 81.478 81.768 82.05 82.253 82.433 82.618 82.765 82.888 82.988 83.065 83.238 83.34 83.455 83.583 83.758 83.905 84.053 84.208 84.323 84.453 84.593 84.753 84.888 85.04 85.175 85.27 85.415 85.548 85.675 85.798 85.923 86.068 86.183 86.29 86.38 86.463 86.52
39.552 39.557 39.585 39.657 39.6 39.632 39.675 39.627 39.645 39.672 39.652 39.657 39.647 39.665 39.672 39.662 39.667 39.66 39.645 39.662 39.65 39.64 39.692 39.71 39.687 39.705 39.735 39.717 39.737 39.735 39.745 39.777 39.792 39.797 39.802 39.812 39.827 39.827 39.855 39.817 39.827 39.822 39.827 39.832 39.827 39.84 39.848 39.87 39.88 39.908 39.935 39.945 39.943 39.95 39.935 39.95 39.968 39.963 39.95 39.96 39.973 39.985 39.99 39.973 39.995 40.005 40.025 40.033 40.03 40.033 40.028 40.038 40.048 40.048 40.033 40.053 40.03 39.985 39.95 39.925 39.933 39.93 39.933 39.908 39.905 39.93 39.94 39.945 39.93 39.923 39.908 39.84 39.248 38.163 37.3 37.008 36.998 38.238 36.315 35.363 35.12 35.06 35.03 35.015 35.018 35.025 35.02 34.988 34.985 34.97 34.963 34.978 35.005 35.048 35.08 35.085 35.108 35.123 35.17 35.178 35.208 35.238 35.318 35.32 35.323 35.328 35.313 35.318 35.335 35.345 35.375 35.39 35.42 35.403 35.415 35.433 35.415 35.465 35.493 35.488 35.513 35.53 35.553 35.585 35.603 35.62 35.625 35.643 35.643 35.668 35.69 35.685 35.673 35.7 35.685 35.7 36.008 37.353 35.438 35.35 35.4 35.413 35.415 35.425 35.42 35.413 35.4 35.42 35.41 35.425 35.405 35.435 35.448 35.435 35.443 35.455 35.458 35.46 35.428 35.455 35.453 35.455 35.45 35.448 35.438 35.448 35.438 35.475 35.475 35.458 35.445 35.455 35.473 35.443 35.433 35.46 35.448 35.355 35.26 35.153 34.963 34.828 35.48 35.515 34.658 34.617 34.636 34.636 34.659 34.757 34.862 34.945 35.061 35.089 35.125 35.173 35.569 35.41 35.25 35.233 35.241 35.128 34.802 33.907 32.435 31.627 -9999 -9999 -9999 -9999 -9999 -9999 -9999 -9999 -9999 -9999 -9999 -9999 -9999 -9999 -9999 40.413 42.369 43.332 43.198 38.446 34.324 34.886 35.164 35.794 42.063 43.383 37.613 38.892 40.841 43.187 43.723 43.499 44.162 44.04 44.496 48.003 46.32 46.93 47.963 49.573 50.58 51.313 52.285 53.065 53.435 53.765 54.058 54.24 54.19 54.985 56.11 56.358 56.66 57.06 57.513 58.04 58.575 59.103 59.685 60.25 60.818 61.38 61.875 62.34 62.69 63.113 63.505 63.835 64.828 64.75 64.96 65.008 65.195 65.435 65.643 65.925 66.18 66.41 66.72 66.883 67.253 67.238 67.488 67.69 67.813 68.098 68.318 68.54 68.725 68.903 69.085 69.21 69.285 69.485 69.975 69.85 69.915 70.013 70.113 70.073 70.06 70.03 70.513 69.523 69.073 68.843 68.598 68.653 68.503 68.168 67.938 67.978 68.065 68.18 68.283 68.35 68.49 68.56 68.785 68.85 69.098 69.383 69.63 69.838 70.11 70.345 70.645 70.845 71.238 71.61 71.968 72.343 72.613 73.05 73.425 73.663 73.99 74.418 74.785 75.743 75.538 75.34 75.505 75.673 75.823 76.118 76.293 76.563 76.928 76.985 77.088 77.263 77.393 77.543 77.573 77.698 77.765 77.81 77.965 78.033 78.175 78.233 78.368 78.678 78.895 79.07 79.135 79.298 79.438 79.915 83.57 80.195 81.513 80.553 81.035 81.023 81.068 81.21 81.25 81.53 81.8 82.018 82.17 82.368 82.543 82.685 82.785 82.893 83.043 83.148 83.268 83.403 83.538 83.693 83.865 84.003 84.133 84.285 84.43 84.573 84.705 84.88 84.983 85.085 85.235 85.348 85.475 85.633 85.748 85.883 86.025 86.138 86.24 86.3 86.34
39.555 39.552 39.595 39.585 39.61 39.607 39.667 39.632 39.67 39.645 39.647 39.66 39.675 39.677 39.65 39.685 39.7 39.677 39.695 39.692 39.67 39.66 39.685 39.685 39.695 39.707 39.745 39.737 39.742 39.745 39.737 39.79 39.797 39.812 39.81 39.832 39.842 39.855 39.827 39.83 39.837 39.852 39.862 39.875 39.852 39.865 39.895 39.89 39.88 39.885 39.905 39.928 39.92 39.933 39.96 39.963 39.95 39.965 39.958 39.968 39.968 39.99 39.983 39.99 39.983 40.03 40.045 40.035 40.058 40.055 40.073 40.06 40.05 40.055 40.063 40.058 40.058 40.05 40.015 40.02 40.015 40.003 40.013 39.998 39.975 39.985 39.985 39.963 39.97 39.935 39.923 39.903 39.385 38.308 37.523 37.265 37.165 37.065 36.098 35.478 35.135 35.095 35.063 35.07 35.063 35.055 35.04 35.025 35.013 34.988 34.963 34.978 35.008 35.03 35.09 35.095 35.108 35.13 35.155 35.18 35.198 35.253 35.288 35.318 35.32 35.325 35.3 35.32 35.35 35.35 35.385 35.395 35.433 35.39 35.378 35.413 35.415 35.425 35.465 35.478 35.498 35.513 35.56 35.588 35.598 35.615 35.628 35.663 35.658 35.673 35.668 35.668 35.693 35.703 35.708 35.73 35.838 36.385 35.453 35.383 35.408 35.418 35.415 35.443 35.435 35.435 35.418 35.413 35.435 35.41 35.42 35.438 35.45 35.463 35.465 35.48 35.455 35.488 35.475 35.475 35.443 35.453 35.455 35.458 35.478 35.473 35.47 35.485 35.503 35.498 35.488 35.495 35.498 35.503 35.475 35.475 35.47 35.403 35.335 35.285 35.108 34.813 34.808 35.068 34.81 34.605 34.589 34.569 34.607 34.706 34.796 34.883 34.947 34.993 35.044 35.102 35.327 35.164 35.179 35.231 35.221 35.203 35.071 34.538 33.554 32.13 -9999 -9999 -9999 -9999 -9999 -9999 -9999 -9999 -9999 -9999 -9999 -9999 -9999 -9999 -9999 38.483 39.112 41.455 43.157 41.56 35.761 34.628 36.81 42.258 42.662 44.338 41.948 38.743 39.104 42.754 43.134 43.573 45.493 44.617 44.406 44.332 45.213 46.355 47.518 48.54 50.74 51.288 51.873 52.52 53.253 53.193 53.575 54.01 54.013 54.925 55.995 56.305 56.588 56.978 57.415 57.903 58.405 59.038 59.63 60.233 60.808 61.35 61.915 62.358 62.695 63.093 64 63.953 64.863 64.715 65.218 65.01 65.153 65.49 65.585 65.828 66.053 66.338 66.683 66.763 67.028 67.123 67.385 67.578 67.778 68.013 68.265 68.483 68.638 68.793 68.968 69.128 69.225 69.438 70.158 69.735 70.903 70.46 70.003 69.945 69.973 69.838 70.103 69.56 68.658 68.433 68.175 68.098 67.948 67.688 67.52 67.605 67.66 67.78 67.88 67.99 68.108 68.31 68.395 68.518 68.835 69.11 69.345 69.663 69.943 70.205 70.398 70.658 71.095 71.47 71.823 72.178 72.518 72.948 73.295 73.593 73.92 74.25 74.573 74.763 74.96 75.12 75.463 75.78 75.685 75.878 76.073 76.353 76.493 76.73 77.548 77.048 77.063 77.133 77.173 77.325 77.365 77.463 77.543 78.008 78.018 77.83 78.013 78.283 78.493 78.663 78.73 78.955 79.165 80.668 80.063 79.548 79.795 80.348 80.698 80.783 80.783 80.853 81.005 81.29 81.583 81.76 81.948 82.135 82.3 82.433 82.553 82.655 82.795 82.915 83.023 83.168 83.333 83.485 83.66 83.818 83.948 84.083 84.228 84.38 84.495 84.653 84.795 84.88 85.02 85.158 85.288 85.46 85.588 85.713 85.865 85.99 86.048 86.135 86.175
39.542 39.567 39.6 39.61 39.63 39.617 39.632 39.627 39.657 39.632 39.687 39.665 39.66 39.67 39.675 39.685 39.69 39.697 39.71 39.69 39.675 39.68 39.677 39.695 39.695 39.727 39.727 39.757 39.737 39.755 39.767 39.815 39.822 39.85 39.845 39.84 39.837 39.85 39.842 39.855 39.855 39.87 39.867 39.892 39.86 39.855 39.888 39.893 39.885 39.913 39.92 39.93 39.92 39.93 39.955 39.955 39.958 39.955 39.968 39.958 39.983 40.01 39.993 40.003 40.003 40.015 40.06 40.07 40.095 40.108 40.11 40.108 40.085 40.095 40.088 40.08 40.068 40.078 40.058 40.068 40.075 40.073 40.073 40.063 40.045 40.03 40 40.008 39.993 39.975 39.96 39.935 39.495 38.463 37.74 37.543 37.595 37.833 36.21 35.61 35.18 35.105 35.095 35.1 35.105 35.113 35.085 35.058 35.028 35.015 35.008 35.005 34.998 35.043 35.085 35.1 35.115 35.148 35.158 35.168 35.208 35.275 35.34 35.318 35.305 35.313 35.333 35.338 35.328 35.345 35.378 35.39 35.403 35.385 35.388 35.393 35.395 35.42 35.46 35.483 35.508 35.513 35.575 35.575 35.593 35.62 35.618 35.65 35.66 35.678 35.698 35.69 35.678 35.7 35.69 35.713 35.908 36.138 35.443 35.398 35.423 35.43 35.425 35.443 35.44 35.445 35.428 35.413 35.39 35.388 35.42 35.438 35.44 35.448 35.47 35.465 35.473 35.48 35.458 35.438 35.435 35.45 35.46 35.468 35.483 35.488 35.47 35.475 35.463 35.488 35.478 35.503 35.518 35.513 35.495 35.508 35.453 35.43 35.388 35.475 35.283 34.94 34.693 35.403 35.173 34.635 34.595 34.577 34.581 34.658 34.751 34.811 34.891 34.928 34.983 35.074 36.838 35.804 35.093 35.178 35.192 35.208 35.213 35.061 34.519 33.465 32.099 -9999 -9999 -9999 -9999 -9999 -9999 -9999 -9999 -9999 -9999 -9999 -9999 -9999 -9999 -9999 -9999 -9999 -9999 38.663 34.232 34.316 37.698 43.498 41.589 42.516 39.548 38.635 40.273 46.597 49.935 46.918 43.673 45.125 45.491 44.094 46.284 47.1 47.068 48.148 52.368 52.328 51.405 51.883 52.835 52.52 52.94 53.48 53.84 54.273 56.725 57.768 56.448 56.91 57.35 57.823 58.348 58.955 59.583 60.193 60.793 61.313 61.795 62.255 62.663 63.088 63.693 64.55 66.903 64.743 64.838 64.953 65.08 65.328 65.488 65.755 65.955 66.213 66.478 66.613 66.903 67.063 67.325 67.53 67.72 67.978 68.165 68.498 68.545 68.713 68.873 69.033 69.235 69.353 69.58 69.693 70.475 70.198 69.838 69.86 69.79 70.063 69.623 69.915 68.748 68.02 67.718 67.493 67.438 67.203 67.09 67.18 67.235 67.393 67.558 67.795 67.83 67.868 68.055 68.268 68.483 68.735 69.018 69.253 69.715 70.013 70.225 70.58 70.988 71.325 71.738 72.075 72.405 72.85 73.175 73.505 73.773 74.048 74.378 74.628 74.81 75.165 75.69 75.765 75.45 75.62 75.895 76.05 76.188 76.833 77.658 76.733 76.758 76.815 76.823 76.785 76.795 76.935 77.105 77.463 77.368 77.44 77.618 77.848 77.963 78.223 78.378 78.648 78.843 79.055 79.213 79.798 79.53 80.193 80.448 80.493 80.485 80.548 80.773 81.073 81.333 81.53 81.693 81.885 82.055 82.18 82.3 82.41 82.575 82.685 82.803 82.983 83.128 83.273 83.433 83.578 83.7 83.863 83.985 84.153 84.293 84.425 84.608 84.71 84.823 84.933 85.135 85.27 85.448 85.513 85.688 85.8 85.893 85.978 86.063
39.557 39.58 39.577 39.62 39.632 39.662 39.675 39.687 39.667 39.695 39.7 39.69 39.68 39.697 39.677 39.71 39.687 39.707 39.717 39.712 39.705 39.687 39.702 39.707 39.727 39.767 39.77 39.76 39.755 39.772 39.812 39.847 39.85 39.87 39.867 39.85 39.847 39.845 39.88 39.855 39.887 39.89 39.902 39.897 39.88 39.898 39.918 39.908 39.905 39.908 39.943 39.93 39.913 39.92 39.928 39.93 39.94 39.958 39.953 39.968 39.973 39.995 40.005 40.003 40.023 40.045 40.065 40.088 40.113 40.115 40.118 40.133 40.125 40.13 40.125 40.118 40.118 40.118 40.1 40.108 40.125 40.108 40.11 40.095 40.073 40.045 40.028 40.043 40.028 40.02 40.035 39.998 39.625 38.623 37.963 37.8 38.753 36.99 36.33 35.74 35.283 35.155 35.118 35.138 35.14 35.135 35.108 35.083 35.06 35.03 35.028 35.003 35 35.05 35.085 35.118 35.128 35.145 35.14 35.163 35.215 35.275 35.31 35.3 35.305 35.313 35.325 35.338 35.348 35.353 35.373 35.405 35.398 35.383 35.393 35.383 35.393 35.428 35.443 35.488 35.5 35.503 35.555 35.565 35.595 35.615 35.648 35.653 35.66 35.68 35.708 35.698 35.713 35.718 35.698 35.713 35.928 35.873 35.388 35.415 35.433 35.463 35.448 35.448 35.453 35.465 35.423 35.435 35.42 35.41 35.415 35.433 35.47 35.475 35.473 35.47 35.458 35.453 35.448 35.455 35.455 35.445 35.445 35.468 35.508 35.495 35.493 35.468 35.478 35.518 35.515 35.5 35.495 35.485 35.5 35.503 35.45 35.445 35.45 35.633 35.53 35.028 34.76 34.858 34.695 34.6 34.59 34.57 34.545 34.608 34.702 34.787 34.95 35.067 35.019 36.391 36.933 36.402 35.047 35.111 35.171 35.153 35.168 35.221 35.014 34.27 33.182 32.109 -9999 -9999 -9999 -9999 -9999 -9999 -9999 -9999 -9999 -9999 -9999 -9999 -9999 -9999 -9999 -9999 -9999 -9999 -9999 37.121 37.915 37.174 42.451 42.414 40.405 38.943 38.461 43.325 47.759 42.209 43.957 43.253 43.819 44.349 44.752 45.093 46.528 47.953 50.235 51.095 50.833 51.2 51.625 51.99 52.428 52.98 53.62 53.938 54.883 56.115 56.48 56.82 57.245 57.78 58.345 58.978 59.525 60.125 60.683 61.238 61.715 62.185 62.66 62.99 63.37 64.578 66.04 64.388 64.62 64.843 64.978 65.255 65.405 65.62 65.838 66.095 66.31 66.495 66.865 66.993 67.225 67.53 67.675 67.91 68.098 68.335 68.468 68.69 68.785 68.99 69.203 69.358 69.508 69.65 69.883 69.748 69.813 69.79 69.535 69.05 68.625 69.18 67.833 67.545 67.44 67.193 67.09 66.955 66.67 66.785 66.855 67 67.135 67.408 67.493 67.538 67.758 67.963 68.178 68.508 68.935 69.083 69.395 69.85 70.135 70.435 70.87 71.173 71.608 71.935 72.273 72.73 73.023 73.353 73.633 73.843 74.268 74.52 74.573 75.048 75.713 75.11 75.208 75.383 75.625 75.795 75.87 76.515 76.158 76.268 76.458 76.418 76.46 76.458 76.46 76.515 76.643 76.793 77.043 77.068 77.263 77.455 77.633 77.868 78.013 78.235 78.99 78.79 78.913 78.853 79.258 79.83 80.225 80.183 80.195 80.273 80.523 80.82 81.033 81.253 81.448 81.64 81.825 81.978 82.065 82.17 82.308 82.415 82.545 82.725 82.893 83.025 83.178 83.338 83.45 83.635 83.768 83.938 84.105 84.24 84.368 84.585 84.635 84.773 84.93 85.058 85.205 85.35 85.5 85.643 85.765 85.838 85.895
39.557 39.595 39.575 39.625 39.662 39.69 39.707 39.687 39.692 39.715 39.717 39.707 39.687 39.707 39.7 39.727 39.717 39.735 39.735 39.712 39.712 39.712 39.722 39.72 39.742 39.75 39.76 39.755 39.782 39.81 39.815 39.86 39.877 39.885 39.88 39.862 39.865 39.865 39.877 39.88 39.877 39.885 39.885 39.887 39.885 39.928 39.938 39.928 39.92 39.928 39.965 39.95 39.94 39.933 39.958 39.945 39.95 39.953 39.96 39.958 39.988 39.985 39.998 39.99 40.035 40.068 40.098 40.11 40.115 40.125 40.128 40.128 40.153 40.135 40.14 40.14 40.148 40.148 40.155 40.155 40.165 40.158 40.168 40.148 40.115 40.068 40.04 40.073 40.053 40.065 40.07 40.063 39.74 38.775 38.188 38.01 37.968 37.188 36.51 35.905 35.393 35.185 35.188 35.17 35.188 35.178 35.14 35.113 35.085 35.06 35.04 35.02 35.025 35.06 35.085 35.088 35.125 35.18 35.158 35.165 35.215 35.288 35.285 35.3 35.275 35.298 35.315 35.343 35.363 35.353 35.373 35.395 35.393 35.385 35.368 35.353 35.4 35.428 35.458 35.493 35.523 35.518 35.538 35.563 35.575 35.618 35.63 35.665 35.68 35.678 35.688 35.695 35.715 35.698 35.7 35.715 36.38 36.078 35.375 35.428 35.44 35.453 35.458 35.48 35.455 35.458 35.435 35.438 35.43 35.423 35.43 35.45 35.473 35.475 35.483 35.508 35.478 35.455 35.46 35.48 35.48 35.44 35.46 35.458 35.503 35.505 35.488 35.483 35.518 35.528 35.515 35.498 35.473 35.483 35.505 35.495 35.473 35.43 35.523 35.795 35.783 35.158 34.883 34.703 34.653 34.583 34.603 34.66 34.575 34.592 34.792 34.896 35.314 35.443 35.028 35.524 35.6 35.121 34.983 35.037 35.104 35.106 35.102 35.147 35.164 34.961 34.235 33.132 32.308 -9999 -9999 -9999 -9999 -9999 -9999 -9999 -9999 -9999 -9999 -9999 -9999 -9999 -9999 -9999 -9999 -9999 -9999 39.772 41.291 41.9 38.911 35.405 36.569 40.686 42.822 42.736 43.89 45.235 43.364 44.753 48.126 49.225 45.53 44.937 45.793 47.29 48.728 49.81 51.015 50.53 51.165 51.55 51.935 52.453 53.258 53.823 54.31 55.845 56.553 56.718 57.2 57.725 58.305 58.843 59.43 60.04 60.643 61.213 61.738 62.23 62.795 63.02 63.333 63.823 64.92 64.308 64.588 64.73 64.9 65.143 65.288 65.555 65.783 66.003 66.218 66.45 66.805 66.873 67.21 67.5 67.635 67.863 68.033 68.228 68.35 68.575 68.703 68.928 69.105 69.245 69.528 69.708 69.835 69.673 70 69.585 69.22 68.703 68.353 68.428 67.385 67.118 66.91 66.88 66.708 66.613 66.255 66.38 66.45 66.668 66.785 66.998 67.178 67.223 67.458 67.785 67.973 70.283 69.968 68.938 69.13 69.575 69.938 70.353 70.693 71.053 71.47 71.813 72.195 72.598 72.888 73.18 73.45 73.673 74.033 74.218 74.39 74.55 74.748 74.873 75.028 75.215 75.385 75.638 75.585 75.753 75.778 75.913 76.07 76.078 76.093 76.113 76.118 76.22 76.395 76.473 76.5 76.685 76.905 77.11 77.318 77.49 77.63 78.433 79.303 78.885 78.555 78.545 78.885 79.638 80.008 79.97 79.913 80.033 80.298 80.563 80.793 80.993 81.208 81.37 81.588 81.748 81.883 81.903 82.03 82.19 82.338 82.463 82.643 82.783 82.913 83.09 83.223 83.348 83.538 83.718 83.89 84.028 84.245 84.268 84.428 84.558 84.723 84.868 85.015 85.193 85.34 85.475 85.603 85.68 85.763
39.592 39.59 39.615 39.632 39.66 39.687 39.68 39.712 39.672 39.695 39.7 39.675 39.685 39.69 39.717 39.732 39.747 39.755 39.75 39.737 39.717 39.752 39.732 39.745 39.75 39.765 39.772 39.76 39.787 39.8 39.83 39.865 39.887 39.885 39.882 39.86 39.875 39.88 39.885 39.88 39.885 39.91 39.907 39.907 39.912 39.938 39.94 39.943 39.923 39.935 39.965 39.945 39.943 39.958 39.97 39.973 39.95 39.975 39.98 39.988 40.008 40.005 40.003 40.018 40.045 40.075 40.105 40.105 40.115 40.135 40.128 40.153 40.15 40.15 40.158 40.18 40.18 40.19 40.203 40.203 40.198 40.2 40.203 40.178 40.158 40.128 40.09 40.095 40.078 40.08 40.098 40.103 39.813 38.928 38.428 38.24 39.133 37.288 36.678 36.105 35.54 35.215 35.188 35.188 35.22 35.198 35.14 35.143 35.128 35.09 35.07 35.045 35.058 35.048 35.08 35.12 35.133 35.17 35.178 35.193 35.245 35.28 35.28 35.29 35.263 35.28 35.313 35.328 35.34 35.363 35.373 35.388 35.368 35.368 35.373 35.383 35.375 35.405 35.448 35.483 35.483 35.493 35.528 35.533 35.585 35.598 35.615 35.648 35.658 35.658 35.683 35.703 35.723 35.698 35.703 35.708 36.545 35.893 35.383 35.425 35.448 35.478 35.475 35.475 35.46 35.458 35.45 35.438 35.438 35.425 35.44 35.445 35.465 35.508 35.503 35.528 35.5 35.5 35.503 35.493 35.493 35.475 35.473 35.485 35.508 35.518 35.495 35.485 35.53 35.518 35.525 35.493 35.503 35.515 35.52 35.49 35.463 35.45 35.578 35.915 35.91 35.248 35.2 35.283 34.783 37.333 34.623 34.73 34.77 34.65 34.767 34.824 34.952 35.273 34.985 35 35.011 34.963 35.092 35.014 35.02 35.057 35.069 35.048 35.118 35.099 34.675 34.014 33.18 -9999 -9999 -9999 -9999 -9999 -9999 -9999 -9999 -9999 -9999 -9999 -9999 -9999 -9999 -9999 -9999 -9999 -9999 42.777 44.778 42.564 40.277 40.668 43.311 41.998 42.932 42.146 44.865 42.107 41.549 44.128 45.955 45.767 45.538 45.129 45.509 50.153 51.518 49.978 49.638 50.275 50.393 51.033 51.473 52.038 52.955 53.77 54.37 56.273 56.383 56.818 57.145 57.655 58.198 58.808 59.473 60.07 60.658 61.218 61.735 62.183 62.613 62.918 63.248 64.535 64.328 64.363 64.573 64.685 64.87 65.105 65.228 65.495 65.69 65.908 66.19 66.405 66.718 66.788 67.363 67.435 68.12 67.768 67.91 68.123 68.315 68.488 68.603 68.865 69.075 69.248 69.478 69.695 69.765 69.585 69.838 69.403 69.11 68.67 67.73 67.208 66.858 66.655 66.79 66.363 66.215 65.955 65.923 66 66.05 66.253 66.393 66.673 66.77 66.88 67.175 67.425 67.583 68.383 68.443 68.595 68.93 69.423 69.79 70.213 70.605 70.955 71.325 71.738 72.063 72.465 72.738 73.065 73.258 73.518 73.788 73.958 74.2 74.38 74.568 74.68 74.77 74.985 75.218 75.735 75.378 75.313 75.413 75.52 75.673 75.72 75.783 75.73 75.735 75.925 76.208 76.168 76.125 76.335 76.588 76.83 76.923 77.105 77.343 77.54 78.343 78.045 78.138 78.193 78.603 79.543 79.625 79.77 79.648 79.758 80.035 80.32 80.54 80.74 80.933 81.1 81.283 81.475 81.593 81.66 81.795 81.945 82.095 82.245 82.403 82.54 82.693 82.863 83.003 83.13 83.325 83.498 83.643 83.803 83.913 84.078 84.225 84.368 84.535 84.685 84.855 85.043 85.173 85.305 85.448 85.528 85.613
39.635 39.632 39.63 39.672 39.705 39.67 39.697 39.712 39.705 39.717 39.69 39.685 39.7 39.722 39.737 39.772 39.78 39.81 39.782 39.782 39.772 39.762 39.765 39.76 39.765 39.785 39.777 39.775 39.787 39.782 39.837 39.887 39.895 39.885 39.875 39.872 39.89 39.91 39.912 39.91 39.917 39.912 39.917 39.907 39.927 39.935 39.96 39.963 39.958 39.965 39.97 39.97 39.955 39.973 39.99 39.975 39.998 39.983 39.998 40.008 40.033 40.013 40.035 40.04 40.07 40.1 40.113 40.118 40.115 40.15 40.148 40.16 40.17 40.173 40.16 40.183 40.193 40.213 40.21 40.22 40.223 40.223 40.21 40.188 40.17 40.15 40.128 40.123 40.118 40.103 40.128 40.12 39.903 39.095 38.678 38.535 39.638 37.428 36.853 36.293 35.715 35.315 35.223 35.22 35.23 35.23 35.165 35.14 35.123 35.085 35.068 35.053 35.073 35.05 35.11 35.138 35.155 35.17 35.18 35.21 35.245 35.275 35.268 35.278 35.278 35.293 35.323 35.333 35.348 35.358 35.393 35.368 35.348 35.34 35.353 35.36 35.365 35.395 35.423 35.47 35.47 35.503 35.533 35.563 35.56 35.598 35.61 35.645 35.68 35.688 35.683 35.708 35.708 35.688 35.718 35.748 37.328 35.69 35.395 35.413 35.46 35.48 35.478 35.47 35.465 35.468 35.46 35.45 35.43 35.43 35.443 35.47 35.448 35.488 35.51 35.51 35.508 35.5 35.49 35.503 35.513 35.49 35.495 35.498 35.51 35.495 35.51 35.5 35.498 35.498 35.515 35.518 35.53 35.51 35.52 35.498 35.468 35.458 35.66 36.065 36.095 35.355 35.158 44.8 44.37 35.755 34.56 34.578 34.63 34.575 34.65 34.773 34.943 35.211 34.914 34.96 34.957 35.031 38.014 35.372 34.934 34.963 34.988 35.019 35.058 35.073 35.057 34.668 34.042 33.124 -9999 -9999 -9999 -9999 -9999 -9999 -9999 -9999 -9999 -9999 -9999 -9999 -9999 -9999 -9999 -9999 -9999 43.477 45.64 44.887 44.212 45.442 42.131 44.572 42.963 41.717 42.646 42.989 43.008 44.253 44.865 44.766 45.376 44.625 45.251 45.72 48.25 50.62 48.653 49.34 49.76 50.37 51.04 51.625 52.528 53.555 53.903 56.28 56.498 56.638 57.05 57.633 58.173 58.823 59.493 60.055 60.683 61.218 61.775 62.215 62.553 62.793 63.133 63.85 64.165 64.293 64.595 64.675 64.78 65.008 65.138 65.448 65.648 65.863 66.105 66.333 66.7 66.888 67.215 67.213 67.428 67.663 67.85 68.053 68.258 68.41 68.598 68.845 69.045 69.273 69.453 69.725 69.435 69.59 70.13 69.425 69.16 68.858 67.32 66.805 66.413 66.268 66.433 65.978 65.758 65.493 65.558 65.63 65.643 65.915 66.028 66.25 66.433 66.57 66.875 67.098 67.43 67.843 68.138 68.755 69.133 69.283 69.59 70.025 70.485 70.988 71.24 71.545 71.905 72.335 72.588 72.86 73.068 73.315 73.57 73.78 73.97 74.16 74.35 74.453 74.51 74.703 74.895 75.413 75.753 74.98 75.113 75.168 75.3 75.293 75.333 75.398 75.523 75.773 75.828 75.82 75.795 76.035 76.31 76.443 76.635 76.765 77.015 77.2 77.458 77.748 77.968 78.373 78.318 79.085 79.28 79.458 79.345 79.5 79.75 80.035 80.253 80.475 80.66 80.873 81.075 81.208 81.275 81.393 81.57 81.715 81.885 82.018 82.175 82.295 82.468 82.623 82.75 82.908 83.128 83.29 83.43 83.565 83.713 83.868 84.023 84.158 84.353 84.523 84.7 84.878 85.015 85.175 85.283 85.378 85.468
39.615 39.637 39.67 39.667 39.685 39.682 39.687 39.707 39.707 39.685 39.7 39.722 39.705 39.737 39.762 39.787 39.822 39.962 39.897 39.865 39.815 39.8 39.787 39.777 39.795 39.787 39.802 39.825 39.815 39.82 39.872 39.915 39.922 39.917 39.917 39.907 39.915 39.922 39.915 39.92 39.927 39.94 39.932 39.93 39.925 39.94 39.953 39.968 39.968 39.978 39.988 39.993 39.973 39.998 39.998 39.983 40.015 40.025 40.025 40.043 40.048 40.05 40.043 40.06 40.078 40.108 40.108 40.108 40.14 40.165 40.18 40.193 40.185 40.188 40.183 40.208 40.215 40.223 40.245 40.258 40.265 40.268 40.235 40.188 40.178 40.175 40.143 40.138 40.143 40.138 40.15 40.175 40.01 39.238 38.91 38.758 41.16 37.613 37.073 36.523 35.928 35.418 35.253 35.258 35.248 35.22 35.173 35.165 35.15 35.098 35.093 35.075 35.088 35.073 35.12 35.155 35.168 35.175 35.193 35.21 35.245 35.263 35.275 35.275 35.29 35.293 35.305 35.32 35.34 35.365 35.388 35.373 35.33 35.328 35.35 35.355 35.355 35.385 35.4 35.448 35.465 35.51 35.538 35.56 35.578 35.598 35.61 35.64 35.658 35.695 35.695 35.718 35.698 35.7 35.688 35.735 36.725 35.775 35.405 35.44 35.443 35.475 35.475 35.473 35.498 35.473 35.46 35.46 35.443 35.445 35.445 35.478 35.48 35.485 35.5 35.488 35.513 35.495 35.5 35.515 35.5 35.508 35.518 35.523 35.518 35.518 35.528 35.538 35.5 35.52 35.533 35.528 35.515 35.52 35.5 35.485 35.475 35.453 35.725 36.228 36.278 35.495 35.315 36.033 34.72 35.678 34.553 34.58 34.578 34.58 34.583 34.693 34.79 34.953 34.859 34.915 34.945 38.269 42.182 38.505 34.954 34.881 34.874 34.959 34.974 34.999 35.046 34.923 34.642 33.879 33 -9999 -9999 -9999 -9999 -9999 -9999 -9999 -9999 -9999 -9999 -9999 -9999 -9999 -9999 -9999 -9999 41.931 44.938 45.825 41.716 42.696 44.012 44.09 43.35 43.882 42.702 44.286 43.525 44.306 43.204 44.605 46.109 45.641 45.065 45.486 46.34 47.59 48.003 48.605 49.125 49.738 50.548 51.283 52.318 53.475 53.868 55.953 56.335 56.643 57.08 57.708 58.44 58.828 59.673 60.12 60.66 61.173 61.778 62.423 62.408 62.665 63.018 64.893 65.72 65.38 64.905 64.76 64.825 64.975 65.203 65.368 65.57 65.783 66.008 66.258 66.553 66.668 66.9 67.125 67.348 67.555 67.76 68.015 68.168 68.38 68.633 68.858 69.053 69.208 69.685 69.615 69.328 69.42 69.09 68.808 68.193 67.708 67.058 67.13 66.313 66.255 65.785 65.435 65.285 65.013 65.163 65.178 65.303 65.538 65.635 65.863 66.108 66.3 66.575 66.868 67.49 67.845 68.463 68.805 69.183 69.195 69.458 69.885 70.468 70.905 71.135 71.395 71.72 72.138 72.463 72.67 72.813 73.1 73.34 73.585 73.715 73.958 74.103 74.19 74.198 74.403 74.59 74.65 74.695 75.183 74.823 74.8 75.678 74.738 74.913 75.14 75.153 75.228 75.428 75.54 75.525 75.775 76.015 76.175 76.303 76.41 76.623 76.988 77.188 77.583 78.07 77.848 77.97 78.888 79.098 79.108 79.07 79.238 79.483 79.758 79.988 80.208 80.403 80.575 80.76 80.913 80.998 81.143 81.318 81.443 81.588 81.73 81.925 82.083 82.25 82.38 82.528 82.725 82.913 83.038 83.17 83.328 83.528 83.69 83.838 83.97 84.155 84.34 84.513 84.705 84.898 85.028 85.103 85.235 85.33
39.652 39.695 39.657 39.682 39.677 39.692 39.722 39.705 39.727 39.687 39.71 39.702 39.717 39.77 39.775 39.812 39.847 40.052 39.982 39.87 39.842 39.825 39.79 39.817 39.82 39.812 39.832 39.84 39.857 39.87 39.952 39.967 39.987 39.957 39.94 39.935 39.947 39.957 39.962 39.95 39.945 39.962 39.957 39.955 39.96 39.955 39.963 39.98 39.985 40.003 40.018 40.01 39.998 40.018 40.023 40.013 40.023 40.033 40.033 40.055 40.053 40.03 40.068 40.075 40.095 40.098 40.1 40.108 40.158 40.185 40.178 40.208 40.19 40.198 40.215 40.233 40.235 40.265 40.298 40.293 40.305 40.313 40.278 40.228 40.205 40.185 40.183 40.208 40.175 40.183 40.18 40.23 40.075 39.373 39.095 40.395 40.148 37.84 37.268 36.735 36.1 35.558 35.298 35.27 35.25 35.245 35.205 35.17 35.15 35.143 35.11 35.085 35.088 35.105 35.14 35.138 35.178 35.198 35.205 35.22 35.245 35.28 35.283 35.3 35.293 35.323 35.333 35.323 35.325 35.365 35.388 35.348 35.34 35.318 35.34 35.323 35.348 35.383 35.413 35.443 35.458 35.5 35.535 35.568 35.588 35.578 35.605 35.65 35.67 35.69 35.695 35.71 35.728 35.693 35.715 35.745 36.218 35.658 35.453 35.47 35.483 35.488 35.485 35.508 35.503 35.493 35.468 35.458 35.45 35.463 35.465 35.468 35.47 35.468 35.485 35.488 35.498 35.498 35.498 35.508 35.498 35.513 35.515 35.525 35.53 35.535 35.53 35.518 35.51 35.52 35.518 35.535 35.52 35.513 35.508 35.495 35.485 35.49 35.753 36.273 36.413 35.67 38.14 35.638 40.128 38.543 34.598 34.623 34.598 34.625 34.59 34.628 34.723 34.844 34.9 34.932 35.15 38.01 41.614 37.598 35.109 34.822 34.831 34.865 34.937 34.957 34.976 34.922 34.687 34.368 33.673 32.829 -9999 -9999 -9999 -9999 -9999 -9999 -9999 -9999 -9999 -9999 -9999 -9999 -9999 -9999 -9999 38.928 42.399 44.952 46.788 46.783 42.714 42.316 41.592 40.837 41.412 43.9 44.284 45.015 44.872 45.461 46.697 46.379 45.52 44.445 45.033 46.418 47.295 47.848 48.195 49.155 50.235 51.255 52.258 53.33 54.003 54.83 56.195 56.685 57.033 57.615 58.28 58.81 59.508 60.013 60.548 61.065 61.658 62.183 62.265 62.568 62.858 63.718 65.51 68.445 65.58 64.728 64.87 65.04 65.203 65.413 65.638 65.818 66.09 66.21 66.493 66.585 66.89 67.208 67.318 67.553 67.788 67.978 68.145 68.385 68.613 68.838 69.035 69.203 69.275 69.12 69.318 69.198 68.653 68.118 67.82 67.343 66.575 66.043 65.683 66.073 66.01 64.953 64.848 64.588 64.728 64.783 64.98 65.168 65.253 65.495 65.725 66.003 66.35 67.083 67.615 67.95 68.4 68.808 69.533 69.788 70.083 69.69 70.213 70.528 70.98 71.253 71.605 72.008 72.263 72.458 72.55 72.855 73.115 73.3 73.508 73.705 73.863 73.948 73.893 74.108 74.22 74.303 74.68 74.528 74.828 74.515 74.23 74.215 74.433 74.668 74.805 74.8 74.895 75.12 75.19 75.47 75.71 75.833 75.953 76.105 76.558 76.78 76.8 77.375 77.52 77.545 78.08 78.665 78.745 78.805 78.778 78.97 79.195 79.493 79.705 79.895 80.083 80.293 80.435 80.608 80.745 80.86 81.043 81.228 81.353 81.483 81.675 81.853 82.003 82.143 82.318 82.493 82.67 82.823 83.048 83.148 83.275 83.465 83.643 83.798 83.95 84.135 84.313 84.525 84.715 84.853 84.975 85.093 85.185
39.63 39.652 39.7 39.677 39.692 39.705 39.757 39.735 39.71 39.73 39.75 39.73 39.73 39.77 39.787 39.81 39.82 40.047 39.955 39.84 39.84 39.82 39.815 39.842 39.85 39.817 39.86 39.85 39.855 39.917 39.987 39.995 40.007 39.987 39.97 39.97 39.965 39.97 39.972 39.977 39.972 39.975 39.972 39.99 39.98 39.988 39.973 40.003 40.028 40.02 40.045 40.04 40.023 40.033 40.035 40.03 40.043 40.05 40.065 40.068 40.065 40.085 40.073 40.095 40.115 40.13 40.138 40.155 40.155 40.2 40.21 40.22 40.208 40.218 40.218 40.265 40.26 40.275 40.315 40.315 40.328 40.325 40.288 40.273 40.253 40.208 40.225 40.215 40.23 40.223 40.243 40.263 40.1 39.485 39.723 43.135 41.988 38.073 37.498 36.918 36.308 35.755 35.4 35.315 35.275 35.27 35.225 35.225 35.193 35.19 35.155 35.13 35.105 35.128 35.148 35.17 35.19 35.2 35.215 35.223 35.265 35.29 35.28 35.285 35.3 35.3 35.323 35.335 35.36 35.378 35.383 35.363 35.338 35.333 35.323 35.335 35.358 35.37 35.42 35.44 35.483 35.505 35.523 35.553 35.553 35.583 35.628 35.653 35.685 35.69 35.713 35.678 35.703 35.685 35.725 35.783 36.103 35.46 35.47 35.485 35.518 35.508 35.508 35.495 35.503 35.498 35.453 35.463 35.45 35.465 35.47 35.47 35.48 35.47 35.478 35.48 35.483 35.49 35.495 35.495 35.518 35.498 35.503 35.525 35.54 35.543 35.51 35.508 35.495 35.523 35.533 35.523 35.518 35.543 35.52 35.49 35.48 35.483 35.78 36.308 36.505 35.748 35.183 35.52 34.818 35.833 36.075 37.198 34.685 34.598 34.6 34.608 34.675 34.913 34.888 34.922 34.901 35.246 35.129 35.037 34.818 34.819 34.816 34.82 34.865 34.924 34.925 34.874 34.663 34.325 33.957 33.418 32.558 -9999 -9999 -9999 -9999 -9999 -9999 -9999 -9999 -9999 -9999 -9999 -9999 -9999 -9999 -9999 -9999 41.928 44.646 46.502 45.377 42.844 39.258 37.381 38.372 41.221 42.754 43.633 41.535 44.728 45.25 46.024 45.4 44.302 44.158 45.523 46.458 46.648 47.663 49.1 50.073 50.97 52.163 53.31 54.235 54.605 56.035 56.735 57.045 57.575 58.163 58.76 59.36 59.933 60.495 61.008 61.455 61.855 62.13 62.453 62.678 63.26 63.74 65.69 64.878 64.653 64.895 65.073 65.248 65.475 65.715 65.923 66.133 66.205 66.585 66.648 67.203 67.593 67.335 67.6 67.785 67.983 68.123 68.403 68.568 68.793 68.96 69.11 69.075 69.125 69.26 69.095 68.505 67.748 67.248 66.668 65.96 65.775 65.665 65.348 65.468 64.493 64.353 64.208 64.348 64.488 64.663 64.768 64.973 65.195 65.46 65.773 66.2 67.363 67.605 68.828 68.203 68.75 69.62 69.748 70.08 69.953 69.965 70.373 70.91 71.133 71.51 71.843 71.97 72.225 72.308 72.615 72.87 73.055 73.25 73.505 73.583 73.69 73.588 73.858 73.945 74 74.568 74.008 74.41 73.843 73.648 73.788 73.96 74.09 74.158 74.22 74.408 74.633 74.84 75.135 75.413 75.528 75.68 75.89 76.24 76.325 76.48 77.345 77.675 77.183 77.668 78.458 78.428 78.47 78.463 78.65 78.918 79.21 79.41 79.635 79.82 80 80.168 80.37 80.473 80.573 80.715 80.973 81.13 81.263 81.415 81.59 81.755 81.928 82.09 82.288 82.435 82.613 82.78 82.953 83.08 83.245 83.435 83.605 83.793 83.953 84.163 84.35 84.51 84.653 84.8 84.938 85.03
39.687 39.7 39.727 39.725 39.74 39.732 39.755 39.745 39.755 39.735 39.742 39.757 39.767 39.782 39.81 39.83 39.857 39.885 39.852 39.84 39.81 39.825 39.84 39.835 39.82 39.835 39.855 39.865 39.897 39.917 40.002 39.985 39.99 40.01 39.982 39.99 39.992 39.99 39.95 40.012 40 40.02 39.997 39.997 39.992 39.988 40.018 40.018 40.018 40.03 40.068 40.05 40.04 40.038 40.045 40.033 40.065 40.073 40.08 40.095 40.095 40.113 40.123 40.118 40.148 40.155 40.148 40.173 40.173 40.185 40.203 40.22 40.22 40.24 40.265 40.275 40.303 40.305 40.333 40.348 40.353 40.333 40.283 40.29 40.275 40.265 40.255 40.243 40.23 40.245 40.29 40.275 40.138 39.608 39.47 41.968 41.138 38.325 37.73 37.213 36.59 36.003 35.498 35.34 35.325 35.288 35.25 35.24 35.228 35.228 35.205 35.165 35.16 35.165 35.17 35.17 35.203 35.208 35.218 35.245 35.25 35.288 35.283 35.295 35.315 35.318 35.32 35.36 35.365 35.378 35.375 35.36 35.348 35.333 35.325 35.335 35.348 35.383 35.415 35.458 35.488 35.52 35.53 35.558 35.568 35.578 35.613 35.658 35.69 35.705 35.7 35.69 35.705 35.703 35.738 35.77 35.725 35.458 35.47 35.488 35.498 35.513 35.518 35.51 35.483 35.508 35.483 35.48 35.5 35.478 35.48 35.483 35.488 35.5 35.5 35.485 35.485 35.488 35.485 35.498 35.488 35.475 35.483 35.525 35.513 35.533 35.538 35.515 35.51 35.545 35.545 35.548 35.518 35.543 35.515 35.485 35.488 35.495 35.813 36.388 36.623 35.86 35.268 35.088 34.925 34.995 34.67 34.69 34.603 34.603 34.583 34.66 34.62 34.895 34.83 34.851 34.869 34.833 35.085 34.991 34.792 34.772 34.771 34.755 34.828 34.894 34.929 34.889 34.757 34.373 33.911 33.629 33.074 31.828 -9999 -9999 -9999 -9999 -9999 -9999 -9999 -9999 -9999 -9999 -9999 -9999 -9999 -9999 -9999 -9999 43.632 46.796 45.694 42.481 36.676 35.03 37.278 38.262 40.731 40.795 41.207 43.281 44.05 46.619 44.533 44.096 43.688 44.5 45.8 47.87 48.263 49.075 49.933 50.865 52.83 53.178 54.33 54.545 55.91 56.843 57.045 57.535 58.088 59.013 59.313 59.85 61.01 60.818 61.26 61.668 61.945 62.218 62.485 63.048 63.583 64.375 64.235 64.418 64.733 65.018 65.205 65.46 65.685 65.925 66.093 66.293 66.61 66.683 66.91 67.088 67.383 67.593 67.788 67.965 68.125 68.388 68.503 68.648 68.79 68.88 69.04 69.218 69.153 69.313 69.185 67.938 67.543 66.27 65.433 65.4 64.985 64.608 64.508 64.18 63.883 63.81 64.048 64.118 64.303 64.415 64.503 64.788 65.153 65.513 65.955 67.293 67.04 70.083 67.865 69.743 68.975 69.378 69.475 69.648 69.805 70.213 70.663 70.985 71.27 71.523 71.723 71.943 72.093 72.403 72.65 72.835 72.993 73.208 73.313 73.385 73.298 73.538 73.623 73.675 73.618 73.635 73.54 73.423 73.41 73.465 73.58 73.72 73.643 73.81 73.9 74.193 74.505 74.78 75.04 75.165 75.293 75.433 75.595 75.915 76.188 76.513 77.048 77.23 77.623 78.188 78.165 78.2 78.19 78.388 78.618 78.885 79.15 79.363 79.555 79.718 79.898 80.158 80.25 80.323 80.485 80.72 80.958 81.143 81.228 81.36 81.53 81.715 81.895 82.04 82.208 82.4 82.583 82.74 82.865 83.063 83.235 83.398 83.65 83.803 83.98 84.15 84.358 84.51 84.665 84.783 84.898
