ncols 437
nrows 31
xllcorner    428094
yllcorner    540716
cellsize     2
NODATA_value -9999
36.365 36.407 36.457 36.497 36.54 36.382 36.425 36.427 36.38 36.335 36.36 36.375 36.395 36.42 36.43 36.407 36.42 36.435 36.592 36.63 36.66 36.68 36.675 36.627 36.58 36.527 36.458 36.331 36.263 36.149 36.02 35.897 35.826 35.751 35.642 35.571 35.508 35.465 35.405 35.339 35.3 35.336 35.41 36.94 36.068 35.768 35.777 36.016 36.32 35.454 35.375 35.445 35.442 35.507 35.577 35.623 35.705 35.662 35.675 35.705 35.647 35.672 35.722 35.74 35.702 35.727 35.805 35.782 35.787 35.822 35.83 35.807 35.8 35.797 35.787 35.752 35.742 35.687 35.697 35.692 35.707 35.712 35.715 35.727 35.692 35.745 35.767 35.772 35.782 35.832 35.925 36.097 36.282 36.535 36.645 36.43 36.437 36.47 36.297 36.172 36.142 36.17 36.167 36.185 36.18 36.195 36.225 36.278 36.298 36.314 36.336 36.398 36.393 36.392 36.393 36.356 36.364 36.338 36.328 36.279 36.188 36.177 36.106 35.993 36.026 36.026 35.953 35.843 35.796 35.818 35.756 35.721 35.768 35.688 35.618 35.628 35.613 35.536 35.526 35.583 35.591 35.518 35.618 35.618 35.663 35.71 35.643 35.731 35.768 35.788 35.786 35.855 35.906 35.916 35.911 35.951 35.978 36.002 36.023 36.036 36.09 36.118 36.118 36.15 36.186 36.201 36.221 36.263 36.295 36.345 36.361 36.341 36.396 36.421 36.371 36.398 36.397 36.419 36.386 36.446 36.443 36.483 36.518 36.581 36.668 36.691 36.696 36.693 36.733 36.736 36.763 36.776 36.788 36.831 36.836 36.823 36.786 36.768 36.737 36.738 36.738 36.758 36.728 36.721 36.746 36.796 36.846 36.881 36.881 36.916 36.931 36.943 36.973 37.063 37.158 37.236 37.231 37.283 37.293 37.346 37.376 37.458 37.536 38.026 39.616 38.081 37.983 39.991 43.223 43.141 41.866 38.326 36.293 34.035 33.008 32.346 32.414 -9999 31.89 31.901 31.903 31.934 31.91 32.054 34.649 34.545 34.353 33.818 32.044 33.023 34.761 40.988 41.161 42.378 43.488 48.731 46.786 44.983 43.211 44.516 44.526 43.323 45.301 46.803 43.273 46.348 54.353 51.016 55.313 60.538 60.458 59.591 57.261 60.316 57.813 58.192 55.353 54.988 58.593 56.864 58.671 55.763 57.646 55.601 51.931 41.536 38.686 37.083 42.516 49.668 50.888 50.836 49.528 47.671 37.292 36.511 36.531 36.508 36.478 36.401 36.381 36.376 36.426 36.406 36.388 36.348 36.373 36.421 36.513 36.576 36.648 36.666 36.706 36.794 36.873 36.888 36.881 36.846 36.841 36.846 36.888 36.892 36.865 36.829 36.795 36.801 36.827 36.793 36.783 36.711 36.686 36.685 36.649 36.679 36.646 36.615 36.616 36.631 36.634 36.63 36.647 36.662 36.645 36.658 36.657 36.625 36.611 36.634 36.625 36.63 36.652 36.676 36.683 36.729 36.742 36.755 36.79 36.793 36.788 36.791 36.774 36.765 36.75 36.755 36.767 36.773 36.777 36.811 36.856 36.897 36.903 36.941 36.951 36.931 36.921 36.911 36.961 36.896 36.938 36.934 36.916 36.903 36.859 36.816 36.778 36.704 36.661 36.628 36.648 36.763 37.176 38.371 38.501 36.948 40.201 39.174 37.958 37.388 37.673 37.839 38.283 40.958 41.493 42.221 42.146 41.533 39.806 40.223 40.162 39.285 39.373 39.451 39.455 39.47 39.651 39.861 40.066 40.288 40.462 40.468 40.788 41.021 41.065 41.316 41.661 41.811 41.748 42.302 42.238 42.838 42.733 42.629 42.753 42.913 43.073 43.276 43.176
36.372 36.53 36.435 36.417 36.485 36.41 36.49 36.395 36.4 36.375 36.395 36.392 36.435 36.487 36.49 36.455 36.457 36.542 36.637 36.64 36.64 36.672 36.655 36.655 36.596 36.562 36.476 36.35 36.227 36.125 36.006 35.898 35.833 35.728 35.645 35.582 35.494 35.444 35.416 35.344 35.392 35.423 36.229 36.59 35.77 35.769 35.786 36.255 35.819 35.304 35.398 35.462 35.479 35.55 35.608 35.632 35.655 35.665 35.685 35.652 35.64 35.695 35.697 35.692 35.692 35.71 35.762 35.772 35.767 35.755 35.785 35.792 35.8 35.795 35.81 35.755 35.762 35.742 35.77 35.76 35.757 35.762 35.745 35.755 35.722 35.712 35.735 35.742 35.74 35.79 35.86 35.975 36.207 36.777 36.515 36.205 36.192 36.205 36.152 36.142 36.165 36.142 36.142 36.175 36.19 36.207 36.272 36.31 36.331 36.312 36.338 36.378 36.37 36.365 36.35 36.35 36.314 36.261 36.272 36.203 36.13 36.087 35.966 35.951 35.958 35.933 35.858 35.786 35.776 35.753 35.726 35.706 35.696 35.648 35.573 35.604 35.556 35.498 35.521 35.576 35.551 35.533 35.572 35.661 35.681 35.665 35.663 35.733 35.792 35.779 35.826 35.887 35.888 35.923 35.923 35.964 36.008 36.021 36.033 36.098 36.131 36.118 36.133 36.168 36.201 36.226 36.256 36.309 36.363 36.374 36.343 36.411 36.433 36.416 36.421 36.378 36.398 36.438 36.471 36.448 36.483 36.473 36.558 36.653 36.639 36.688 36.684 36.706 36.726 36.753 36.773 36.803 36.806 36.783 36.801 36.836 36.798 36.783 36.773 36.748 36.761 36.733 36.738 36.776 36.821 36.871 36.923 36.976 37.016 37.078 37.076 37.071 37.104 37.161 37.206 37.243 37.286 37.296 37.296 37.353 37.428 37.533 37.626 38.126 39.666 38.028 37.986 40.891 43.321 42.418 41.154 37.868 35.683 34.448 32.723 32.369 32.286 31.903 31.887 31.901 31.87 31.919 31.856 32.919 35.568 37.066 37.693 34.956 38.784 33.762 34.431 39.688 43.715 40.733 48.461 46.571 45.728 45.671 45.493 52.698 51.293 46.572 54.392 48.59 44.096 45.591 54.016 59.154 49.818 56.008 55.161 57.168 58.511 59.906 57.977 57.203 55.603 54.176 54.277 57.208 58.586 55.179 57.183 52.471 45.471 39.781 36.401 36.381 36.373 39.043 45.843 48.823 41.856 41.678 37.038 36.508 36.518 36.531 36.441 36.348 36.323 36.363 36.393 36.327 36.341 36.416 36.416 36.448 36.541 36.626 36.678 36.688 36.761 36.806 36.843 36.869 36.843 36.856 36.851 36.821 36.861 36.856 36.883 36.81 36.822 36.828 36.792 36.791 36.748 36.729 36.688 36.657 36.634 36.643 36.65 36.613 36.63 36.624 36.645 36.637 36.645 36.624 36.638 36.616 36.612 36.594 36.59 36.617 36.597 36.602 36.614 36.632 36.68 36.704 36.727 36.75 36.756 36.776 36.753 36.749 36.75 36.725 36.715 36.728 36.705 36.751 36.763 36.754 36.791 36.864 36.881 36.919 36.928 36.936 36.928 36.913 36.903 36.888 36.906 36.893 36.858 36.886 36.813 36.808 36.753 36.678 36.671 36.648 36.636 36.726 37.123 37.091 37.134 37.183 38.596 39.309 38.101 37.703 37.826 38.026 38.556 40.861 41.531 42.656 42.078 41.359 38.998 39.673 40.198 39.371 39.476 39.501 39.491 39.601 39.812 39.981 40.438 41.106 41.466 41.487 41.733 42.208 42.155 42.45 42.517 42.546 43.601 46.198 46.372 42.871 42.883 42.926 42.998 43.068 43.191 43.428 43.231
36.427 36.52 36.435 36.457 36.437 36.475 36.457 36.447 36.4 36.425 36.395 36.415 36.442 36.53 36.52 36.487 36.502 36.555 36.622 36.65 36.627 36.682 36.682 36.695 36.68 36.623 36.498 36.371 36.246 36.119 36.026 35.948 35.859 35.753 35.647 35.594 35.501 35.493 35.461 35.405 35.514 35.594 36.728 36.301 35.76 35.74 35.74 36.165 35.51 35.335 35.407 35.495 35.531 35.597 35.57 35.622 35.655 35.625 35.65 35.622 35.65 35.685 35.665 35.672 35.692 35.7 35.732 35.755 35.762 35.722 35.762 35.747 35.737 35.775 35.787 35.79 35.762 35.777 35.795 35.822 35.8 35.785 35.76 35.74 35.74 35.752 35.732 35.735 35.735 35.807 35.857 36.025 36.367 37.155 36.522 36.035 36.032 36.05 36.097 36.11 36.15 36.14 36.13 36.152 36.199 36.231 36.293 36.319 36.327 36.323 36.346 36.364 36.374 36.321 36.31 36.297 36.258 36.258 36.219 36.124 36.092 35.998 35.931 35.903 35.866 35.841 35.796 35.721 35.731 35.728 35.866 35.623 35.603 35.611 35.546 35.542 35.526 35.516 35.55 35.579 35.506 35.536 35.567 35.672 35.703 35.67 35.728 35.778 35.795 35.824 35.841 35.908 35.943 35.913 35.948 35.974 36.026 36.008 36.061 36.081 36.106 36.144 36.162 36.203 36.204 36.261 36.293 36.311 36.353 36.356 36.375 36.443 36.471 36.453 36.428 36.393 36.411 36.426 36.468 36.466 36.476 36.553 36.588 36.631 36.646 36.686 36.691 36.676 36.726 36.753 36.776 36.794 36.806 36.798 36.796 36.803 37.078 36.813 36.801 36.766 36.796 36.786 36.816 36.883 36.983 36.981 37.013 37.098 37.123 37.146 37.168 37.166 37.168 37.151 37.207 37.281 37.286 37.301 37.343 37.378 37.513 37.686 37.864 39.051 38.908 38.011 38.023 40.776 42.558 41.723 39.626 37.176 35.386 34.468 33.048 32.123 31.974 31.895 31.887 31.878 31.914 31.892 31.901 32.863 36.338 39.781 44.581 46.181 42.408 38.926 37.422 44.138 46.656 50.728 53.056 51.663 46.526 49.391 55.82 49.076 57.142 47.573 50.976 49.284 46.071 52.226 53.913 49.333 59.801 49.316 57.983 52.903 53.898 60.338 46.194 50.518 55.643 52.181 49.522 52.976 57.678 53.558 53.581 48.058 40.876 36.349 36.341 36.368 36.363 36.328 36.331 36.401 36.608 36.536 36.493 36.483 36.513 36.501 36.392 36.363 36.323 36.358 36.368 36.381 36.406 36.406 36.398 36.483 36.541 36.633 36.683 36.698 36.766 36.823 36.883 36.878 36.876 36.871 36.863 36.851 36.863 36.883 36.871 36.813 36.798 36.848 36.799 36.787 36.775 36.683 36.697 36.675 36.648 36.63 36.629 36.611 36.58 36.603 36.59 36.629 36.61 36.611 36.591 36.61 36.582 36.544 36.532 36.561 36.54 36.543 36.581 36.61 36.651 36.683 36.702 36.701 36.715 36.714 36.723 36.689 36.712 36.686 36.684 36.685 36.692 36.712 36.738 36.759 36.783 36.826 36.896 36.886 36.933 36.918 36.938 36.898 36.853 36.853 36.873 36.848 36.848 36.838 36.821 36.791 36.716 36.663 36.628 36.666 36.673 36.963 37.246 38.061 38.738 39.151 40.116 39.916 38.691 37.833 37.821 38.126 38.398 39.091 40.178 40.581 41.213 41.468 41.681 42.121 40.456 39.423 39.548 39.523 39.521 39.7 40.296 40.876 41.921 41.966 41.966 42.118 42.272 42.338 42.543 44.737 45.355 44.878 45.086 45.213 44.036 43.157 45.218 45.862 45.813 44.072 43.248 43.403 43.253
36.44 36.527 36.422 36.38 36.41 36.415 36.347 36.357 36.432 36.43 36.415 36.44 36.48 36.47 36.527 36.567 36.602 36.63 36.667 36.682 36.657 36.672 36.707 36.725 36.682 36.63 36.536 36.398 36.268 36.18 36.085 35.982 35.899 35.819 35.696 35.631 35.554 35.541 35.497 35.47 35.614 36.397 36.911 35.849 35.724 35.764 36.156 36.098 35.278 35.349 35.4 35.471 35.519 35.662 35.635 35.611 35.635 35.715 35.657 35.64 35.665 35.632 35.637 35.672 35.727 35.687 35.677 35.705 35.71 35.722 35.74 35.757 35.735 35.78 35.807 35.787 35.772 35.787 35.797 35.822 35.842 35.832 35.807 35.775 35.775 35.757 35.772 35.767 35.777 35.83 35.777 35.875 35.987 36.285 36.027 35.897 35.947 36.01 36.09 36.115 36.137 36.14 36.112 36.137 36.192 36.24 36.283 36.301 36.323 36.341 36.362 36.343 36.331 36.298 36.293 36.25 36.226 36.207 36.105 36.029 35.996 35.893 35.851 35.821 35.821 35.746 35.708 35.648 35.652 35.618 35.598 35.615 35.602 35.548 35.526 35.494 35.482 35.511 35.576 35.554 35.521 35.566 35.612 35.646 35.686 35.712 35.771 35.826 35.886 35.908 35.891 35.936 35.955 35.923 35.961 36.015 36.037 35.996 36.06 36.126 36.106 36.111 36.162 36.223 36.213 36.236 36.26 36.337 36.363 36.335 36.396 36.488 36.481 36.461 36.42 36.451 36.448 36.478 36.493 36.501 36.491 36.541 36.583 36.616 36.633 36.658 36.691 36.681 36.696 36.701 36.726 36.786 36.768 36.753 36.761 36.763 36.868 36.978 36.803 36.801 36.813 36.903 36.956 37.066 37.273 37.133 37.098 37.156 37.191 37.198 37.183 37.173 37.136 37.188 37.218 37.268 37.333 37.423 37.414 37.458 37.831 37.783 37.761 39.526 38.768 38.016 37.998 38.792 39.703 38.946 37.976 36.673 35.156 33.776 32.793 31.886 31.877 31.865 31.864 31.904 31.945 31.971 31.89 36.373 38.636 41.786 47.306 48.293 43.791 39.531 37.956 44.213 46.791 52.283 51.048 51.973 52.253 54.284 58.206 51.036 50.361 48.076 51.49 48.441 51.678 49.308 51.583 57.468 55.316 57.191 52.213 51.868 55.374 53.376 50.181 55.266 52.923 53.403 48.181 49.928 49.881 52.061 47.736 46.056 37.918 36.318 36.278 36.278 36.278 36.268 36.276 36.481 36.723 36.508 36.503 36.466 36.488 36.408 36.338 36.341 36.326 36.423 36.376 36.373 36.368 36.403 36.456 36.478 36.59 36.661 36.696 36.748 36.803 36.906 36.881 36.891 36.908 36.876 36.886 36.866 36.866 36.846 36.876 36.868 36.803 36.818 36.776 36.725 36.808 36.723 36.701 36.675 36.649 36.656 36.608 36.607 36.594 36.615 36.605 36.602 36.601 36.59 36.591 36.555 36.538 36.524 36.499 36.504 36.521 36.532 36.542 36.576 36.607 36.637 36.63 36.672 36.68 36.665 36.691 36.688 36.689 36.649 36.651 36.632 36.651 36.685 36.697 36.758 36.786 36.833 36.868 36.873 36.891 36.916 36.903 36.868 36.848 36.863 36.811 36.828 36.846 36.841 36.816 36.773 36.723 36.666 36.658 36.651 36.658 37.081 37.543 37.376 37.673 37.688 38.741 39.068 40.645 41.428 41.436 40.616 39.811 39.285 39.161 38.703 38.878 39.548 40.121 41.283 39.833 39.518 39.571 39.581 39.631 40.051 40.981 41.691 41.702 41.881 42.006 42.176 42.316 42.719 42.841 45.048 46.896 46.738 45.901 43.571 43.573 43.987 45.936 47.016 46.596 44.493 43.421 43.486 43.303
36.4 36.455 36.372 36.365 36.362 36.387 36.42 36.425 36.425 36.447 36.425 36.45 36.48 36.505 36.562 36.617 36.662 36.737 36.755 36.712 36.69 36.737 36.757 36.767 36.702 36.676 36.56 36.421 36.289 36.215 36.137 36.067 35.976 35.872 35.789 35.675 35.621 35.61 35.558 35.506 35.902 36.709 36.712 35.793 35.743 35.756 36.29 35.816 35.284 35.329 35.414 35.465 35.505 35.57 35.586 35.607 35.582 35.595 35.65 35.612 35.617 35.625 35.665 35.692 35.665 35.677 35.697 35.705 35.665 35.68 35.715 35.725 35.73 35.752 35.792 35.8 35.775 35.787 35.782 35.81 35.825 35.862 35.84 35.815 35.785 35.77 35.792 35.732 35.737 35.81 36.025 36.232 35.872 35.795 35.83 35.832 35.885 35.97 36.02 36.072 36.092 36.11 36.125 36.143 36.189 36.238 36.282 36.301 36.326 36.32 36.323 36.298 36.287 36.26 36.236 36.197 36.181 36.151 36.081 35.98 35.869 35.791 35.781 35.772 35.745 35.675 35.641 35.649 35.591 35.548 35.568 35.574 35.534 35.486 35.48 35.517 35.484 35.503 35.546 35.542 35.536 35.626 35.726 35.698 35.713 35.773 35.763 35.858 35.881 35.923 35.923 35.931 35.966 35.961 36.018 36.04 36.032 36.036 36.111 36.145 36.096 36.091 36.139 36.186 36.213 36.216 36.256 36.303 36.343 36.303 36.358 36.478 36.488 36.456 36.458 36.463 36.501 36.513 36.536 36.528 36.561 36.544 36.606 36.613 36.651 36.678 36.666 36.663 36.683 36.728 36.738 36.748 36.768 36.753 36.733 36.776 36.766 37.045 36.818 36.883 36.938 36.951 37.013 37.071 37.115 37.101 37.141 37.158 37.136 37.143 37.153 37.151 37.176 37.246 37.331 37.341 37.373 37.391 37.453 38.414 42.978 42.431 41.597 40.868 37.933 38.006 38.201 38.776 38.476 38.186 38.014 36.896 35.046 33.681 32.401 31.867 31.844 31.848 31.808 31.798 31.863 31.931 31.904 37.343 37.948 43.538 46.236 48.858 47.736 40.461 38.126 42.941 47.55 52.383 54.163 49.313 45.868 50.398 52.161 55.753 57.078 41.708 44.715 56.476 58.187 58.006 58.858 59.973 57.228 53.156 53.421 55.768 54.294 54.893 54.618 54.948 50.973 53.868 50.673 49.896 43.038 42.413 41.856 39.704 36.293 36.221 36.211 36.183 36.208 36.228 36.274 36.806 36.543 36.506 36.483 36.466 36.488 36.363 36.338 36.338 36.373 36.373 36.393 36.423 36.391 36.423 36.511 36.571 36.603 36.696 36.732 36.798 36.816 36.881 36.888 36.921 36.898 36.858 36.868 36.848 36.898 36.881 36.894 36.836 36.813 36.808 36.743 36.806 36.761 36.693 36.691 36.633 36.618 36.621 36.597 36.588 36.592 36.594 36.615 36.587 36.58 36.558 36.576 36.577 36.532 36.518 36.5 36.516 36.502 36.525 36.519 36.548 36.573 36.611 36.626 36.644 36.665 36.687 36.669 36.672 36.662 36.651 36.628 36.634 36.628 36.671 36.705 36.768 36.768 36.818 36.848 36.896 36.871 36.873 36.871 36.873 36.863 36.866 36.833 36.836 36.831 36.842 36.798 36.758 36.686 36.676 36.648 36.688 36.716 37.096 37.658 37.298 37.388 37.481 37.551 37.823 39.551 41.346 41.326 42.828 42.983 42.15 41.819 41.516 40.253 39.266 39.671 40.005 39.52 39.526 39.623 39.621 40.126 40.811 41.541 41.761 44.683 45.939 43.991 43.495 42.338 42.583 42.854 46.061 46.76 47.317 45.998 43.821 45.266 45.586 46.283 48.181 46.546 43.818 43.448 43.416 43.383
36.365 36.385 36.447 36.517 36.38 36.412 36.415 36.49 36.42 36.555 36.412 36.505 36.527 36.545 36.605 36.675 36.725 36.855 36.865 36.81 36.787 36.767 36.8 36.777 36.727 36.695 36.59 36.46 36.334 36.251 36.142 36.078 35.997 35.921 35.83 35.746 35.683 35.628 35.588 35.666 36.145 36.911 36.162 35.781 35.78 35.895 36.333 35.518 35.285 35.358 35.413 35.45 35.5 35.53 35.565 35.602 35.58 35.577 35.632 35.647 35.65 35.63 35.677 35.635 35.61 35.685 35.752 35.712 35.677 35.687 35.695 35.665 35.702 35.717 35.767 35.79 35.782 35.782 35.767 35.797 35.785 35.807 35.847 35.812 35.78 35.752 35.747 35.705 35.817 36.237 36.985 37.05 36.035 35.745 35.762 35.765 35.83 35.872 35.88 35.922 35.977 36.025 36.072 36.164 36.223 36.248 36.27 36.286 36.286 36.29 36.318 36.292 36.271 36.225 36.22 36.161 36.086 36.077 36.003 35.967 35.846 35.746 35.776 35.748 35.675 35.64 35.611 35.623 35.563 35.514 35.551 35.558 35.491 35.458 35.493 35.461 35.468 35.538 35.626 35.571 35.586 35.693 35.771 35.711 35.718 35.871 35.853 35.881 35.956 35.991 35.936 35.961 35.996 35.976 36.026 36.066 36.023 36.056 36.113 36.103 36.126 36.111 36.159 36.206 36.236 36.253 36.303 36.338 36.288 36.346 36.409 36.455 36.461 36.466 36.458 36.468 36.508 36.536 36.553 36.563 36.593 36.598 36.631 36.643 36.651 36.632 36.641 36.678 36.683 36.693 36.711 36.741 36.733 36.723 36.746 36.787 36.821 36.891 36.914 36.991 37.023 37.036 37.038 37.001 37.008 37.036 37.243 37.116 37.058 37.103 37.163 37.188 37.236 37.296 37.353 37.308 37.361 38.938 39.916 41.031 48.176 48.586 48.253 46.841 42.09 37.973 38.526 38.431 38.626 38.063 37.863 35.886 35.416 34.393 32.558 31.891 31.867 31.866 31.83 31.816 31.831 31.907 32.763 35.986 41.188 44.531 47.693 47.689 39.518 43.268 37.325 37.633 44.358 50.266 51.401 55.172 53.438 58.626 50.971 57.622 51.708 53.811 47.273 57.688 58.708 59.663 59.773 59.446 57.74 55.073 52.742 46.686 53.008 54.511 53.778 55.043 53.192 50.231 45.861 41.726 38.461 36.686 36.363 36.313 36.276 36.198 36.143 36.153 36.153 36.216 36.208 36.771 36.508 36.491 36.488 36.483 36.463 36.366 36.316 36.331 36.391 36.408 36.366 36.424 36.408 36.448 36.461 36.581 36.63 36.723 36.741 36.793 36.841 36.911 36.923 36.897 36.871 36.866 36.861 36.858 36.838 36.893 36.878 36.816 36.801 36.781 36.746 36.778 36.771 36.693 36.653 36.608 36.598 36.616 36.618 36.583 36.578 36.576 36.575 36.593 36.563 36.555 36.512 36.551 36.491 36.49 36.461 36.455 36.476 36.494 36.494 36.502 36.564 36.605 36.592 36.619 36.64 36.655 36.627 36.652 36.636 36.64 36.641 36.628 36.649 36.664 36.697 36.721 36.793 36.821 36.841 36.861 36.873 36.871 36.883 36.886 36.826 36.828 36.808 36.846 36.841 36.853 36.838 36.781 36.703 36.663 36.666 36.709 36.758 37.421 37.757 37.723 37.489 37.883 39.046 37.778 38.221 38.943 39.358 42.647 45.371 44.518 43.718 42.309 40.171 38.999 39.246 39.513 39.543 39.585 39.675 39.616 40.978 41.333 41.719 41.923 45.674 46.386 46.383 45.541 42.561 43.628 43.902 46.253 47.033 46.548 45.793 45.333 45.508 45.681 46.403 47.011 46.291 44.657 43.469 43.51 43.483
36.412 36.442 36.575 36.472 36.377 36.472 36.4 36.425 36.505 36.505 36.422 36.547 36.597 36.607 36.657 36.735 36.827 36.87 36.905 36.875 36.867 36.83 36.88 36.825 36.757 36.687 36.556 36.459 36.347 36.248 36.149 36.059 36 35.933 35.818 35.77 35.693 35.64 35.603 35.938 36.553 36.715 35.949 35.809 35.784 36.037 35.892 35.315 35.277 35.372 35.419 35.467 35.499 35.543 35.573 35.557 35.585 35.6 35.615 35.617 35.66 35.645 35.627 35.627 35.62 35.702 35.685 35.715 35.705 35.71 35.685 35.68 35.692 35.697 35.727 35.752 35.76 35.782 35.772 35.76 35.765 35.797 35.817 35.79 35.762 35.787 35.722 35.755 36.152 36.887 37.645 36.707 35.817 35.665 35.732 35.755 35.762 35.775 35.757 35.777 35.8 35.872 35.97 36.105 36.186 36.216 36.245 36.272 36.273 36.27 36.287 36.241 36.226 36.231 36.186 36.139 36.078 36.05 35.967 35.838 35.758 35.758 35.718 35.692 35.611 35.623 35.568 35.546 35.493 35.488 35.551 35.488 35.458 35.481 35.478 35.426 35.481 35.539 35.631 35.603 35.633 35.736 35.751 35.758 35.796 35.858 35.896 35.898 35.981 35.996 35.983 35.991 36.033 36.038 36.048 36.045 36.066 36.073 36.077 36.073 36.113 36.141 36.185 36.201 36.231 36.285 36.283 36.321 36.273 36.34 36.396 36.398 36.417 36.421 36.423 36.411 36.493 36.533 36.578 36.606 36.631 36.66 36.668 36.633 36.673 36.671 36.696 36.648 36.668 36.688 36.703 36.698 36.716 36.783 36.818 36.853 36.926 36.973 37.026 37.033 37.053 37.028 37.256 37.236 37.036 37.063 37.339 37.373 37.171 37.241 37.246 37.236 37.253 37.221 37.263 37.266 38.611 38.294 45.188 45.575 49.081 49.429 48.873 48.294 47.063 39.89 38.516 38.358 38.136 38.073 37.893 38.101 38.808 34.458 33.093 32.3 31.929 31.889 31.879 31.899 31.872 32.349 34.817 40.952 44.308 46.09 46.328 43.518 47.631 42.663 40.846 42.038 47.893 48.481 45.626 53.566 57.863 59.328 56.551 54.963 48.738 48.956 52.441 52.433 51.513 58.158 55.296 56.721 50.621 53.356 49.173 43.768 44.481 48.281 41.891 48.171 40.266 36.436 39.453 36.313 36.366 36.341 36.313 36.296 36.228 36.231 36.198 36.178 36.193 36.201 36.233 36.716 36.503 36.498 36.468 36.443 36.478 36.348 36.381 36.348 36.356 36.356 36.375 36.426 36.451 36.451 36.508 36.606 36.696 36.733 36.773 36.781 36.841 36.869 36.893 36.918 36.878 36.836 36.838 36.896 36.906 36.876 36.81 36.823 36.808 36.801 36.718 36.761 36.752 36.701 36.646 36.638 36.613 36.611 36.608 36.604 36.578 36.568 36.587 36.566 36.535 36.52 36.511 36.519 36.466 36.46 36.443 36.443 36.466 36.462 36.497 36.525 36.557 36.563 36.592 36.601 36.625 36.638 36.621 36.658 36.658 36.638 36.621 36.619 36.655 36.66 36.693 36.756 36.778 36.833 36.868 36.888 36.878 36.888 36.883 36.896 36.893 36.901 36.853 36.868 36.873 36.893 36.831 36.778 36.728 36.708 36.688 36.738 36.821 37.308 38.968 38.133 37.863 38.701 40.468 38.981 38.588 39.068 38.676 45.828 46.418 46.081 44.523 40.638 39.133 39.287 39.391 39.931 39.771 39.656 39.673 39.894 40.913 41.663 41.921 42.444 45.696 46.487 46.797 45.331 44.111 43.336 44.946 46.342 47.043 46.426 45.653 45.473 45.429 45.68 46.671 47.021 45.993 44.694 43.466 43.559 43.581
36.45 36.507 36.465 36.422 36.41 36.45 36.407 36.39 36.397 36.46 36.432 36.622 36.605 36.645 36.68 36.795 36.97 37.012 36.94 36.95 36.922 36.9 36.92 36.857 36.77 36.715 36.592 36.486 36.402 36.31 36.234 36.124 36.032 35.935 35.819 35.751 35.689 35.645 35.636 36.231 36.701 36.497 35.825 35.821 35.83 36.169 35.555 35.253 35.311 35.387 35.435 35.464 35.488 35.536 35.557 35.54 35.557 35.57 35.6 35.63 35.702 35.655 35.63 35.672 35.657 35.735 35.785 35.705 35.687 35.657 35.665 35.677 35.687 35.692 35.745 35.735 35.73 35.73 35.742 35.737 35.752 35.797 35.782 35.76 35.752 35.747 35.745 35.78 36.057 36.522 37.377 36.767 35.785 35.707 35.762 35.722 35.71 35.735 35.697 35.73 35.735 35.762 35.808 35.919 36.035 36.092 36.178 36.231 36.254 36.241 36.202 36.231 36.2 36.178 36.117 36.08 36.038 35.985 35.859 35.758 35.788 35.723 35.703 35.626 35.632 35.578 35.508 35.498 35.533 35.491 35.513 35.441 35.41 35.458 35.416 35.453 35.541 35.603 35.581 35.595 35.665 35.748 35.741 35.741 35.833 35.891 35.926 35.937 35.968 36.016 36.003 36.019 36.073 36.083 36.095 36.054 36.058 36.068 36.075 36.09 36.133 36.183 36.183 36.166 36.218 36.263 36.289 36.271 36.223 36.369 36.388 36.368 36.369 36.386 36.406 36.417 36.446 36.508 36.556 36.591 36.621 36.686 36.706 36.688 36.718 36.713 36.678 36.676 36.651 36.711 36.716 36.756 36.771 36.846 36.928 36.978 37.018 37.011 36.981 36.931 37.006 37.071 37.323 37.381 37.078 37.136 37.178 37.423 37.253 37.253 37.266 39.008 37.263 37.231 37.338 39.676 45.453 45.521 46.808 46.713 48.849 49.521 49.648 48.878 47.356 40.486 38.576 38.263 42.326 40.926 37.553 39.668 37.718 33.523 33.356 32.835 32.089 31.92 31.903 31.923 31.939 32.819 36.111 40.803 44.421 46.221 48.423 46.171 43.086 42.626 42.575 45.541 46.883 51.746 52.886 51.344 55.696 54.376 54.187 44.051 51.236 51.713 52.563 44.474 54.778 55.921 55.408 55.043 49.551 41.066 43.716 40.891 37.088 36.418 39.963 36.393 36.366 36.338 36.358 36.333 36.346 36.371 36.346 36.303 36.291 36.216 36.178 36.183 36.183 36.203 36.316 36.663 36.531 36.488 36.44 36.503 36.456 36.373 36.348 36.346 36.428 36.403 36.436 36.468 36.498 36.528 36.561 36.671 36.727 36.768 36.806 36.846 36.884 36.918 36.928 36.953 36.928 36.896 36.851 36.831 36.868 36.886 36.886 36.813 36.808 36.793 36.736 36.776 36.758 36.703 36.691 36.636 36.631 36.603 36.596 36.558 36.553 36.571 36.586 36.513 36.518 36.51 36.497 36.499 36.491 36.431 36.432 36.414 36.456 36.443 36.476 36.507 36.549 36.538 36.57 36.596 36.629 36.625 36.633 36.64 36.636 36.611 36.626 36.644 36.644 36.651 36.718 36.791 36.831 36.868 36.878 36.893 36.911 36.928 36.92 36.881 36.913 36.903 36.893 36.898 36.888 36.886 36.828 36.738 36.725 36.708 36.751 36.786 36.936 38.056 38.176 37.531 37.286 37.426 37.868 38.248 38.598 39.401 41.058 45.208 46.838 46.468 44.589 39.464 39.291 40.308 43.128 40.856 40.533 39.971 39.71 40.153 41.346 41.931 41.983 44.998 45.913 46.583 46.051 45.337 45.171 42.895 44.296 46.518 46.953 46.239 45.466 45.263 45.156 45.953 46.741 46.928 45.383 43.298 43.576 43.536 43.573
36.5 36.44 36.455 36.495 36.555 36.44 36.525 36.415 36.475 36.455 36.482 36.577 36.672 36.685 36.747 36.845 37 37.067 37.065 37.045 37.022 36.967 36.905 36.857 36.827 36.79 36.695 36.602 36.494 36.362 36.296 36.2 36.112 35.989 35.879 35.76 35.672 35.61 35.608 36.284 36.743 35.985 35.833 35.816 35.953 36.079 35.395 35.289 35.373 35.42 35.477 35.509 35.516 35.547 35.56 35.542 35.567 35.58 35.625 35.685 35.675 35.655 35.645 35.682 35.662 35.73 35.797 35.742 35.7 35.692 35.652 35.65 35.702 35.685 35.74 35.717 35.697 35.727 35.722 35.747 35.77 35.742 35.775 35.757 35.775 35.765 35.75 35.757 35.815 35.965 36.232 36.185 35.722 35.757 35.777 35.755 35.742 35.69 35.705 35.747 35.735 35.727 35.775 35.848 35.895 35.955 36.016 36.134 36.173 36.16 36.183 36.187 36.179 36.133 36.116 36.032 35.944 35.86 35.761 35.72 35.658 35.651 35.637 35.566 35.54 35.538 35.483 35.472 35.454 35.463 35.436 35.43 35.428 35.441 35.458 35.474 35.544 35.571 35.554 35.602 35.67 35.731 35.771 35.726 35.798 35.853 35.983 35.936 35.994 35.988 36.033 36.068 36.073 36.076 36.076 36.037 36.071 36.081 36.098 36.078 36.126 36.178 36.184 36.188 36.256 36.262 36.283 36.243 36.273 36.333 36.361 36.366 36.331 36.341 36.348 36.389 36.47 36.481 36.538 36.591 36.611 36.646 36.688 36.696 36.683 36.66 36.645 36.688 36.694 36.716 36.813 36.901 36.886 36.958 37.001 37.008 36.963 36.945 36.933 36.971 37.026 37.051 37.379 37.46 37.116 37.149 37.211 37.163 37.562 40.183 39.278 45.111 44.645 37.57 38.616 41.786 45.233 47.2 45.376 44.536 48.043 50.126 49.501 50.679 44.823 40.008 38.548 40.494 43.106 37.828 38.381 36.076 40.1 33.138 31.918 31.948 31.89 31.964 31.94 31.905 31.898 31.907 32.068 38.881 44.479 43.176 47.128 48.246 43.756 39.7 41.821 43.823 52.063 50.053 56.866 53.418 52.138 48.578 50.99 49.465 55.308 51.538 55.258 51.33 52.523 52.126 49.086 52.016 48.078 43.483 36.411 36.376 36.376 36.331 36.318 36.343 36.331 36.338 36.338 36.343 36.366 36.376 36.373 36.343 36.303 36.261 36.246 36.173 36.148 36.203 36.558 36.853 36.562 36.513 36.443 36.471 36.426 36.416 36.386 36.366 36.418 36.473 36.468 36.475 36.531 36.573 36.598 36.688 36.771 36.808 36.836 36.848 36.928 36.953 36.966 36.978 36.923 36.906 36.866 36.836 36.866 36.883 36.842 36.853 36.818 36.808 36.756 36.758 36.751 36.669 36.668 36.621 36.626 36.591 36.583 36.569 36.591 36.578 36.553 36.573 36.526 36.495 36.49 36.503 36.493 36.458 36.441 36.436 36.445 36.461 36.492 36.499 36.537 36.57 36.598 36.608 36.635 36.648 36.641 36.635 36.635 36.623 36.64 36.66 36.661 36.699 36.758 36.781 36.831 36.866 36.871 36.911 36.943 36.938 36.911 36.946 36.951 36.908 36.901 36.916 36.923 36.893 36.813 36.773 36.773 36.726 36.783 36.833 36.976 37.57 37.533 37.331 37.263 37.396 37.533 37.851 38.363 40.133 42.939 45.253 46.761 46.238 44.558 39.866 39.346 40.821 42.996 40.964 40.159 40.018 39.746 40.444 41.622 43.253 43.451 44.219 46.118 46.583 45.778 45.128 44.126 43.034 44.391 46.698 46.856 46.141 43.601 43.82 43.285 43.161 43.368 44.213 45.311 43.646 43.613 43.558 43.653
36.467 36.475 36.457 36.43 36.537 36.427 36.505 36.362 36.425 36.44 36.507 36.637 36.647 36.707 36.772 36.882 37.05 37.112 37.097 37.08 37.115 37.055 36.975 36.987 36.932 36.867 36.767 36.645 36.521 36.412 36.35 36.211 36.131 36.021 35.913 35.776 35.655 35.613 35.764 36.651 36.082 35.848 35.85 35.821 36.028 35.694 35.346 35.321 35.398 35.427 35.485 35.538 35.54 35.52 35.56 35.577 35.612 35.595 35.617 35.64 35.657 35.68 35.627 35.662 35.675 35.68 35.762 35.752 35.74 35.752 35.695 35.64 35.657 35.677 35.69 35.675 35.655 35.695 35.715 35.77 35.79 35.71 35.762 35.712 35.77 35.782 35.787 35.787 35.785 35.782 35.822 35.795 35.77 35.752 35.737 35.742 35.702 35.687 35.68 35.742 35.732 35.776 35.813 35.84 35.857 35.891 35.953 35.999 36.078 36.107 36.113 36.132 36.133 36.118 36.077 35.953 35.874 35.826 35.698 35.636 35.583 35.633 35.591 35.543 35.476 35.451 35.433 35.408 35.408 35.391 35.428 35.436 35.423 35.403 35.541 35.544 35.55 35.613 35.663 35.688 35.716 35.776 35.808 35.806 35.849 35.918 35.963 35.981 35.998 36.051 36.098 36.035 36.088 36.153 36.056 36.061 36.083 36.099 36.082 36.071 36.108 36.15 36.148 36.213 36.282 36.26 36.215 36.243 36.305 36.343 36.346 36.313 36.305 36.296 36.338 36.406 36.438 36.486 36.513 36.533 36.558 36.579 36.623 36.651 36.658 36.674 36.683 36.748 36.808 36.808 36.913 36.963 36.991 36.976 36.903 36.858 36.886 36.946 37.006 37.037 37.082 37.116 37.163 37.141 37.151 37.179 37.218 41.927 44.542 46.271 49.037 49.983 48.243 45.252 45.688 42.65 50.075 47.418 43.799 46.598 44.006 54.161 45.203 50.341 40.423 38.306 38.243 39.721 38.118 41.159 37.788 36.813 36.066 34.263 34.434 33.582 32.674 31.991 31.909 31.851 31.878 31.905 31.948 34.583 43.051 45.036 43.485 44.133 46.131 39.926 39.806 42.431 48.921 52.871 48.756 54.738 52.843 53.649 52.323 49.836 52.598 54.616 49.403 47.487 49.256 51.798 43.541 45.061 39.811 36.338 36.306 36.293 36.273 36.298 36.268 36.263 36.341 36.326 36.366 36.363 36.383 36.408 36.408 36.323 36.293 36.266 36.251 36.166 36.166 36.198 36.353 36.796 36.506 36.478 36.478 36.483 36.448 36.416 36.373 36.398 36.466 36.481 36.483 36.551 36.551 36.626 36.698 36.751 36.808 36.873 36.901 36.898 36.963 36.968 36.968 36.981 36.963 36.911 36.881 36.866 36.903 36.93 36.918 36.828 36.866 36.781 36.783 36.712 36.718 36.691 36.681 36.62 36.636 36.613 36.566 36.621 36.593 36.586 36.566 36.581 36.557 36.524 36.536 36.509 36.496 36.443 36.458 36.436 36.429 36.473 36.472 36.513 36.529 36.576 36.579 36.607 36.647 36.627 36.665 36.662 36.635 36.662 36.638 36.672 36.684 36.733 36.786 36.833 36.855 36.889 36.953 36.958 36.968 37.013 36.993 36.966 36.961 36.976 36.976 36.933 36.931 36.936 36.868 36.861 36.786 36.801 36.803 36.833 37.118 37.528 38.548 39.971 39.823 38.723 38.816 38.893 38.966 41.398 43.306 45.613 47.023 45.906 42.396 39.318 40.921 40.218 40.781 40.416 39.697 39.776 39.778 40.636 45.363 44.589 46.524 44.726 46.133 46.583 45.796 45.111 44.371 42.983 43.071 43.777 43.819 44.733 45.547 44.68 43.393 43.387 43.47 43.451 43.576 43.936 43.718 43.633 43.741
36.472 36.48 36.475 36.422 36.407 36.46 36.497 36.432 36.522 36.495 36.622 36.687 36.695 36.742 36.767 36.865 37.067 37.125 37.125 37.095 37.135 37.11 37.09 37.08 37.007 36.885 36.79 36.675 36.56 36.38 36.29 36.169 36.075 36.026 35.949 35.848 35.714 35.653 36.334 36.815 35.967 35.852 35.807 35.91 35.913 35.426 35.292 35.37 35.42 35.489 35.55 35.573 35.597 35.552 35.607 35.597 35.652 35.642 35.655 35.655 35.685 35.682 35.635 35.652 35.672 35.682 35.75 35.745 35.727 35.712 35.722 35.687 35.655 35.64 35.642 35.647 35.647 35.677 35.685 35.702 35.722 35.7 35.697 35.675 35.71 35.747 35.762 35.775 35.777 35.762 35.76 35.755 35.76 35.745 35.727 35.71 35.675 35.7 35.722 35.76 35.76 35.798 35.826 35.861 35.874 35.884 35.928 35.971 36.002 36.005 36.036 36.072 36.086 36.068 35.975 35.96 35.813 35.763 35.643 35.621 35.578 35.583 35.486 35.482 35.513 35.471 35.474 35.416 35.431 35.443 35.388 35.383 35.418 35.468 35.511 35.548 35.611 35.643 35.646 35.711 35.763 35.861 35.816 35.823 35.896 35.981 35.949 35.976 36.018 36.063 36.073 36.026 36.163 36.136 36.056 36.098 36.098 36.115 36.081 36.106 36.135 36.129 36.171 36.223 36.259 36.265 36.213 36.213 36.301 36.301 36.308 36.285 36.288 36.298 36.351 36.389 36.451 36.443 36.488 36.511 36.541 36.543 36.56 36.591 36.603 36.709 36.801 36.841 36.916 36.954 37.003 37.011 36.983 36.968 36.987 36.966 37.011 37.041 37.066 37.056 37.108 37.141 37.171 37.196 37.228 37.213 43.532 45.347 46.898 48.983 51.782 52.039 48.915 47.973 46.851 44.313 46.254 44.801 48.338 45.456 51.604 49.106 51.665 47.123 39.717 39.926 40.601 38.596 40.103 39.103 39.491 39.104 37.946 35.986 33.994 34.337 33.708 32.22 31.925 31.823 31.896 31.895 31.855 33.322 40.216 42.068 43.221 38.236 38.688 39.876 39.903 35.946 42.426 47.426 52.321 55.913 55.098 55.961 55.068 49.106 53.128 48.691 47.726 43.721 43.721 40.833 38.123 36.421 36.341 36.306 36.266 36.246 36.221 36.238 36.316 36.328 36.348 36.373 36.346 36.413 36.398 36.398 36.373 36.331 36.283 36.231 36.256 36.188 36.158 36.173 36.478 36.563 36.533 36.493 36.478 36.501 36.398 36.423 36.408 36.443 36.478 36.473 36.556 36.583 36.583 36.636 36.733 36.841 36.876 36.881 36.953 36.966 36.978 36.988 37.021 36.976 36.906 36.908 36.956 36.903 36.906 36.943 36.888 36.831 36.818 36.798 36.758 36.756 36.761 36.747 36.668 36.638 36.626 36.611 36.596 36.61 36.573 36.606 36.591 36.603 36.586 36.566 36.546 36.521 36.501 36.471 36.438 36.446 36.468 36.472 36.496 36.493 36.571 36.576 36.601 36.62 36.641 36.667 36.662 36.648 36.644 36.669 36.671 36.703 36.696 36.726 36.768 36.818 36.874 36.921 36.971 36.983 37.003 37.028 36.999 37.011 36.996 36.983 36.963 36.996 36.961 36.953 36.886 36.821 36.777 36.853 36.828 36.916 37.253 38.103 37.348 37.891 38.566 38.666 38.926 39.631 39.071 38.211 42.084 46.002 47.026 45.453 42.704 41.015 40.387 40.349 40.773 39.891 40.211 39.818 39.884 43.693 44.618 47.643 44.366 44.463 44.663 44.548 44.746 42.995 44.291 43.086 43.178 45.418 48.271 48.323 48.473 46.443 44.954 44.175 43.591 43.583 43.503 43.861 43.738 43.735 43.858
36.455 36.487 36.48 36.392 36.51 36.515 36.482 36.43 36.395 36.502 36.637 36.727 36.715 36.772 36.75 36.832 37.062 37.18 37.132 37.115 37.175 37.207 37.232 37.147 37.07 36.945 36.812 36.675 36.577 36.425 36.312 36.215 36.113 36.017 35.951 35.831 35.731 35.962 36.82 36.916 35.961 35.857 35.813 35.832 35.915 35.354 35.368 35.431 35.456 35.534 35.597 35.582 35.602 35.567 35.597 35.59 35.622 35.66 35.667 35.675 35.692 35.665 35.665 35.68 35.685 35.697 35.707 35.725 35.697 35.74 35.74 35.707 35.677 35.635 35.61 35.582 35.642 35.667 35.682 35.692 35.717 35.717 35.71 35.752 35.74 35.74 35.722 35.75 35.757 35.75 35.735 35.737 35.745 35.73 35.69 35.712 35.707 35.697 35.72 35.725 35.77 35.801 35.837 35.868 35.889 35.93 35.967 35.982 35.967 35.986 35.997 36.05 35.99 35.939 35.889 35.858 35.791 35.683 35.616 35.548 35.563 35.488 35.458 35.413 35.413 35.363 35.384 35.413 35.396 35.356 35.381 35.416 35.481 35.491 35.487 35.562 35.611 35.626 35.676 35.726 35.771 35.818 35.75 35.844 35.869 35.891 35.913 35.954 36.016 36.016 36.051 36.087 36.157 36.073 36.078 36.066 36.067 36.093 36.093 36.14 36.133 36.168 36.243 36.244 36.212 36.226 36.201 36.234 36.288 36.278 36.253 36.269 36.257 36.263 36.303 36.381 36.371 36.397 36.433 36.448 36.458 36.536 36.591 36.641 36.688 36.768 36.849 36.906 36.946 37.021 37.018 37.038 37.038 36.998 37.038 37.063 37.071 37.053 37.131 37.143 37.183 37.211 37.243 37.243 37.693 38.388 48.671 49.673 48.717 50.298 53.766 50.224 45.499 46.353 47.301 45.276 45.294 43.47 52.434 55.421 48.691 52.733 47.127 44.741 41.247 45.801 40.341 39.671 37.983 37.666 37.866 37.92 36.546 34.424 32.788 33.662 32.41 32.326 34.987 33.396 34.813 34.085 39.243 39.358 44.256 44.859 41.217 34.753 36.563 34.471 34.398 34.346 37.318 40.471 47.231 44.051 53.416 54.326 50.931 50.603 40.516 42.981 42.688 36.511 36.473 36.458 36.383 36.338 36.299 36.248 36.263 36.196 36.228 36.266 36.306 36.324 36.378 36.348 36.403 36.413 36.433 36.388 36.386 36.303 36.293 36.258 36.223 36.168 36.121 36.216 36.771 36.558 36.531 36.468 36.518 36.521 36.436 36.461 36.418 36.456 36.536 36.543 36.613 36.628 36.683 36.768 36.798 36.868 36.913 36.938 36.968 37.001 36.966 37.028 37.023 37.013 36.981 36.923 36.891 36.911 36.918 36.928 36.918 36.891 36.828 36.788 36.746 36.711 36.744 36.736 36.671 36.638 36.648 36.608 36.598 36.622 36.606 36.616 36.611 36.596 36.581 36.566 36.584 36.537 36.516 36.498 36.423 36.446 36.461 36.469 36.473 36.511 36.551 36.586 36.591 36.593 36.614 36.621 36.631 36.623 36.671 36.645 36.663 36.693 36.703 36.723 36.776 36.848 36.926 36.938 36.976 36.998 37.001 37.036 37.021 37.028 37.033 37.036 37.028 37.021 37.008 36.963 36.946 36.863 36.896 36.881 36.878 36.976 37.513 38.056 37.268 37.281 37.348 37.469 37.621 38.238 38.141 38.476 43.278 46.383 46.696 45.473 42.198 41.657 40.246 40.466 41.808 40.436 40.493 39.886 40.638 42.896 42.371 43.167 44.261 42.946 43.066 42.976 43.256 43.154 45.821 45.488 46.866 47.463 48.571 49.656 49.094 48.211 46.573 46.416 44.281 44.332 43.805 44.053 43.698 43.818 43.91
36.495 36.465 36.462 36.427 36.407 36.517 36.39 36.45 36.477 36.495 36.622 36.71 36.7 36.742 36.77 36.832 37.107 37.227 37.215 37.192 37.277 37.287 37.267 37.222 37.072 36.95 36.84 36.732 36.677 36.525 36.425 36.325 36.236 36.101 35.98 35.843 35.713 36.667 36.998 36.593 35.898 35.851 35.819 35.743 35.556 35.395 35.438 35.495 35.525 35.58 35.645 35.61 35.597 35.577 35.607 35.622 35.682 35.68 35.707 35.687 35.677 35.712 35.71 35.687 35.615 35.662 35.665 35.7 35.707 35.747 35.742 35.695 35.657 35.647 35.627 35.625 35.662 35.685 35.682 35.685 35.715 35.745 35.77 35.765 35.772 35.76 35.757 35.762 35.717 35.712 35.73 35.73 35.715 35.685 35.672 35.702 35.685 35.692 35.712 35.705 35.777 35.825 35.874 35.88 35.93 35.95 35.968 35.979 35.965 35.956 35.966 35.974 35.928 35.897 35.831 35.762 35.7 35.632 35.593 35.478 35.443 35.436 35.384 35.403 35.383 35.33 35.369 35.319 35.358 35.375 35.384 35.39 35.421 35.457 35.495 35.578 35.631 35.663 35.74 35.803 35.778 35.841 35.809 35.854 35.848 35.928 35.941 35.947 35.953 35.968 35.998 36.074 36.053 36.043 36.081 36.064 36.046 36.061 36.078 36.136 36.138 36.173 36.188 36.216 36.198 36.201 36.213 36.273 36.256 36.238 36.232 36.221 36.243 36.256 36.278 36.313 36.321 36.338 36.353 36.441 36.517 36.533 36.616 36.726 36.756 36.83 36.841 36.901 36.939 37.068 37.053 37.031 37.041 37.048 37.106 37.138 37.111 37.156 37.198 37.216 37.268 37.308 37.329 45.316 48.196 44.396 49.416 50.041 48.017 40.531 51.901 52.686 44.034 42.743 43.633 52.577 46.861 44.363 58.033 44.752 49.904 49.446 40.123 39.44 39.24 43.095 49.113 43.937 38.179 38.558 38.953 39.503 36.831 33.321 34.035 32.429 32.03 32.582 39.591 43.42 42.132 34.968 40.283 44.026 44.118 45.878 42.755 47.116 40.351 34.541 34.373 35.466 35.053 36.596 36.608 44.431 49.941 51.071 50.906 45.364 36.508 36.556 36.546 36.506 36.446 36.436 36.383 36.326 36.303 36.261 36.248 36.253 36.236 36.276 36.358 36.366 36.381 36.396 36.368 36.436 36.426 36.401 36.373 36.338 36.268 36.261 36.251 36.133 36.166 36.196 36.711 36.548 36.533 36.491 36.543 36.518 36.431 36.453 36.471 36.536 36.546 36.578 36.656 36.666 36.718 36.781 36.823 36.916 36.973 36.981 37.023 37.063 37.023 37.036 37.046 37.021 36.951 36.961 36.938 36.908 36.931 36.921 36.943 36.906 36.853 36.816 36.758 36.731 36.748 36.743 36.666 36.648 36.686 36.623 36.606 36.63 36.648 36.643 36.628 36.618 36.558 36.601 36.573 36.537 36.513 36.468 36.448 36.468 36.486 36.464 36.476 36.506 36.538 36.568 36.592 36.603 36.61 36.631 36.638 36.633 36.653 36.658 36.661 36.706 36.721 36.758 36.803 36.873 36.911 36.971 36.961 36.991 37.018 37.003 37.026 37.078 37.053 37.043 37.081 37.021 36.983 36.988 36.911 36.896 36.908 36.901 36.948 37.026 38.069 38.481 39.248 38.558 38.178 39.103 39.076 39.228 39.933 38.808 44.971 48.436 46.502 44.844 39.633 39.696 39.308 41.298 41.786 40.013 40.091 39.918 40.868 42.857 42.491 43.421 43.695 42.994 43.066 43.491 43.873 44.261 45.935 45.388 52.611 49.132 48.107 49.073 48.648 47.046 46.313 46.598 46.251 46.31 44.663 43.821 43.781 43.818 43.901
36.405 36.49 36.547 36.382 36.435 36.502 36.447 36.472 36.517 36.477 36.61 36.77 36.77 36.795 36.785 36.83 37.107 37.245 37.267 37.295 37.322 37.337 37.312 37.327 37.162 37.072 36.982 36.837 36.762 36.622 36.542 36.415 36.297 36.17 36.007 35.895 35.868 36.771 36.81 36.07 35.927 35.889 35.817 36.035 35.465 35.469 35.492 35.54 35.582 35.61 35.612 35.635 35.615 35.625 35.662 35.665 35.687 35.695 35.71 35.69 35.687 35.705 35.642 35.657 35.595 35.587 35.64 35.645 35.707 35.74 35.742 35.74 35.682 35.682 35.62 35.675 35.685 35.715 35.697 35.7 35.69 35.757 35.76 35.785 35.76 35.762 35.772 35.752 35.715 35.717 35.712 35.7 35.697 35.685 35.677 35.68 35.665 35.655 35.685 35.712 35.772 35.82 35.897 35.913 35.949 35.964 35.97 35.965 35.973 35.973 36.013 35.965 35.896 35.845 35.842 35.757 35.646 35.582 35.473 35.418 35.398 35.389 35.368 35.373 35.333 35.351 35.323 35.323 35.368 35.401 35.374 35.401 35.463 35.521 35.488 35.613 35.663 35.763 35.803 35.794 35.859 35.853 35.836 35.853 35.893 35.998 35.988 36.006 36.013 36.051 36.046 36.076 36.033 36.076 36.091 36.031 36.036 36.093 36.053 36.082 36.091 36.118 36.138 36.148 36.171 36.191 36.241 36.231 36.223 36.223 36.187 36.203 36.221 36.244 36.258 36.273 36.293 36.354 36.396 36.451 36.516 36.578 36.633 36.698 36.777 36.856 36.863 36.881 36.921 37.011 36.983 37.011 37.068 37.106 37.161 37.231 37.238 37.238 37.303 37.298 37.348 37.548 37.453 43.533 45.493 50.686 43.799 51.391 42.68 43.086 42.623 51.77 45.311 38.621 54.241 54.229 50.625 41.823 49.831 47.301 49.4 50.11 44.123 42.097 43.481 45.828 47.954 41.412 38.767 38.073 39.486 39.19 36.169 32.68 33.806 33.066 32.408 35.114 37.952 42.231 39.291 37.7 41.393 41.934 42.923 46.188 40.771 40.196 36.293 34.411 34.346 36.683 37.093 35.898 36.421 36.488 36.483 36.443 36.461 36.471 36.51 36.549 36.496 36.461 36.408 36.326 36.336 36.311 36.291 36.266 36.251 36.288 36.268 36.298 36.366 36.406 36.393 36.423 36.421 36.466 36.449 36.413 36.411 36.316 36.308 36.261 36.228 36.163 36.146 36.368 36.688 36.526 36.521 36.51 36.563 36.481 36.493 36.458 36.516 36.561 36.591 36.628 36.706 36.708 36.741 36.846 36.898 36.956 36.991 36.993 37.033 37.036 37.016 37.008 37.038 36.993 37.011 36.928 36.908 36.893 36.893 36.966 36.936 36.904 36.836 36.776 36.791 36.748 36.773 36.726 36.688 36.671 36.636 36.63 36.646 36.654 36.657 36.656 36.648 36.608 36.608 36.566 36.546 36.532 36.499 36.451 36.438 36.456 36.443 36.484 36.49 36.516 36.543 36.558 36.606 36.583 36.612 36.631 36.648 36.634 36.621 36.682 36.71 36.72 36.733 36.803 36.863 36.891 36.946 36.953 37.006 36.993 36.995 37.019 37.022 37.036 37.076 37.074 37.058 37.013 37.001 36.979 36.959 36.946 36.948 36.953 36.943 37.498 38.758 38.261 38.021 37.418 37.718 38.528 39.703 39.996 40.536 41.121 45.471 46.933 46.031 44.125 38.977 39.113 40.442 41.799 40.636 40.291 39.978 39.971 42.158 42.841 42.558 43.984 43.473 43.699 43.715 44.136 44.964 44.526 44.611 43.948 44.118 44.628 44.742 48.047 47.658 45.268 44.873 45.628 46.251 46.276 44.638 43.898 43.823 43.891 43.983
36.452 36.467 36.437 36.5 36.55 36.605 36.485 36.472 36.465 36.41 36.627 36.78 36.832 36.86 36.825 36.86 37.102 37.26 37.277 37.335 37.365 37.385 37.32 37.305 37.222 37.147 37.16 36.997 36.817 36.72 36.605 36.452 36.3 36.167 35.98 35.867 36.07 37.012 36.36 35.912 35.992 35.897 36.145 36.012 35.47 35.51 35.55 35.595 35.627 35.637 35.572 35.625 35.635 35.655 35.69 35.687 35.67 35.712 35.68 35.725 35.705 35.692 35.642 35.64 35.582 35.58 35.612 35.657 35.682 35.73 35.752 35.727 35.717 35.687 35.675 35.725 35.702 35.695 35.715 35.715 35.76 35.74 35.73 35.765 35.755 35.74 35.73 35.725 35.7 35.695 35.695 35.677 35.69 35.682 35.67 35.71 35.672 35.675 35.682 35.7 35.749 35.837 35.87 35.912 35.96 35.974 35.974 35.949 35.964 35.967 35.985 35.952 35.863 35.813 35.765 35.651 35.558 35.491 35.443 35.393 35.366 35.363 35.348 35.313 35.316 35.316 35.361 35.373 35.423 35.373 35.426 35.463 35.438 35.473 35.551 35.641 35.668 35.738 35.749 35.816 35.876 35.861 35.911 35.921 35.983 36.013 35.956 36.078 36.028 36.061 36.056 36.028 36.064 36.056 35.998 36.029 36.043 36.013 36.041 36.036 36.09 36.114 36.136 36.117 36.11 36.153 36.213 36.198 36.188 36.173 36.151 36.131 36.193 36.198 36.203 36.261 36.316 36.355 36.468 36.476 36.551 36.561 36.648 36.666 36.76 36.793 36.798 36.843 36.92 36.943 37.011 37.076 37.098 37.535 37.2 37.251 37.308 37.354 39.076 41.024 38.883 38.985 41.224 40.445 44.352 48.738 50.326 51.973 39.834 40.208 41.493 43.931 42.264 38.478 49.308 51.251 51.387 45.516 46.914 55.414 54.76 50.532 42.826 41.111 43.331 48.737 47.503 43.467 39.555 37.633 38.676 37.947 34.326 32.971 32.881 32.468 32.577 34.909 36.25 41.768 44.461 39.346 43.391 46.126 41.238 37.793 43.266 45.556 34.214 34.436 34.65 38.288 37.235 36.046 36.458 36.458 36.439 36.418 36.443 36.436 36.508 36.514 36.546 36.509 36.423 36.368 36.356 36.301 36.29 36.286 36.311 36.26 36.266 36.321 36.393 36.426 36.391 36.413 36.451 36.478 36.421 36.406 36.363 36.338 36.281 36.236 36.223 36.186 36.206 36.411 36.646 36.523 36.506 36.503 36.571 36.498 36.501 36.471 36.528 36.548 36.628 36.678 36.727 36.748 36.818 36.866 36.911 36.948 37.048 37.066 37.074 37.028 37.061 37.036 37.058 37.036 36.996 36.951 36.901 36.883 36.883 36.908 36.913 36.841 36.806 36.783 36.738 36.738 36.736 36.735 36.693 36.661 36.656 36.621 36.628 36.675 36.659 36.643 36.626 36.598 36.581 36.546 36.528 36.53 36.477 36.463 36.454 36.491 36.455 36.455 36.489 36.531 36.54 36.579 36.578 36.56 36.64 36.642 36.648 36.693 36.686 36.698 36.726 36.741 36.762 36.821 36.828 36.891 36.956 36.963 36.988 36.991 37.039 37.048 37.011 37.113 37.078 37.058 37.038 37.021 37.003 36.988 36.953 36.919 36.946 36.975 36.933 37.771 39.163 37.91 37.443 37.476 37.519 37.563 37.686 38.141 38.918 41.261 45.813 47.003 45.668 42.928 39.046 39.361 40.223 41.046 40.569 40.667 40.161 39.976 42.675 42.339 42.726 44.971 44.871 45.196 46.415 46.22 44.154 43.881 43.926 43.963 44.849 45.706 43.943 43.946 43.976 44.008 46.826 46.623 46.223 46.248 45.123 43.941 43.913 43.961 44.026
36.412 36.417 36.402 36.44 36.445 36.45 36.477 36.412 36.467 36.46 36.65 36.777 36.815 36.825 36.865 36.897 37.095 37.242 37.262 37.322 37.335 37.332 37.302 37.275 37.2 37.142 37.107 37.23 37.132 36.85 36.647 36.475 36.332 36.172 36.01 35.857 36.535 37.07 36.225 35.97 35.982 35.972 36.51 35.632 35.517 35.557 35.575 35.632 35.65 35.61 35.632 35.66 35.655 35.647 35.692 35.727 35.692 35.702 35.695 35.727 35.715 35.675 35.647 35.587 35.567 35.577 35.622 35.655 35.71 35.747 35.74 35.73 35.715 35.687 35.667 35.702 35.71 35.682 35.712 35.725 35.757 35.782 35.742 35.772 35.762 35.732 35.697 35.697 35.702 35.7 35.68 35.662 35.685 35.692 35.682 35.675 35.665 35.68 35.692 35.721 35.785 35.822 35.884 35.908 35.948 35.95 35.976 35.974 35.983 35.952 35.927 35.888 35.849 35.795 35.646 35.556 35.518 35.488 35.383 35.358 35.356 35.368 35.328 35.286 35.283 35.316 35.363 35.393 35.358 35.39 35.436 35.413 35.453 35.5 35.582 35.688 35.666 35.72 35.77 35.836 35.878 35.901 35.933 35.948 35.941 35.964 35.993 35.981 36.003 36.028 36.064 36.038 36.016 35.997 35.967 35.976 36.001 35.983 36.002 36.043 36.04 36.066 36.09 36.072 36.101 36.101 36.148 36.151 36.151 36.121 36.124 36.129 36.143 36.178 36.252 36.278 36.361 36.421 36.455 36.496 36.533 36.558 36.588 36.648 36.696 36.733 36.768 36.841 36.916 36.988 36.896 37.071 47.502 45.78 46.364 40.636 38.688 43.39 44.296 38.951 44.552 44.717 45.067 43.533 42.646 41.355 47.879 50.218 40.921 42.108 38.896 40.988 39.122 39.951 38.593 44.605 42.513 45.041 51.88 53.133 48.656 47.198 40.746 39.633 46.945 45.478 45.656 43.146 39.354 37.951 37.248 35.838 34.108 34.428 33.506 33.064 32.999 33.902 35.227 41.146 44.799 44.267 44.863 43.538 38.416 41.478 38.816 35.876 38.968 39.076 38.406 39.046 36.827 36.273 36.423 36.421 36.433 36.391 36.421 36.463 36.533 36.568 36.568 36.498 36.431 36.386 36.351 36.336 36.283 36.296 36.286 36.286 36.311 36.362 36.371 36.418 36.426 36.456 36.498 36.47 36.436 36.426 36.358 36.341 36.268 36.263 36.236 36.213 36.198 36.571 36.626 36.528 36.488 36.522 36.546 36.523 36.503 36.526 36.528 36.578 36.671 36.718 36.751 36.801 36.863 36.908 36.991 37.021 37.038 37.061 37.136 37.078 37.081 37.038 37.041 37.016 36.971 36.898 36.891 36.903 36.886 36.911 36.886 36.906 36.791 36.736 36.723 36.716 36.708 36.706 36.676 36.638 36.668 36.596 36.623 36.636 36.654 36.626 36.611 36.591 36.581 36.552 36.538 36.545 36.488 36.451 36.436 36.456 36.428 36.446 36.481 36.521 36.533 36.533 36.563 36.581 36.623 36.634 36.648 36.673 36.693 36.708 36.733 36.729 36.755 36.791 36.803 36.888 36.943 36.961 37.029 37.018 37.046 37.048 37.081 37.078 37.043 37.043 37.047 37.014 36.988 36.973 36.981 37.071 36.913 37.06 37.116 37.381 38.374 37.446 37.433 37.498 37.666 37.688 37.793 37.993 38.074 41.501 46.396 46.666 45.358 40.918 38.975 39.283 39.743 40.466 40.471 40.281 40.179 40.021 44.091 42.875 44.325 45.696 44.379 46.181 47.526 47.303 45.356 43.921 44.153 43.981 45.698 45.154 44.104 43.988 44.466 44.018 44.376 46.193 46.236 46.298 45.283 43.959 43.921 43.988 44.064
36.442 36.385 36.42 36.43 36.425 36.457 36.45 36.502 36.512 36.47 36.562 36.745 36.747 36.802 36.842 36.922 37.085 37.2 37.287 37.32 37.33 37.35 37.385 37.375 37.27 37.172 37.097 37.065 37.032 37.05 36.885 36.547 36.35 36.18 35.972 35.987 36.625 36.737 35.962 35.975 35.98 36.212 36.255 35.512 35.53 35.565 35.622 35.617 35.64 35.662 35.665 35.667 35.677 35.67 35.675 35.685 35.695 35.725 35.717 35.657 35.67 35.655 35.635 35.6 35.595 35.59 35.592 35.635 35.69 35.74 35.737 35.732 35.685 35.712 35.697 35.735 35.715 35.727 35.73 35.757 35.75 35.73 35.787 35.815 35.792 35.747 35.66 35.667 35.662 35.662 35.66 35.64 35.672 35.682 35.697 35.66 35.667 35.67 35.679 35.733 35.789 35.853 35.867 35.906 35.944 35.948 35.955 35.988 35.973 35.941 35.883 35.863 35.766 35.691 35.568 35.509 35.448 35.356 35.299 35.335 35.345 35.333 35.303 35.275 35.268 35.322 35.328 35.36 35.35 35.33 35.416 35.446 35.483 35.493 35.566 35.666 35.655 35.765 35.818 35.851 35.88 35.919 35.913 35.968 36.023 35.979 35.983 36.011 36.053 36.059 36.045 35.961 36.008 36.056 35.934 35.963 35.946 35.981 35.964 35.993 35.971 35.993 36.02 35.983 35.968 36.038 36.073 36.083 36.076 36.086 36.1 36.148 36.221 36.278 36.302 36.351 36.346 36.379 36.419 36.443 36.478 36.498 36.582 36.653 36.713 36.743 36.821 36.893 36.883 40.724 38.882 37.121 45.251 48.936 46.551 50.471 45.569 44.604 41.841 44.001 41.871 45.341 46.433 44.285 42.261 40.778 39.031 40.621 39.989 45.293 38.478 38.458 38.531 38.928 39.558 42.878 40.868 42.955 50 41.341 44.153 38.286 40.786 44.735 47.119 43.238 42.536 42.979 39.228 37.647 35.367 33.519 33.356 33.988 32.904 32.58 32.621 34.166 35.8 40.318 43.388 44.825 42.77 42.38 39.778 38.723 37.701 38.268 39.041 38.701 39.013 38.846 37.178 36.441 36.392 36.408 36.386 36.396 36.463 36.471 36.583 36.558 36.548 36.493 36.413 36.358 36.313 36.311 36.291 36.291 36.266 36.261 36.333 36.381 36.378 36.413 36.418 36.416 36.483 36.478 36.501 36.426 36.374 36.311 36.273 36.271 36.243 36.226 36.226 36.64 36.583 36.528 36.483 36.558 36.526 36.539 36.536 36.518 36.528 36.571 36.676 36.758 36.777 36.836 36.848 36.948 36.996 37.046 37.088 37.081 37.083 37.041 37.048 36.986 36.981 36.978 36.991 36.956 36.873 36.873 36.876 36.891 36.871 36.846 36.768 36.778 36.688 36.686 36.673 36.673 36.661 36.646 36.616 36.575 36.58 36.608 36.603 36.61 36.596 36.603 36.55 36.523 36.503 36.508 36.469 36.443 36.421 36.436 36.443 36.451 36.468 36.507 36.541 36.563 36.586 36.616 36.651 36.646 36.686 36.696 36.703 36.708 36.708 36.751 36.756 36.798 36.858 36.948 36.953 37.011 37.023 37.021 37.031 37.051 37.026 37.081 37.043 37.061 37.028 36.983 36.983 37.038 37.861 38.404 38.402 38.221 38.236 38.006 40.278 40.03 38.981 37.527 38.811 39.401 38.494 38.003 38.622 42.956 42.898 44.124 45.183 40.626 39.11 39.422 39.846 40.846 40.411 40.144 40.326 42.911 44.312 43.378 43.147 43.521 43.743 45.714 48.415 48.191 45.747 43.922 43.913 43.893 44.711 45.222 44.004 44.444 44.056 44.051 44.118 45.779 46.233 46.251 45.146 43.936 44.011 43.983 44.057
36.39 36.382 36.447 36.452 36.395 36.435 36.535 36.562 36.402 36.427 36.557 36.702 36.722 36.812 36.857 36.952 37.102 37.242 37.32 37.35 37.387 37.437 37.442 37.445 37.345 37.26 37.175 37.052 36.972 36.89 36.867 36.752 36.5 36.212 35.96 35.912 36.577 36.335 35.942 35.975 35.937 36.375 35.857 35.537 35.562 35.557 35.647 35.662 35.645 35.667 35.67 35.667 35.677 35.655 35.675 35.69 35.707 35.705 35.705 35.677 35.65 35.637 35.642 35.642 35.582 35.615 35.612 35.675 35.667 35.695 35.752 35.722 35.677 35.712 35.735 35.772 35.727 35.69 35.71 35.717 35.785 35.76 35.817 35.802 35.795 35.762 35.737 35.702 35.687 35.705 35.695 35.667 35.685 35.655 35.667 35.682 35.692 35.687 35.725 35.775 35.812 35.835 35.869 35.918 35.939 35.956 35.942 35.946 35.907 35.893 35.859 35.736 35.663 35.56 35.531 35.389 35.33 35.308 35.333 35.319 35.336 35.293 35.271 35.279 35.281 35.333 35.343 35.356 35.383 35.393 35.426 35.468 35.51 35.528 35.606 35.703 35.686 35.788 35.863 35.926 35.958 35.936 35.971 36.016 35.993 35.938 35.953 36.016 36.096 36.051 36.028 36.056 36.026 35.941 35.921 35.933 35.981 35.933 35.941 35.928 35.981 35.976 35.938 35.903 35.949 35.993 36.041 36.016 36.097 36.126 36.191 36.218 36.263 36.246 36.291 36.311 36.33 36.348 36.377 36.438 36.514 36.561 36.621 37.108 36.641 36.729 38.288 38.064 40.5 44.019 41.967 39.661 44.12 48.211 49.393 51.165 50.962 44.671 46.014 40.67 43.811 40.467 46.471 42.918 43.228 42.183 39.078 38.921 38.761 38.753 39.087 39.384 38.588 46.176 45.055 43.313 42.833 48.488 41.538 38.153 38.258 39.953 44.207 46.558 47.309 43.753 44.396 39.764 38.256 36.713 34.974 33.577 32.666 33.253 32.295 32.054 32.865 35.566 37.131 38.929 40.808 41.4 37.458 39.816 36.256 39.996 35.637 39.69 40.345 39.621 39.716 37.63 36.853 36.371 36.348 36.358 36.378 36.386 36.462 36.523 36.603 36.593 36.528 36.478 36.426 36.351 36.311 36.283 36.267 36.296 36.298 36.293 36.348 36.408 36.403 36.391 36.426 36.446 36.503 36.486 36.461 36.418 36.358 36.301 36.261 36.246 36.213 36.211 36.228 36.706 36.568 36.521 36.456 36.501 36.561 36.511 36.556 36.526 36.568 36.603 36.663 36.753 36.808 36.913 36.923 36.943 37.006 37.058 37.121 37.128 37.09 37.056 37.026 36.991 36.991 36.976 36.943 36.926 36.886 36.876 36.856 36.853 36.866 36.853 36.786 36.706 36.673 36.663 36.661 36.606 36.661 36.628 36.586 36.563 36.604 36.583 36.593 36.604 36.571 36.586 36.534 36.516 36.521 36.488 36.459 36.417 36.443 36.447 36.458 36.471 36.502 36.524 36.561 36.576 36.631 36.641 36.663 36.683 36.705 36.691 36.723 36.726 36.733 36.781 36.827 36.863 36.893 36.957 36.996 37.009 37.038 37.058 37.018 37.068 37.043 37.053 37.041 37.036 37.038 37.033 37.018 37.036 37.806 37.463 38.118 37.948 37.926 38.681 39.641 40.831 40.283 38.918 39.621 40.248 39.751 38.957 39.853 41.981 42.731 42.423 41.982 38.921 39.181 39.397 39.681 40.403 40.442 40.348 40.342 44.158 44.416 43.001 43.371 43.404 43.826 48.473 50.158 50.136 50.081 50.088 50.053 49.794 48.212 45.423 44.001 47.831 50.027 49.477 48.228 45.646 46.291 46.288 45.773 44.083 44.021 44.048 44.096
36.42 36.415 36.357 36.387 36.442 36.385 36.437 36.5 36.432 36.455 36.612 36.765 36.73 36.737 36.847 37.027 37.132 37.33 37.397 37.367 37.422 37.412 37.445 37.422 37.31 37.272 37.242 37.145 36.997 36.847 36.722 36.61 36.597 36.237 35.927 36.165 36.517 35.977 35.97 36.005 35.905 35.75 35.582 35.59 35.6 35.6 35.652 35.657 35.655 35.645 35.642 35.67 35.692 35.685 35.677 35.667 35.69 35.71 35.705 35.675 35.652 35.647 35.635 35.672 35.665 35.69 35.687 35.745 35.725 35.697 35.707 35.71 35.695 35.71 35.72 35.747 35.73 35.732 35.725 35.735 35.752 35.77 35.8 35.81 35.78 35.78 35.762 35.732 35.735 35.747 35.705 35.675 35.695 35.712 35.685 35.695 35.697 35.708 35.726 35.766 35.828 35.853 35.895 35.912 35.925 35.934 35.932 35.89 35.876 35.839 35.763 35.662 35.617 35.488 35.387 35.278 35.293 35.288 35.298 35.283 35.298 35.273 35.223 35.251 35.271 35.318 35.328 35.366 35.393 35.426 35.486 35.478 35.511 35.581 35.607 35.653 35.728 35.811 35.89 35.931 35.897 35.971 35.998 35.941 35.948 36.006 36.031 36.073 35.973 36.063 36.023 35.971 35.946 35.906 35.893 35.953 35.908 35.956 35.933 35.954 35.931 35.908 35.888 35.871 35.923 35.991 36.011 36.063 36.136 36.151 36.183 36.202 36.204 36.191 36.217 36.266 36.328 36.373 36.401 36.481 36.928 36.981 36.468 38.588 43.947 42.831 49.571 45.359 41.167 46.902 41.939 43.956 48.941 48.828 49.762 50.611 48.151 44.394 46.061 42.126 48.556 40.776 41.642 43.28 44.208 43.896 39.158 44.604 45.364 43.033 39.885 38.653 40.446 44.618 44.206 43.261 47.535 39.31 38.982 44.37 38.331 39.783 42.121 43.246 46.268 44.339 40.981 39.193 39.05 38.182 34.88 33.287 32.198 32.032 32.115 31.943 31.89 33.383 36.544 38.179 37.544 35.798 39.26 39.073 41.891 40.256 41.463 41.854 40.936 41.336 40.673 39.298 36.531 36.253 36.308 36.394 36.406 36.438 36.435 36.52 36.603 36.573 36.536 36.481 36.381 36.341 36.288 36.269 36.231 36.287 36.271 36.271 36.308 36.416 36.391 36.393 36.431 36.418 36.483 36.479 36.466 36.388 36.378 36.306 36.222 36.256 36.191 36.174 36.281 36.751 36.593 36.533 36.513 36.533 36.533 36.481 36.526 36.518 36.581 36.653 36.741 36.813 36.831 36.921 36.936 36.973 37.006 37.048 37.065 37.098 37.061 37.033 37.023 36.993 36.951 36.967 36.941 36.918 36.841 36.841 36.831 36.816 36.873 36.818 36.755 36.688 36.688 36.668 36.638 36.598 36.621 36.617 36.58 36.548 36.58 36.61 36.583 36.589 36.585 36.553 36.533 36.516 36.516 36.518 36.479 36.44 36.443 36.483 36.476 36.508 36.518 36.535 36.561 36.588 36.636 36.658 36.676 36.703 36.721 36.703 36.718 36.751 36.776 36.781 36.836 36.863 36.928 36.968 36.993 37.023 37.046 37.081 37.088 37.058 37.075 37.071 37.081 37.068 37.093 37.053 37.051 37.061 37.47 37.171 37.113 37.279 37.141 37.201 37.463 38.238 38.611 38.766 40.531 41.579 41.543 40.695 40.612 41.229 41.393 40.511 39.001 39.393 40.508 40.958 39.873 40.656 40.093 40.101 40.128 44.776 44.291 42.971 43.136 43.728 44.266 47.633 50.741 51.121 51.094 51.054 51.1 50.711 49.129 45.039 44.019 47.428 50.976 51.024 49.13 44.844 44.841 45.406 46.75 46.573 46.753 47.628 47.667
36.497 36.527 36.46 36.52 36.592 36.52 36.537 36.475 36.465 36.487 36.67 36.907 36.885 36.832 36.907 37.04 37.152 37.387 37.522 37.32 37.342 37.377 37.405 37.41 37.385 37.337 37.247 37.145 37.027 36.907 36.71 36.535 36.382 36.15 35.937 36.127 36.262 35.945 35.96 35.987 36.542 36.27 35.597 35.655 35.635 35.627 35.665 35.637 35.665 35.642 35.647 35.66 35.7 35.732 35.687 35.712 35.727 35.725 35.717 35.675 35.645 35.65 35.665 35.662 35.662 35.7 35.697 35.752 35.785 35.742 35.73 35.71 35.705 35.747 35.752 35.755 35.73 35.722 35.715 35.772 35.755 35.727 35.77 35.77 35.775 35.782 35.775 35.735 35.75 35.797 35.76 35.755 35.737 35.715 35.707 35.7 35.682 35.677 35.716 35.762 35.817 35.856 35.875 35.896 35.891 35.88 35.888 35.852 35.823 35.77 35.662 35.577 35.509 35.366 35.321 35.273 35.246 35.241 35.238 35.251 35.248 35.234 35.211 35.263 35.291 35.303 35.333 35.366 35.406 35.461 35.461 35.469 35.528 35.551 35.583 35.668 35.771 35.806 35.846 35.889 35.897 35.933 35.918 35.923 35.943 35.957 35.983 35.977 35.97 36.022 35.936 35.908 35.865 35.871 35.862 35.876 35.878 35.901 35.891 35.886 35.884 35.908 35.923 35.976 35.992 36.007 36.023 36.093 36.068 36.093 36.093 36.081 36.118 36.178 36.259 36.278 36.333 36.379 36.424 36.406 39.851 39.732 41.621 38.243 47.31 51.218 50.331 49.733 50.493 52.381 49.976 42.962 41.501 50.04 47.929 44.436 44.531 44.078 40.756 41.965 41.145 40.398 42.578 40.091 41.618 39.748 39.05 45.671 54.698 50.227 43.978 40.492 46.764 40.216 41.858 46.502 43.373 38.338 38.383 38.376 38.621 38.797 40.326 44.815 45.458 41.401 39.888 40.166 40.988 38.694 36.017 34.801 32.868 32.051 32.006 31.962 31.871 31.853 32.216 33.671 36.732 39.873 40.611 39.243 44.443 45.529 41.553 41.257 40.251 38.186 39.848 37.968 36.391 36.206 36.311 36.418 36.403 36.411 36.496 36.578 36.581 36.531 36.516 36.421 36.348 36.308 36.263 36.291 36.242 36.253 36.263 36.298 36.328 36.348 36.378 36.423 36.423 36.451 36.463 36.442 36.413 36.393 36.343 36.306 36.268 36.207 36.171 36.181 36.285 36.721 36.561 36.498 36.521 36.581 36.556 36.541 36.564 36.583 36.626 36.718 36.758 36.851 36.871 36.916 36.978 36.971 36.988 37.043 37.093 37.108 37.065 37.013 37.008 36.961 36.961 36.938 36.926 36.904 36.881 36.808 36.826 36.806 36.801 36.772 36.771 36.698 36.633 36.621 36.631 36.546 36.569 36.585 36.584 36.543 36.56 36.571 36.563 36.593 36.58 36.584 36.533 36.558 36.521 36.503 36.474 36.464 36.483 36.466 36.501 36.526 36.546 36.576 36.589 36.596 36.656 36.676 36.693 36.706 36.718 36.735 36.778 36.758 36.801 36.841 36.886 36.921 36.923 36.986 37.003 37.061 37.036 37.078 37.036 37.061 37.058 37.101 37.106 37.108 37.116 37.078 37.108 37.143 38.286 37.303 37.118 37.151 37.16 37.179 37.426 37.669 37.704 37.786 41.215 42.418 42.524 39.603 39.978 39.846 39.038 38.788 39.313 40.172 40.571 42.097 40.013 40.445 40.026 40.161 41.586 44.588 43.668 42.806 43.301 43.801 44.144 48.303 50.043 50.417 50.433 50.421 50.463 50.658 48.45 45.225 44.008 49.295 51.371 50.782 49.663 45.388 47.586 47.506 47.474 46.488 45.993 46.613 47.026
36.552 36.632 36.605 36.602 36.637 36.6 36.552 36.492 36.447 36.542 36.697 36.975 36.947 36.912 36.947 37.027 37.175 37.392 37.635 37.305 37.37 37.39 37.372 37.407 37.387 37.337 37.26 37.155 37.037 36.895 36.742 36.562 36.375 36.162 35.952 35.93 36.122 35.977 36.02 35.902 35.922 35.8 35.715 35.695 35.71 35.687 35.655 35.66 35.702 35.692 35.7 35.692 35.717 35.74 35.772 35.762 35.755 35.717 35.72 35.68 35.66 35.657 35.655 35.68 35.725 35.717 35.702 35.72 35.775 35.762 35.767 35.765 35.735 35.777 35.787 35.76 35.755 35.732 35.745 35.782 35.76 35.767 35.772 35.785 35.795 35.777 35.802 35.79 35.807 35.782 35.782 35.772 35.772 35.702 35.692 35.687 35.692 35.665 35.677 35.726 35.797 35.83 35.865 35.893 35.889 35.867 35.855 35.798 35.735 35.674 35.598 35.507 35.403 35.311 35.251 35.188 35.221 35.203 35.191 35.231 35.193 35.232 35.257 35.261 35.301 35.308 35.336 35.391 35.428 35.395 35.449 35.459 35.511 35.548 35.599 35.678 35.704 35.808 35.798 35.841 35.843 35.891 35.894 35.907 35.936 35.941 36.023 35.974 35.946 35.888 35.866 35.93 35.884 35.863 35.886 35.923 35.888 35.908 35.883 35.911 35.937 35.923 35.951 35.96 35.96 35.988 36.011 35.993 35.983 36.029 36.048 36.044 36.145 36.183 36.258 36.289 36.35 36.402 36.881 40.178 39.086 42.504 39.427 44.008 49.693 49.666 49.306 51.307 52.273 46.566 43.047 45.624 51.671 50.134 45.186 42.818 45.404 40.457 40.018 39.889 40.329 40.771 42.117 40.893 39.759 43.019 39.211 44.031 50.178 42.786 48.687 42.104 40.824 39.941 45.908 47.683 38.434 38.449 38.421 40.775 42.378 41.283 39.057 42.103 42.526 40.201 38.336 40.526 39.336 36.602 35.052 34.848 33.66 31.976 32.049 32.014 31.9 31.901 31.935 31.888 32.076 38.676 40.928 40.826 43.442 45.563 46.372 42.48 39.068 43.611 40.503 36.638 36.333 36.223 36.356 36.376 36.402 36.386 36.436 36.497 36.557 36.503 36.433 36.401 36.293 36.283 36.266 36.228 36.235 36.251 36.231 36.246 36.351 36.362 36.371 36.373 36.426 36.433 36.441 36.461 36.419 36.355 36.323 36.291 36.271 36.193 36.151 36.153 36.341 36.743 36.613 36.491 36.543 36.548 36.543 36.546 36.561 36.611 36.648 36.721 36.821 36.848 36.936 36.933 37.001 37.046 36.991 37.056 37.098 37.098 37.093 37.03 36.998 36.993 36.958 36.928 36.928 36.918 36.921 36.826 36.826 36.766 36.753 36.773 36.731 36.656 36.628 36.576 36.606 36.576 36.586 36.55 36.548 36.528 36.57 36.561 36.573 36.597 36.548 36.555 36.538 36.518 36.501 36.521 36.496 36.455 36.5 36.492 36.501 36.536 36.558 36.601 36.606 36.627 36.678 36.708 36.758 36.761 36.788 36.798 36.791 36.821 36.836 36.881 36.911 36.956 37.016 37.008 37.043 37.088 37.061 37.078 37.109 37.081 37.076 37.153 37.131 37.121 37.141 37.141 37.138 37.188 38.596 37.106 37.131 37.146 37.178 37.241 37.441 39.743 38.728 37.726 41.111 44.381 44.344 43.137 42.726 42.115 38.556 39.877 40.428 39.428 39.511 39.824 39.776 39.958 40.04 40.161 42.818 44.875 43.723 42.943 43.251 43.723 43.856 46.263 47.781 47.01 47.379 49.243 49.373 49.371 49.022 47.708 44.383 48.496 51.243 50.656 49.628 47.001 47.636 48.199 47.553 46.45 44.581 44.538 44.593
36.602 36.667 36.707 36.71 36.737 36.777 36.8 36.762 36.662 36.702 36.79 37.005 36.997 36.98 37.027 37.09 37.182 37.437 37.497 37.345 37.44 37.415 37.382 37.365 37.4 37.35 37.265 37.167 37.002 36.88 36.705 36.537 36.4 36.172 36 36.11 36.007 36.05 36.05 35.9 35.7 35.67 35.7 35.682 35.715 35.687 35.652 35.657 35.717 35.702 35.687 35.742 35.747 35.75 35.767 35.765 35.732 35.66 35.687 35.655 35.652 35.657 35.657 35.707 35.7 35.712 35.74 35.727 35.71 35.77 35.785 35.757 35.745 35.767 35.777 35.745 35.76 35.767 35.77 35.765 35.745 35.715 35.727 35.73 35.762 35.76 35.805 35.85 35.835 35.805 35.802 35.762 35.725 35.71 35.69 35.667 35.679 35.674 35.666 35.72 35.781 35.808 35.842 35.868 35.883 35.83 35.803 35.77 35.671 35.627 35.525 35.43 35.371 35.268 35.168 35.183 35.177 35.197 35.183 35.178 35.203 35.206 35.223 35.261 35.287 35.3 35.343 35.373 35.406 35.416 35.436 35.47 35.478 35.532 35.617 35.701 35.738 35.798 35.751 35.801 35.843 35.898 35.928 35.868 35.943 35.973 35.911 35.848 35.873 35.913 35.891 35.893 35.848 35.928 35.928 35.848 35.883 35.908 35.961 35.943 35.956 35.954 35.971 35.955 35.901 35.878 35.965 35.962 35.973 36.026 36.04 36.083 36.091 36.084 36.25 36.262 36.715 37.53 42.998 47.03 42.052 47.261 48.297 44.925 40.594 39.748 48.297 52.961 54.28 54.267 51.111 53.287 54.513 55.602 48.404 44.008 45.234 41.606 45.333 44.473 45.339 40.745 42.676 42.915 42.371 40.283 39.75 41.097 39.151 39.073 45.431 40.656 41.474 42.287 41.426 41.552 38.453 38.501 38.418 42.123 42.956 43.98 41.578 41.726 42.523 41.593 39.013 40.639 38.169 35.16 35.205 33.75 32.308 31.957 31.952 31.947 31.922 31.933 31.905 31.88 31.873 34.508 37.25 42.277 41.406 45.338 42.911 43.951 40.736 38.601 36.873 36.421 36.216 36.236 36.336 36.401 36.394 36.419 36.476 36.546 36.538 36.511 36.398 36.353 36.286 36.256 36.206 36.176 36.201 36.221 36.209 36.268 36.336 36.346 36.401 36.413 36.408 36.446 36.456 36.431 36.358 36.345 36.33 36.241 36.231 36.156 36.161 36.156 36.491 36.701 36.576 36.534 36.561 36.576 36.566 36.561 36.603 36.658 36.71 36.756 36.811 36.858 36.913 37.003 37.061 37.046 37.053 37.113 37.106 37.123 37.091 37.068 37.031 36.965 36.971 36.918 36.903 36.863 36.858 36.841 36.818 36.773 36.761 36.731 36.701 36.693 36.618 36.616 36.591 36.566 36.573 36.556 36.57 36.547 36.583 36.603 36.588 36.586 36.575 36.554 36.546 36.551 36.561 36.541 36.508 36.486 36.538 36.546 36.546 36.553 36.603 36.618 36.639 36.67 36.721 36.736 36.763 36.791 36.793 36.836 36.829 36.831 36.873 36.923 36.938 36.996 37.026 37.048 37.086 37.111 37.131 37.128 37.116 37.131 37.141 37.154 37.196 37.178 37.173 37.168 37.196 37.321 38.211 37.153 37.138 37.551 37.223 37.408 40.643 42.688 41.833 38.771 41.256 43.816 44.324 44.666 44.404 43.353 38.326 39.051 39.373 39.411 39.496 39.666 39.931 40.069 40.082 40.216 42.831 45.397 45.638 43.901 44.111 44.636 44.712 45.985 47.656 46.488 44.101 43.911 46.426 47.021 47.681 47.551 44.181 48.539 51.363 50.693 48.091 46.313 47.548 47.158 47.621 47.608 44.988 46.928 45.492
36.825 36.84 36.772 36.767 36.8 36.852 36.882 36.935 36.97 36.905 36.952 37.07 37.01 37.035 37.077 37.12 37.175 37.36 37.517 37.417 37.59 37.42 37.37 37.385 37.39 37.362 37.26 37.18 37.02 36.87 36.737 36.58 36.365 36.207 36.092 36.147 36.032 36.065 36.03 35.825 35.755 35.665 35.677 35.69 35.7 35.7 35.655 35.67 35.68 35.705 35.702 35.725 35.725 35.715 35.71 35.655 35.645 35.6 35.62 35.64 35.647 35.667 35.687 35.69 35.727 35.717 35.717 35.697 35.707 35.76 35.805 35.772 35.75 35.737 35.747 35.722 35.732 35.762 35.77 35.747 35.735 35.715 35.732 35.725 35.71 35.717 35.777 35.782 35.805 35.827 35.785 35.727 35.71 35.705 35.672 35.635 35.701 35.74 35.7 35.743 35.765 35.779 35.791 35.79 35.805 35.786 35.773 35.716 35.621 35.518 35.438 35.344 35.292 35.213 35.166 35.16 35.148 35.163 35.163 35.157 35.15 35.166 35.211 35.271 35.298 35.282 35.338 35.353 35.421 35.411 35.408 35.481 35.511 35.576 35.601 35.663 35.703 35.738 35.746 35.773 35.841 35.813 35.801 35.888 35.891 35.836 35.838 35.828 35.896 35.911 35.838 35.863 35.893 35.858 35.853 35.918 35.926 35.936 35.923 35.972 35.931 35.904 35.898 35.888 35.903 35.914 35.935 35.954 35.982 36.049 37.419 41.327 42.363 45.646 45.968 42.277 42.131 47.565 45.673 47.188 50.295 48.768 50.126 47.33 40.345 44.354 53.692 54.786 57.769 57.896 57.501 58.078 56.337 54.38 55.995 55.119 45.229 43.81 45.717 50.538 46.498 51.868 49.671 39.583 43.028 43.147 40.081 44.733 40.716 41.457 44.3 46.556 44.503 40.376 38.451 40.088 38.528 38.458 39.672 42.557 44.037 44.326 42.753 39.042 40.497 38.486 38.621 39.928 40.099 36.596 34.011 32.928 32.552 31.915 31.911 31.915 31.943 31.913 31.843 31.889 31.898 33.933 37.064 39.066 38.116 44.861 37.432 38.861 44.301 40.849 42.341 37.361 36.213 36.276 36.383 36.391 36.41 36.421 36.436 36.546 36.551 36.496 36.401 36.328 36.283 36.298 36.221 36.163 36.218 36.204 36.256 36.311 36.336 36.336 36.353 36.378 36.406 36.436 36.431 36.404 36.341 36.358 36.296 36.233 36.266 36.168 36.173 36.178 36.751 36.616 36.603 36.547 36.582 36.553 36.578 36.581 36.621 36.686 36.751 36.783 36.923 36.911 36.974 37.018 37.088 37.111 37.073 37.108 37.098 37.098 37.053 37.069 37.026 36.996 36.928 36.908 36.886 36.883 36.902 36.876 36.803 36.766 36.808 36.743 36.682 36.641 36.668 36.606 36.606 36.593 36.618 36.623 36.582 36.572 36.596 36.601 36.616 36.604 36.631 36.604 36.582 36.596 36.566 36.552 36.528 36.536 36.539 36.552 36.561 36.598 36.641 36.678 36.683 36.724 36.741 36.771 36.821 36.851 36.836 36.857 36.859 36.918 36.921 36.966 36.993 37.048 37.041 37.098 37.086 37.136 37.106 37.133 37.131 37.148 37.171 37.186 37.173 37.191 37.193 37.186 37.253 37.498 37.876 37.596 37.401 37.221 37.323 39.251 42.368 42.318 41.613 38.22 39.878 40.666 42.426 44.906 44.624 41.561 39.006 39.992 39.891 39.316 39.456 39.693 40.803 40.106 40.186 40.219 43.311 48.036 45.942 44.718 43.228 43.696 46.366 48.938 50.011 48.196 46.636 45.076 44.473 44.383 46.383 45.864 45.556 50.005 51.317 50.79 47.204 44.073 46.106 46.715 45.821 48.758 47.416 45.998 46.395
37.122 37.017 36.962 36.935 36.915 36.955 36.952 36.965 36.957 36.992 37.017 37.075 37.085 37.105 37.13 37.175 37.22 37.33 37.487 37.39 37.405 37.48 37.375 37.39 37.397 37.385 37.297 37.257 37.085 36.912 36.82 36.622 36.425 36.247 36.167 36.217 36.08 36.082 35.987 35.85 35.762 35.88 35.775 35.77 35.737 35.667 35.64 35.607 35.572 35.662 35.7 35.717 35.702 35.695 35.705 35.642 35.617 35.57 35.547 35.572 35.55 35.607 35.697 35.675 35.717 35.715 35.707 35.7 35.742 35.755 35.785 35.77 35.752 35.72 35.712 35.692 35.717 35.732 35.752 35.747 35.72 35.73 35.745 35.695 35.717 35.755 35.772 35.74 35.742 35.782 35.762 35.715 35.66 35.662 35.655 35.674 35.657 35.693 35.731 35.77 35.773 35.793 35.753 35.769 35.769 35.759 35.728 35.675 35.53 35.471 35.339 35.184 35.128 35.143 35.125 35.081 35.098 35.116 35.143 35.156 35.131 35.188 35.223 35.268 35.276 35.283 35.318 35.363 35.391 35.413 35.451 35.516 35.503 35.591 35.618 35.668 35.673 35.703 35.763 35.786 35.753 35.768 35.777 35.781 35.808 35.828 35.795 35.841 35.871 35.855 35.862 35.866 35.896 35.908 35.923 35.946 35.953 35.936 35.874 35.87 35.868 35.901 35.893 35.906 35.943 35.948 35.948 40.225 46.174 45.374 45.771 47.797 48.603 49.988 47.136 44.011 46.145 48.887 50.486 47.255 51.618 49.799 43.446 45.335 48.833 51.381 56.623 57.448 58.952 59.196 57.143 56.326 56.42 53.898 57.009 55.691 54.558 56.369 51.769 52.872 44.596 50.843 44.948 39.878 39.375 40.043 39.303 43.319 44.381 47.257 46.991 48.646 40.996 38.553 38.541 38.526 38.528 38.465 38.346 41.957 42.945 43.14 42.466 38.523 37.948 38.581 38.352 37.257 40.467 36.722 33.512 34.653 33.48 31.995 31.931 31.934 31.964 31.963 31.883 31.942 31.936 34.887 37.689 42.448 46.133 40.201 37.891 41.738 36.646 39.191 41.153 38.608 36.522 36.276 36.401 36.413 36.461 36.425 36.478 36.578 36.523 36.533 36.388 36.328 36.288 36.251 36.179 36.196 36.198 36.207 36.23 36.256 36.323 36.356 36.411 36.418 36.433 36.453 36.466 36.421 36.401 36.326 36.273 36.232 36.245 36.221 36.166 36.223 36.763 36.628 36.606 36.541 36.56 36.593 36.553 36.631 36.681 36.771 36.828 36.936 36.926 36.966 37.041 37.07 37.094 37.115 37.108 37.101 37.138 37.101 37.053 37.066 37.035 36.978 36.993 36.946 36.883 36.863 36.898 36.896 36.816 36.811 36.778 36.726 36.691 36.716 36.637 36.618 36.618 36.633 36.613 36.608 36.618 36.591 36.653 36.638 36.651 36.617 36.613 36.611 36.631 36.604 36.598 36.563 36.548 36.558 36.581 36.574 36.633 36.661 36.658 36.741 36.768 36.793 36.806 36.836 36.868 36.856 36.883 36.908 36.906 36.926 36.952 37.021 37.076 37.053 37.076 37.146 37.151 37.15 37.168 37.156 37.172 37.198 37.246 37.208 37.186 37.231 37.221 37.218 37.273 37.501 38.111 37.916 38.218 37.796 37.848 38.911 41.678 41.611 41.371 38.643 39.116 40.536 43.011 44.958 44.608 39.593 38.813 40.011 39.169 39.245 39.363 39.931 41.626 40.146 40.243 40.46 42.833 46.803 47.636 45.738 43.134 43.823 49.798 51.208 51.938 50.578 48.762 45.458 44.626 44.493 44.361 44.144 45.229 48.141 48.443 48.263 46.622 44.023 44.493 44.337 45.548 49.673 49.012 46.801 46.639
37.412 37.287 37.182 37.135 37.037 37.02 36.99 36.955 36.915 36.985 37.075 37.087 37.14 37.16 37.17 37.23 37.275 37.347 37.472 37.377 37.35 37.397 37.445 37.407 37.377 37.357 37.267 37.247 37.122 36.957 36.855 36.637 36.46 36.9 36.665 36.172 36.142 36.142 36.252 35.79 35.81 35.627 35.735 35.757 35.677 35.545 35.497 35.597 35.49 35.555 35.625 35.69 35.71 35.655 35.672 35.662 35.637 35.62 35.58 35.595 35.56 35.57 35.577 35.635 35.7 35.722 35.747 35.747 35.75 35.765 35.755 35.742 35.727 35.715 35.71 35.707 35.705 35.727 35.742 35.72 35.702 35.725 35.695 35.665 35.672 35.662 35.69 35.692 35.752 35.75 35.765 35.725 35.685 35.697 35.645 35.695 35.73 35.739 35.748 35.771 35.795 35.814 35.766 35.776 35.753 35.706 35.638 35.54 35.469 35.397 35.212 35.138 35.123 35.088 35.073 35.063 35.113 35.081 35.071 35.108 35.133 35.153 35.196 35.197 35.261 35.266 35.301 35.331 35.373 35.368 35.448 35.433 35.449 35.547 35.566 35.631 35.605 35.617 35.658 35.666 35.713 35.725 35.723 35.723 35.805 35.8 35.807 35.803 35.906 35.881 35.858 35.896 35.908 35.976 35.934 35.893 35.873 35.871 35.863 35.886 35.876 35.891 35.9 35.941 35.921 35.958 39.674 46.59 44.793 43.225 45.471 48.608 48.928 45.409 47.402 38.876 44.629 53.947 55.984 55.263 53.777 50.838 40.071 48.551 52.57 52.936 53.836 58.26 54.773 55.346 58.604 53.629 56.714 56.253 51.561 54.023 48.285 51.431 54.8 54.819 49.058 45.557 47.796 48.925 39.889 41.434 46.235 46.74 45.361 41.084 44.663 46.497 39.708 38.616 38.586 38.57 38.504 38.321 38.229 40.579 40.711 41.942 40.454 37.733 37.824 38.321 37.684 39.923 40.3 36.609 34.76 34.243 33.288 31.978 31.924 31.939 31.965 31.871 31.96 31.932 31.992 34.415 42.616 45.828 40.198 41.658 40.184 39.933 41.513 37.021 36.743 36.317 36.253 36.296 36.388 36.433 36.471 36.413 36.461 36.521 36.531 36.476 36.416 36.361 36.286 36.233 36.188 36.186 36.216 36.201 36.25 36.285 36.338 36.383 36.391 36.403 36.443 36.488 36.486 36.408 36.395 36.273 36.271 36.252 36.249 36.201 36.178 36.296 36.738 36.639 36.596 36.611 36.623 36.624 36.642 36.686 36.736 36.813 36.931 36.981 37.011 37.073 37.078 37.146 37.106 37.118 37.178 37.138 37.131 37.106 37.098 37.098 37.033 37.018 37.003 36.923 36.886 36.876 36.883 36.891 36.87 36.805 36.788 36.743 36.716 36.696 36.716 36.633 36.651 36.661 36.636 36.628 36.633 36.614 36.657 36.653 36.658 36.648 36.61 36.661 36.637 36.634 36.591 36.59 36.593 36.601 36.611 36.633 36.654 36.706 36.738 36.753 36.778 36.853 36.866 36.896 36.906 36.926 36.933 36.928 36.996 36.998 37.011 37.063 37.076 37.078 37.126 37.196 37.158 37.216 37.183 37.213 37.201 37.206 37.256 37.239 37.233 37.236 37.237 37.271 37.338 37.926 37.256 37.278 37.263 37.271 37.299 37.361 38.968 39.823 38.926 38.836 38.871 39.946 44.041 45.189 44.308 41.816 39.213 39.656 38.998 39.084 39.453 40.316 41.571 40.223 40.268 41.128 44.171 43.486 43.469 43.405 43.398 44.401 49.881 51.249 51.953 50.556 48.358 45.483 44.203 43.803 44.361 44.618 44.993 45.861 44.419 44.633 44.463 43.986 44.495 44.401 45.589 45.201 44.889 45.403 45.061
37.847 37.597 37.49 37.325 37.185 37.077 37.032 36.947 36.917 36.985 37.047 37.117 37.147 37.187 37.19 37.227 37.275 37.34 37.432 37.397 37.357 37.415 37.572 37.45 37.37 37.367 37.282 37.225 37.152 36.987 36.9 36.717 36.767 37.575 37.067 36.222 36.192 36.192 36.847 36.242 35.602 35.535 35.53 35.56 35.765 35.567 35.435 35.482 35.492 35.522 35.54 35.57 35.615 35.61 35.637 35.677 35.697 35.715 35.64 35.63 35.625 35.622 35.615 35.615 35.632 35.65 35.712 35.742 35.762 35.785 35.78 35.72 35.705 35.68 35.705 35.695 35.692 35.73 35.715 35.697 35.707 35.692 35.692 35.677 35.657 35.625 35.68 35.682 35.712 35.73 35.732 35.747 35.71 35.702 35.721 35.707 35.733 35.765 35.786 35.779 35.779 35.763 35.77 35.734 35.698 35.613 35.533 35.45 35.359 35.267 35.156 35.113 35.081 35.053 35.058 35.078 35.051 35.053 35.051 35.091 35.123 35.123 35.144 35.205 35.223 35.256 35.252 35.315 35.324 35.293 35.344 35.4 35.438 35.446 35.488 35.566 35.556 35.573 35.633 35.673 35.638 35.668 35.703 35.788 35.815 35.796 35.833 35.881 35.886 35.841 35.846 35.831 35.891 35.891 35.853 35.861 35.876 35.866 35.893 35.911 36.179 36.642 36.221 40.238 36.574 36.048 36.81 46.327 45.266 36.914 42.147 49.408 41.23 40.098 41.723 38.919 49.728 55.289 56.081 54.258 54.391 53.204 43.464 52.254 50.778 46.48 50.238 57.851 51.64 47.781 56.848 56.426 57.206 55.479 55.407 55.299 54.927 54.793 52.497 53.115 46.907 50.098 47.423 54.45 45.142 43.223 47.213 44.68 43.639 45.299 39.236 39.2 38.738 38.718 38.612 38.552 38.986 38.617 38.386 38.508 41.046 42.158 42.034 39.118 38.659 39.032 37.507 39.438 39.381 33.621 33.036 33.191 32.198 31.999 31.911 31.902 31.881 31.914 31.892 31.907 31.989 33.876 40.391 46.911 46.18 38.193 40.213 39.148 39.347 37.156 36.581 36.359 36.261 36.291 36.433 36.421 36.443 36.413 36.498 36.553 36.548 36.489 36.393 36.333 36.333 36.233 36.171 36.192 36.178 36.193 36.263 36.309 36.338 36.401 36.441 36.433 36.456 36.481 36.488 36.416 36.385 36.32 36.236 36.288 36.204 36.186 36.176 36.316 36.791 36.628 36.583 36.623 36.651 36.631 36.702 36.681 36.781 36.863 36.951 37.001 37.068 37.093 37.138 37.166 37.153 37.141 37.153 37.188 37.176 37.128 37.106 37.076 37.083 36.996 36.994 36.936 36.928 36.913 36.911 36.871 36.896 36.871 36.791 36.728 36.693 36.698 36.708 36.693 36.661 36.658 36.678 36.631 36.631 36.663 36.679 36.682 36.666 36.674 36.643 36.659 36.656 36.649 36.618 36.588 36.643 36.623 36.638 36.666 36.694 36.76 36.754 36.821 36.856 36.878 36.901 36.931 36.961 36.948 36.966 36.991 37.006 37.063 37.056 37.076 37.116 37.173 37.203 37.206 37.236 37.211 37.213 37.231 37.228 37.251 37.288 37.266 37.266 37.276 37.263 37.336 37.358 38.026 37.326 37.298 37.281 37.328 37.323 37.436 39.906 38.718 38.217 37.871 37.88 37.853 44.118 44.963 44.019 41.267 40.506 39.716 38.953 38.961 39.495 40.603 41.276 40.251 40.333 40.303 44.558 43.368 43.001 43.346 43.188 43.58 49.826 51.451 51.723 50.193 49.347 45.416 44.756 43.733 43.726 43.903 43.742 43.972 43.908 43.861 43.976 43.941 44.003 44.016 44.025 44.141 44.191 44.208 44.231
38.127 37.925 37.767 37.597 37.417 37.252 37.137 37.017 36.942 36.997 37.097 37.122 37.14 37.192 37.202 37.212 37.265 37.28 37.307 37.345 37.382 37.407 37.462 37.41 37.377 37.397 37.305 37.26 37.2 37.05 36.935 36.82 37.66 37.91 36.407 36.287 36.305 36.322 36.647 36.627 36.38 35.885 35.782 35.707 35.582 35.535 35.492 35.522 35.51 35.555 35.547 35.555 35.625 35.657 35.697 35.685 35.722 35.797 35.78 35.797 35.72 35.625 35.632 35.64 35.655 35.607 35.597 35.652 35.755 35.787 35.767 35.712 35.692 35.67 35.69 35.737 35.715 35.712 35.705 35.687 35.707 35.687 35.702 35.692 35.66 35.587 35.632 35.677 35.685 35.7 35.72 35.712 35.707 35.689 35.688 35.716 35.722 35.761 35.782 35.769 35.771 35.774 35.716 35.675 35.578 35.568 35.488 35.35 35.277 35.18 35.101 35.028 35.021 35.016 35.018 35.011 35.028 35.051 35.091 35.078 35.069 35.096 35.154 35.151 35.158 35.198 35.218 35.227 35.243 35.283 35.254 35.341 35.346 35.388 35.471 35.47 35.546 35.606 35.633 35.633 35.636 35.693 35.751 35.781 35.743 35.811 35.871 35.836 35.863 35.803 35.841 35.781 35.796 35.821 35.876 35.868 35.896 35.898 35.926 35.956 40.384 42.697 45.061 39.051 36.263 41.451 46.357 49.591 46.561 47.287 51.37 50.203 44.021 39.725 40.501 40.554 43.721 55.561 55.976 52.482 55.491 57.985 48.091 56.571 47.412 41.799 49.821 52.408 48.635 55.813 56.439 49.663 50.338 52.563 49.147 48.803 42.056 50.051 52.188 47.899 50.383 47.897 47.782 46.871 45.764 41.996 39.591 39.203 45.314 47.091 38.861 39.148 39.14 39.264 39.453 40.229 39.98 38.694 38.608 39.093 40.735 42.223 40.568 37.823 39.7 40.557 37.213 37.663 34.791 33.126 34.201 33.32 32.047 31.878 31.888 31.939 31.936 31.903 31.897 31.896 32.438 34.951 35.293 36.626 37.523 37.123 39.641 39.531 37.326 37.331 36.571 36.343 36.353 36.383 36.416 36.414 36.441 36.459 36.521 36.513 36.558 36.466 36.412 36.348 36.258 36.263 36.183 36.181 36.202 36.211 36.253 36.371 36.341 36.408 36.443 36.431 36.463 36.483 36.461 36.426 36.389 36.34 36.264 36.286 36.218 36.203 36.218 36.506 36.716 36.676 36.591 36.661 36.696 36.66 36.702 36.783 36.806 36.914 36.963 37.041 37.086 37.148 37.153 37.154 37.176 37.158 37.163 37.161 37.196 37.158 37.103 37.103 37.061 37.043 36.997 36.961 36.921 36.903 36.883 36.881 36.876 36.926 36.883 36.739 36.751 36.736 36.748 36.733 36.702 36.701 36.666 36.651 36.626 36.678 36.678 36.676 36.691 36.681 36.681 36.691 36.676 36.67 36.66 36.635 36.663 36.683 36.66 36.678 36.741 36.76 36.803 36.823 36.878 36.926 36.951 36.949 36.972 36.966 37.003 37.031 37.073 37.096 37.108 37.122 37.173 37.216 37.201 37.248 37.273 37.261 37.241 37.246 37.238 37.281 37.308 37.293 37.323 37.281 37.283 37.348 37.381 38.096 37.356 37.308 37.318 37.358 37.351 37.511 39.161 37.878 37.879 37.858 39.473 40.746 44.046 45.053 43.992 39.868 39.991 39.313 38.871 39.023 39.646 41.251 41.343 40.266 40.351 42.121 44.363 43.086 43.058 43.244 43.343 45.689 49.978 51.485 51.766 50.243 47.12 43.927 44.274 43.853 43.706 43.668 43.673 43.718 43.711 43.855 43.832 43.908 43.953 43.948 44.006 44.091 44.181 44.211 44.628
38.16 38.12 37.965 37.802 37.607 37.437 37.255 37.192 37.12 37.145 37.132 37.145 37.19 37.235 37.202 37.217 37.252 37.327 37.302 37.312 37.36 37.385 37.4 37.402 37.417 37.385 37.337 37.3 37.225 37.06 36.922 37.035 38.245 37.457 36.435 36.422 36.447 36.835 36.58 36.43 36.282 36.03 35.772 35.567 35.76 35.532 35.487 35.487 35.472 35.57 35.57 35.565 35.625 35.682 35.71 35.787 35.775 35.81 35.855 35.875 35.87 35.735 35.722 35.715 35.672 35.675 35.675 35.68 35.665 35.662 35.697 35.715 35.712 35.67 35.667 35.707 35.705 35.672 35.702 35.72 35.695 35.695 35.67 35.672 35.647 35.602 35.617 35.662 35.665 35.682 35.725 35.778 35.74 35.702 35.697 35.709 35.738 35.767 35.775 35.758 35.76 35.729 35.675 35.631 35.546 35.498 35.395 35.293 35.192 35.109 35.008 34.939 34.961 34.988 34.978 34.981 35.028 35.008 34.983 35.006 35.009 35.068 35.116 35.103 35.118 35.127 35.188 35.151 35.196 35.201 35.216 35.261 35.323 35.381 35.363 35.443 35.503 35.531 35.553 35.601 35.668 35.721 35.693 35.736 35.786 35.816 35.793 35.711 35.731 35.756 35.756 35.786 35.846 35.846 35.801 35.858 35.933 35.975 36.015 36.843 43.961 46.303 47.131 40.486 38.271 46.824 49.901 46.528 48.126 49.416 49.464 43.087 44.132 40.701 49.408 53.614 52.536 53.03 56.717 56.158 55.572 58.406 54.653 57.405 42.537 41.901 46.831 57.528 57.703 54.726 49.614 49.806 51.252 51.486 51.567 42.22 41.455 48.253 51.312 51.033 50.068 47.781 47.553 40.56 42.492 40.526 39.358 39.026 41.148 39.241 39.381 39.714 40.181 40.128 39.665 39.938 38.888 38.591 38.551 39.063 40.406 41.357 39.801 37.606 39.743 37.826 37.176 36.298 35.493 35.59 33.556 33.228 32.153 31.907 31.925 31.98 31.981 31.901 31.885 31.857 33.727 35.575 33.888 35.391 37.131 38.561 37.396 36.341 37.056 37.131 36.641 36.376 36.321 36.441 36.411 36.436 36.479 36.495 36.529 36.563 36.537 36.491 36.395 36.343 36.326 36.233 36.183 36.188 36.218 36.246 36.283 36.371 36.388 36.436 36.416 36.438 36.47 36.505 36.463 36.438 36.381 36.331 36.271 36.273 36.223 36.208 36.188 36.548 36.743 36.675 36.626 36.696 36.686 36.693 36.717 36.789 36.881 36.928 36.988 37.056 37.083 37.171 37.176 37.191 37.228 37.213 37.204 37.176 37.236 37.196 37.123 37.088 37.063 37.018 37.016 36.969 36.931 36.933 36.931 36.931 36.921 36.886 36.871 36.816 36.78 36.735 36.743 36.728 36.695 36.688 36.671 36.648 36.683 36.703 36.706 36.733 36.715 36.704 36.691 36.686 36.708 36.676 36.695 36.647 36.678 36.673 36.691 36.751 36.748 36.786 36.834 36.888 36.896 36.938 36.997 37.004 36.979 37.018 37.049 37.093 37.108 37.108 37.166 37.168 37.183 37.191 37.251 37.273 37.268 37.298 37.263 37.288 37.286 37.281 37.328 37.313 37.308 37.311 37.316 37.381 37.396 38.043 37.343 37.311 37.363 37.381 37.383 37.776 39.876 37.903 37.938 38.263 40.913 42.173 44.741 44.896 43.201 38.253 39.688 39.233 38.888 38.986 39.628 41.426 41.093 40.293 40.343 41.946 44.121 43.068 43.056 43.586 43.338 44.746 47.191 49.711 49.096 46.886 44.495 43.771 43.99 43.652 43.619 43.606 43.711 43.836 43.881 43.894 43.863 43.883 43.908 44.053 44.071 44.146 45.345 45.16 48.228
38.245 38.225 38.13 37.975 37.805 37.63 37.532 37.492 37.46 37.415 37.382 37.345 37.357 37.345 37.28 37.217 37.275 37.352 37.325 37.315 37.36 37.375 37.385 37.372 37.375 37.37 37.317 37.247 37.172 37.042 36.89 37.645 38.155 36.765 36.542 36.595 36.837 36.907 36.51 36.21 35.975 35.757 35.592 35.585 35.842 35.547 35.472 35.527 35.482 35.43 35.572 35.775 35.65 35.692 35.73 35.742 35.79 35.845 35.895 35.91 35.93 35.952 35.975 35.902 35.76 35.645 35.622 35.667 35.66 35.665 35.637 35.632 35.642 35.65 35.642 35.63 35.605 35.65 35.69 35.725 35.675 35.675 35.665 35.622 35.62 35.562 35.662 35.67 35.665 35.67 35.701 35.737 35.74 35.734 35.706 35.715 35.713 35.743 35.754 35.741 35.742 35.704 35.649 35.563 35.485 35.418 35.307 35.259 35.142 34.983 34.96 34.907 34.911 34.866 34.869 34.895 34.952 34.941 34.961 34.981 34.976 35.031 35.056 35.051 35.061 35.073 35.091 35.126 35.086 35.141 35.191 35.261 35.261 35.311 35.361 35.458 35.446 35.486 35.543 35.596 35.603 35.633 35.693 35.71 35.683 35.716 35.714 35.691 35.735 35.776 35.793 35.787 35.848 35.888 37.723 37.367 36.895 39.521 42.041 39.153 46.338 47.451 47.573 47.149 46.834 50.049 46.712 51 51.227 51.593 51.971 41.546 47.068 42.816 51.668 56.374 56.104 54.767 55.811 49.056 47.165 54.348 57.231 50.558 43.516 42.366 51.703 53.818 54.67 49.411 50.928 44.029 41.183 51.526 51.436 47.952 45.511 46.331 46.435 47.991 45.694 46.563 39.581 39.268 39.232 39.178 39.168 39.433 39.448 39.254 38.873 38.976 39.966 39.203 38.646 38.656 38.506 38.478 38.456 38.418 38.531 39.907 38.777 37.406 37.562 37.348 37.329 37.255 35.285 34.936 32.726 32.49 32.499 31.909 31.869 31.879 31.884 31.912 31.894 31.903 32.555 36.381 35.701 38.198 40.086 38.238 37.86 36.837 37.308 37.051 36.573 36.345 36.412 36.47 36.441 36.458 36.448 36.422 36.511 36.523 36.518 36.511 36.406 36.303 36.283 36.243 36.181 36.188 36.233 36.246 36.317 36.354 36.402 36.431 36.428 36.439 36.481 36.507 36.443 36.411 36.361 36.316 36.251 36.248 36.186 36.195 36.198 36.761 36.688 36.681 36.626 36.673 36.693 36.713 36.771 36.833 36.946 36.993 37.041 37.088 37.117 37.206 37.188 37.196 37.178 37.211 37.176 37.176 37.181 37.191 37.196 37.063 37.116 37.038 37.003 36.98 36.941 36.975 36.953 36.931 36.918 36.898 36.813 36.843 36.808 36.788 36.738 36.711 36.701 36.714 36.668 36.671 36.718 36.721 36.708 36.721 36.728 36.715 36.712 36.703 36.693 36.691 36.666 36.665 36.701 36.691 36.731 36.766 36.81 36.821 36.844 36.885 36.961 37.003 36.988 37.008 37.024 37.049 37.073 37.103 37.118 37.158 37.163 37.186 37.203 37.228 37.268 37.281 37.316 37.318 37.292 37.296 37.273 37.323 37.341 37.301 37.318 37.308 37.348 37.373 37.426 37.711 37.356 37.326 37.323 37.383 37.408 37.816 39.921 37.898 37.948 39.393 40.986 42.291 44.224 44.538 41.26 38.456 40.093 38.931 38.812 39.116 39.791 41.327 41.024 40.323 40.386 42.213 44.608 44.663 44.219 43.141 43.153 44.498 47.096 47.941 46.666 43.681 43.668 43.646 43.598 43.577 43.581 43.734 43.823 43.894 43.903 43.966 43.986 43.893 43.896 43.973 44.291 45.057 50.251 50.568 50.662
38.23 38.232 38.192 38.15 38.017 37.902 37.817 37.762 37.662 37.627 37.612 37.642 37.582 37.53 37.4 37.257 37.287 37.355 37.347 37.292 37.37 37.372 37.392 37.352 37.355 37.355 37.34 37.197 37.12 37.022 36.995 37.727 37.895 36.692 36.675 36.68 36.897 36.382 36.18 36.097 35.862 35.855 35.555 35.58 35.595 35.445 35.362 35.397 35.38 35.402 35.415 35.792 35.63 35.547 35.692 35.782 35.79 35.83 35.887 35.95 35.955 35.99 36.012 36 36.022 35.967 35.825 35.727 35.685 35.665 35.655 35.657 35.647 35.632 35.605 35.582 35.607 35.655 35.68 35.675 35.665 35.652 35.645 35.652 35.602 35.617 35.705 35.662 35.646 35.666 35.681 35.708 35.675 35.697 35.694 35.699 35.724 35.74 35.737 35.697 35.66 35.632 35.557 35.495 35.36 35.309 35.212 35.114 35.028 34.923 34.908 34.881 34.856 34.861 34.861 34.844 34.871 34.891 34.937 34.934 34.926 34.941 35.001 34.998 35.027 35.048 35.061 35.071 35.086 35.131 35.158 35.233 35.302 35.34 35.403 35.403 35.423 35.443 35.447 35.496 35.515 35.52 35.624 35.593 35.641 35.657 35.678 35.693 35.781 35.833 35.811 36.762 39.501 38.813 48.716 48.711 44.386 42.241 45.616 39.618 47.236 49.856 49.647 48.343 50.957 52.508 52.766 55.914 53.958 51.896 45.212 42.441 49.503 42.056 54.603 56.945 56.282 54.173 41.726 51.738 47.949 43.911 51.536 53.56 45.586 43.908 45.818 42.661 50.459 45.295 52.351 46.771 45.649 50.655 47.915 46.388 48.212 45.3 44.923 40.609 39.568 39.363 39.322 39.439 39.391 39.67 39.955 39.265 38.885 38.493 38.068 38.014 38.215 38.366 38.178 38.656 38.174 38.398 38.418 39.988 41.177 39.431 37.436 37.251 37.046 37.271 37.388 37.136 34.383 33.913 34.033 33.051 32.289 31.894 31.851 31.889 31.866 31.861 31.814 31.872 31.9 32.02 34.768 36.581 35.731 40.297 39.608 38.126 37.373 36.821 36.531 36.318 36.41 36.368 36.411 36.431 36.418 36.453 36.478 36.463 36.523 36.516 36.417 36.363 36.303 36.231 36.231 36.236 36.207 36.273 36.311 36.366 36.391 36.363 36.408 36.418 36.441 36.461 36.391 36.353 36.313 36.226 36.196 36.201 36.166 36.182 36.342 36.834 36.651 36.655 36.605 36.721 36.701 36.748 36.831 36.863 36.936 37.008 37.068 37.121 37.138 37.163 37.203 37.182 37.182 37.213 37.183 37.181 37.146 37.143 37.113 37.108 37.071 37.051 37.008 37.001 36.969 37 36.964 36.946 36.916 36.853 36.846 36.816 36.808 36.781 36.713 36.703 36.681 36.681 36.712 36.677 36.688 36.714 36.728 36.723 36.698 36.731 36.715 36.738 36.706 36.681 36.676 36.691 36.695 36.717 36.743 36.773 36.848 36.861 36.888 36.953 36.946 36.998 37.033 37.043 37.073 37.068 37.138 37.113 37.127 37.173 37.191 37.226 37.256 37.3 37.309 37.316 37.316 37.333 37.353 37.311 37.303 37.356 37.328 37.346 37.316 37.321 37.366 37.413 37.613 39.463 40.516 37.681 38.865 38.704 38.326 38.543 39.786 38.971 38.243 39.701 39.574 38.828 40.608 40.803 39.481 38.518 40.093 38.982 38.853 39.136 39.756 41.596 40.516 40.401 40.421 43.183 45.351 47.268 45.448 44.536 44.336 46.538 47.278 47.483 46.323 43.721 43.648 43.631 43.586 43.518 43.619 43.717 43.83 43.888 43.993 44.036 44.006 44.053 43.951 44.003 44.486 45.188 51.713 51.883 52.013
38.107 38.13 38.135 38.157 38.082 38.077 38.027 37.947 37.847 37.81 37.942 37.82 37.737 37.642 37.49 37.317 37.265 37.35 37.33 37.3 37.317 37.345 37.332 37.317 37.307 37.31 37.267 37.185 37.112 37.062 37.1 37.487 37.222 36.757 36.817 36.972 36.755 36.422 36.257 36.17 35.975 35.845 35.517 35.502 35.557 35.532 35.642 35.752 36.902 38.612 35.7 35.76 35.58 35.52 35.532 35.632 35.725 35.865 35.895 35.947 35.995 36.002 36.057 36.052 36.072 36.097 36.057 35.99 35.952 35.805 35.722 35.682 35.657 35.675 35.625 35.597 35.597 35.612 35.637 35.64 35.672 35.625 35.612 35.61 35.615 35.637 35.65 35.672 35.694 35.666 35.67 35.67 35.681 35.697 35.708 35.713 35.699 35.719 35.701 35.635 35.604 35.498 35.439 35.344 35.239 35.195 35.086 35.001 34.901 34.854 34.85 34.833 34.846 34.818 34.86 34.858 34.851 34.868 34.876 34.896 34.918 34.968 34.943 34.941 35.031 35.058 35.038 35.065 35.103 35.133 35.201 35.22 35.27 35.251 35.306 35.343 35.372 35.372 35.408 35.403 35.466 35.498 35.548 35.591 35.606 35.635 35.708 35.751 35.808 40.958 41.512 44.721 46.764 45.318 47.928 40.155 45.533 37.471 45.559 39.427 45.806 52.551 56.472 53.881 52.324 53.172 56.976 56.771 56.635 53.256 53.589 55.421 49.01 42.597 50.674 55.701 55.091 53.623 41.572 45.324 48.603 43.64 43.04 47.466 44.386 44.737 44.232 43.757 44.309 49.919 50.603 49.436 48.211 47.632 46.634 43.256 39.718 41.781 40.074 39.518 39.958 39.662 40.331 41.401 41.202 41.079 39.867 38.317 38.148 38.158 37.986 37.891 38.008 38.39 39.031 39.425 38.868 39.244 40.818 38.476 39.886 38.176 37.775 37.371 38.392 38.202 38.295 37.277 34.485 35.708 34.829 34.129 32.422 31.896 31.871 31.864 31.926 31.865 31.862 32.09 32.626 32.213 33.506 36.001 37.763 38.246 37.336 37.106 37.328 36.788 36.318 36.273 36.399 36.403 36.431 36.403 36.413 36.475 36.476 36.486 36.527 36.491 36.422 36.353 36.283 36.243 36.186 36.184 36.188 36.236 36.301 36.348 36.376 36.373 36.346 36.371 36.453 36.361 36.292 36.268 36.235 36.186 36.113 36.143 36.146 36.153 36.251 36.766 36.701 36.653 36.676 36.701 36.763 36.781 36.843 36.865 36.978 37.048 37.131 37.123 37.122 37.173 37.183 37.166 37.174 37.216 37.208 37.193 37.149 37.126 37.116 37.103 37.111 37.026 37.023 36.948 36.953 36.963 36.974 36.971 36.938 36.883 36.823 36.786 36.761 36.761 36.752 36.731 36.698 36.688 36.691 36.7 36.672 36.716 36.738 36.713 36.731 36.706 36.709 36.713 36.697 36.678 36.683 36.666 36.7 36.709 36.735 36.783 36.831 36.886 36.913 36.988 36.996 37.028 37.043 37.048 37.076 37.083 37.146 37.176 37.198 37.198 37.233 37.256 37.278 37.326 37.328 37.338 37.341 37.386 37.361 37.341 37.321 37.357 37.348 37.354 37.338 37.351 37.409 37.438 37.463 38.684 38.501 37.598 38.023 38.791 38.646 38.193 39.926 39.669 38.501 40.226 40.416 40.291 40.261 39.201 40.94 42.565 43.408 39.68 38.87 39.242 40.256 41.937 40.439 40.429 40.445 41.298 45.083 45.516 44.372 43.632 45.031 48.861 49.561 49.536 49.147 48.149 45.818 43.908 43.528 43.541 43.663 43.692 45.189 44.129 43.928 43.911 47.191 47.104 44.012 44.011 44.436 45.598 51.121 51.566 51.331
