ncols 429
nrows 31
xllcorner    428036
yllcorner    544842
cellsize     2
NODATA_value -9999
83.917 83.794 83.754 83.759 83.632 83.519 83.477 83.394 83.362 83.419 83.564 83.722 85.744 83.134 82.927 82.722 82.632 82.622 83.052 83.762 82.072 81.642 81.252 81.662 81.919 81.802 84.737 86.112 86.699 86.877 82.027 80.852 80.849 80.321 79.856 79.734 79.736 79.796 79.781 79.871 79.971 79.951 79.731 80.029 79.741 79.849 80.159 80.844 80.901 79.866 79.946 80.489 80.234 79.874 80.064 80.686 80.836 79.686 79.576 79.464 79.214 79.114 79.036 78.971 78.876 78.711 78.559 78.431 78.321 78.251 78.219 78.191 78.141 78.124 78.084 78.024 77.969 77.924 77.854 77.786 77.736 77.666 77.609 77.536 77.444 77.314 77.199 77.076 76.994 76.939 76.869 76.806 76.761 76.689 76.689 76.676 76.714 76.999 76.936 76.691 76.326 75.439 74.361 73.109 71.761 70.659 70.256 69.346 68.589 67.059 66.291 65.906 66.006 66.156 66.219 66.384 66.164 66.164 66.276 65.776 65.696 65.651 65.604 65.581 65.629 65.759 65.739 65.766 65.779 65.816 65.849 65.864 65.934 65.941 66.084 66.256 66.446 66.629 66.911 67.204 67.126 67.279 67.674 67.394 67.176 67.131 67.114 67.106 67.076 66.924 66.776 66.776 66.839 66.871 66.874 66.724 66.749 66.874 66.239 66.086 65.951 65.879 66.346 65.756 65.586 65.641 65.604 65.589 65.574 65.564 65.521 65.519 65.459 65.464 65.349 65.089 65.061 65.079 65.206 65.154 64.966 64.919 64.899 64.941 64.974 64.949 64.919 64.926 65.074 64.966 65.304 66.274 66.914 67.946 69.084 69.934 70.694 71.596 71.779 71.964 72.041 72.631 71.736 71.634 71.646 71.576 71.514 71.496 71.454 71.396 71.354 71.284 71.254 71.179 71.094 71.041 70.951 70.906 70.839 70.756 70.719 70.629 70.559 70.514 70.466 70.406 70.336 70.311 70.271 70.211 70.131 70.059 70.014 69.979 69.926 69.901 69.804 69.746 69.654 69.509 69.414 69.381 69.326 69.294 69.211 69.159 69.069 69.036 69.929 68.961 68.781 68.716 68.674 68.621 68.544 68.501 68.501 68.491 68.489 68.461 68.394 68.346 68.261 68.201 68.131 68.071 68.036 67.964 67.931 67.869 67.854 67.819 67.771 67.731 67.671 67.659 67.614 67.536 67.514 67.479 67.414 67.384 67.326 67.256 67.191 67.148 67.063 67.021 66.986 66.911 66.838 66.791 66.763 66.711 66.681 66.663 66.606 66.576 66.506 66.478 66.471 66.421 66.413 66.386 66.338 66.306 66.268 66.256 66.221 66.188 66.158 66.108 66.088 66.058 66.046 66.031 65.996 65.996 65.978 65.956 65.921 65.888 65.878 65.836 65.806 65.763 65.728 65.693 65.673 65.638 65.568 65.566 65.523 65.493 65.466 65.443 65.436 65.403 65.376 65.338 65.366 65.356 65.316 65.288 65.236 65.158 65.111 65.068 65.063 65.068 65.101 65.193 65.213 65.273 65.313 64.873 64.718 64.776 64.798 65.453 65.723 64.648 64.328 64.228 64.118 64.091 64.061 64.076 64.046 64.036 64.011 64.016 63.976 63.956 63.901 63.888 63.863 63.841 63.836 63.816 63.816 63.848 63.876 63.881 63.878 63.873 63.846 63.826 63.768 63.736 63.663 63.608 63.563 63.468 63.378 63.321 63.243 63.183 63.111 63.016 62.976 62.901 62.833 62.751 62.666 62.593 62.523 62.478 62.403 62.351 62.288 62.258 62.243 62.251 62.256 62.273 62.301 62.323 62.341 62.333 62.381 62.386 62.383 62.388 62.411 62.393 62.401 62.406 62.398
83.662 83.759 83.614 83.784 83.704 83.529 83.459 83.382 83.369 83.339 83.364 83.792 83.332 83.192 83.094 82.737 82.597 83.414 83.134 82.347 81.722 81.324 80.987 82.552 83.949 86.167 83.924 84.129 85.594 85.224 82.552 80.724 80.796 80.271 79.764 79.716 79.761 79.781 79.746 79.954 80.291 80.306 82.011 82.936 81.151 79.981 79.799 79.796 79.796 79.746 80.229 80.439 80.266 79.879 79.884 79.896 80.326 79.719 79.609 79.519 79.261 79.154 79.069 79.019 78.939 78.776 78.599 78.459 78.359 78.316 78.279 78.246 78.184 78.154 78.101 78.016 77.961 77.899 77.811 77.779 77.714 77.654 77.581 77.524 77.426 77.296 77.191 77.089 76.999 76.966 76.909 76.864 76.804 76.766 76.781 76.764 76.826 77.109 76.876 76.669 76.069 75.011 73.751 72.451 71.186 70.516 70.111 68.899 67.751 66.711 66.104 65.964 66.046 66.159 66.231 66.286 66.121 66.134 66.044 65.741 65.669 65.676 65.694 65.531 65.521 65.549 65.584 65.696 65.791 65.856 65.896 65.929 65.969 65.961 66.056 66.246 66.464 66.624 66.794 67.009 67.159 67.324 67.359 67.314 67.224 67.144 67.079 67.059 67.019 66.929 66.801 66.896 67.086 66.891 66.851 66.829 67.421 66.681 66.171 66.006 65.909 65.851 65.686 65.569 65.514 65.521 65.584 65.581 65.566 65.551 65.526 65.534 65.489 65.464 65.426 65.326 65.076 65.099 65.191 65.054 64.979 64.929 64.866 64.864 64.966 64.934 64.944 64.981 65.179 65.016 65.614 66.506 67.531 68.581 69.581 70.456 71.354 71.846 71.919 71.974 71.984 72.001 71.656 71.666 71.619 71.556 71.514 71.479 71.431 71.391 71.326 71.291 71.246 71.186 71.089 71.059 70.964 70.914 70.831 70.736 70.684 70.636 70.581 70.504 70.439 70.399 70.371 70.329 70.271 70.216 70.124 70.096 70.026 69.984 69.911 69.876 69.831 69.741 69.634 69.474 69.396 69.339 69.309 69.279 69.194 69.141 69.081 69.051 69.649 69.049 68.779 68.744 68.701 68.626 68.584 68.484 68.484 68.514 68.486 68.469 68.434 68.334 68.261 68.209 68.129 68.076 68.039 67.981 67.944 67.906 67.861 67.816 67.769 67.721 67.706 67.674 67.619 67.564 67.529 67.479 67.409 67.379 67.288 67.238 67.176 67.118 67.073 67.008 66.973 66.926 66.866 66.813 66.778 66.728 66.676 66.663 66.611 66.581 66.528 66.498 66.448 66.441 66.398 66.368 66.331 66.288 66.256 66.233 66.206 66.181 66.143 66.111 66.111 66.096 66.071 66.051 66.051 66.008 65.981 65.971 65.946 65.918 65.876 65.843 65.821 65.803 65.751 65.706 65.668 65.616 65.588 65.578 65.528 65.468 65.458 65.456 65.436 65.388 65.356 65.366 65.363 65.336 65.301 65.251 65.201 65.138 65.098 65.111 65.098 65.128 65.211 65.276 65.163 65.053 64.898 64.818 64.793 64.816 64.656 65.968 64.671 64.373 64.306 64.243 64.186 64.153 64.118 64.133 64.118 64.071 64.068 64.051 64.031 63.983 63.958 63.928 63.913 63.898 63.868 63.851 63.858 63.906 63.928 63.911 63.906 63.881 63.843 63.813 63.773 63.721 63.678 63.598 63.508 63.448 63.376 63.308 63.258 63.163 63.091 63.041 62.971 62.898 62.833 62.766 62.673 62.601 62.548 62.493 62.436 62.368 62.313 62.273 62.241 62.276 62.273 62.288 62.321 62.333 62.363 62.396 62.411 62.418 62.426 62.446 62.443 62.456 62.458 62.431 62.431
83.606 83.466 83.481 83.581 83.956 83.944 83.521 83.376 83.349 83.331 83.286 83.314 83.416 83.321 83.041 82.919 82.614 82.906 82.374 83.306 81.676 81.116 80.729 80.619 85.101 86.886 86.404 85.699 83.106 82.901 81.274 80.056 79.971 79.789 79.706 79.764 79.766 79.704 79.789 79.944 80.056 80.459 86.101 85.674 84.394 81.214 79.656 79.734 79.684 79.731 79.759 79.766 80.886 81.421 79.951 80.356 82.244 79.751 79.639 79.524 79.306 79.191 79.104 79.044 78.966 78.791 78.609 78.476 78.431 78.361 78.311 78.264 78.219 78.181 78.096 78.004 77.946 77.884 77.821 77.739 77.709 77.631 77.574 77.524 77.424 77.306 77.194 77.071 77.031 76.996 76.939 76.874 76.801 76.821 76.791 76.824 77.076 77.124 76.906 76.616 75.661 74.486 73.239 71.751 70.704 70.411 69.901 68.604 67.329 66.446 66.034 66.091 66.141 66.241 66.306 66.191 66.081 66.101 65.884 65.754 65.711 65.889 65.629 65.484 65.471 65.506 65.576 65.694 65.811 65.886 65.954 65.994 66.006 66.029 66.106 66.291 66.541 66.669 66.844 67.011 67.164 67.381 67.484 67.424 67.321 67.161 67.109 67.039 67.021 66.971 66.886 67.114 67.194 66.939 66.904 67.456 66.674 66.694 66.146 65.946 65.886 66.859 65.969 65.504 65.494 65.464 65.599 65.589 65.544 65.541 65.579 65.541 65.464 65.529 65.574 65.446 65.216 65.006 65.111 65.069 65.201 64.991 65.046 64.934 64.954 64.906 64.911 65.089 65.226 65.561 66.251 67.166 68.131 69.311 70.134 70.966 71.749 71.831 71.981 71.939 72.464 71.701 71.666 71.644 71.591 71.526 71.504 71.446 71.406 71.364 71.324 71.284 71.241 71.184 71.131 71.041 70.969 70.886 70.821 70.749 70.684 70.641 70.576 70.551 70.451 70.411 70.366 70.314 70.271 70.204 70.131 70.084 70.011 69.949 69.921 69.859 69.814 69.716 69.624 69.534 69.434 69.339 69.284 69.234 69.154 69.111 69.104 68.974 69.304 69.501 68.814 68.726 68.699 68.631 68.591 68.504 68.486 68.486 68.506 68.484 68.419 68.349 68.311 68.199 68.134 68.089 68.041 67.991 67.949 67.906 67.859 67.819 67.766 67.736 67.709 67.646 67.609 67.556 67.499 67.474 67.406 67.354 67.271 67.228 67.166 67.103 67.088 67.021 66.948 66.941 66.883 66.818 66.778 66.726 66.708 66.656 66.611 66.581 66.551 66.516 66.473 66.438 66.413 66.391 66.366 66.318 66.286 66.256 66.198 66.198 66.156 66.131 66.096 66.086 66.086 66.081 66.041 66.043 66.013 65.993 65.953 65.941 65.898 65.868 65.823 65.793 65.726 65.686 65.651 65.626 65.611 65.571 65.541 65.513 65.501 65.456 65.438 65.411 65.366 65.378 65.343 65.333 65.278 65.236 65.193 65.153 65.143 65.151 65.186 65.238 65.326 65.308 65.091 64.931 64.863 64.841 64.838 64.713 65.213 65.273 64.431 64.328 64.311 64.308 64.233 64.181 64.181 64.186 64.143 64.113 64.103 64.086 64.046 64.021 63.983 63.948 63.921 63.921 63.901 63.911 63.936 63.948 63.948 63.946 63.928 63.906 63.878 63.831 63.776 63.708 63.651 63.578 63.458 63.406 63.366 63.306 63.216 63.138 63.098 63.028 62.978 62.891 62.811 62.741 62.678 62.633 62.568 62.493 62.433 62.388 62.343 62.323 62.306 62.303 62.316 62.336 62.351 62.371 62.403 62.451 62.443 62.456 62.451 62.476 62.498 62.501 62.468 62.453 62.483
83.474 84.874 84.259 83.614 84.581 83.644 83.596 83.466 83.324 83.266 83.261 83.254 83.241 83.351 83.869 87.641 87.071 83.261 82.884 82.204 81.636 81.664 81.144 81.931 86.389 86.784 86.881 86.646 83.029 80.561 81.364 80.326 79.799 79.684 79.689 79.736 79.724 79.659 79.751 80.021 80.169 84.886 86.096 86.236 85.949 85.326 83.759 82.021 79.529 79.816 79.654 79.711 80.049 80.614 80.304 80.334 82.029 79.824 79.666 79.561 79.401 79.221 79.146 79.059 78.929 78.769 78.619 78.529 78.456 78.386 78.341 78.284 78.219 78.189 78.099 78.016 77.951 77.896 77.806 77.744 77.704 77.629 77.569 77.506 77.421 77.321 77.204 77.074 77.006 76.984 76.916 76.869 76.804 76.829 76.839 76.909 77.231 77.101 76.961 76.299 75.161 73.924 72.589 71.199 71.149 70.534 70.374 69.344 66.834 66.216 66.044 66.049 66.284 66.274 66.309 66.064 66.111 66.114 65.841 65.794 65.906 66.306 65.659 65.511 65.456 65.491 65.574 65.691 65.801 65.894 66.006 66.091 66.061 66.139 66.229 66.376 66.579 66.684 66.834 67.036 67.286 67.526 67.534 67.541 67.596 67.324 67.441 67.111 67.024 66.964 66.956 67.209 67.196 66.971 66.801 67.054 66.529 66.556 66.141 65.981 65.839 65.849 65.619 65.431 65.336 65.259 65.429 65.546 65.521 65.524 65.499 65.464 65.481 65.769 65.944 65.646 65.279 65.099 64.939 64.994 65.014 64.964 64.989 64.941 64.939 64.934 64.976 65.464 65.934 66.004 66.854 67.856 68.786 69.996 71.539 71.734 71.819 71.929 72.011 72.056 72.316 71.704 71.684 71.631 71.564 71.534 71.496 71.446 71.379 71.359 71.324 71.291 71.249 71.189 71.119 71.054 70.981 70.914 70.846 70.769 70.706 70.641 70.579 70.529 70.461 70.436 70.359 70.319 70.254 70.204 70.136 70.074 70.021 69.941 69.906 69.811 69.786 69.704 69.609 69.524 69.436 69.314 69.261 69.231 69.181 69.101 69.059 69.011 68.994 69.751 68.921 68.749 68.686 68.654 68.619 68.531 68.491 68.476 68.516 68.471 68.406 68.346 68.301 68.191 68.144 68.066 68.024 67.996 67.939 67.886 67.831 67.799 67.751 67.734 67.699 67.646 67.594 67.531 67.474 67.434 67.376 67.311 67.236 67.201 67.153 67.113 67.053 67.006 66.966 66.923 66.861 66.816 66.768 66.758 66.701 66.651 66.626 66.571 66.551 66.526 66.471 66.443 66.421 66.371 66.366 66.296 66.263 66.263 66.213 66.176 66.138 66.113 66.128 66.098 66.113 66.116 66.101 66.073 66.031 66.016 65.983 65.956 65.891 65.866 65.823 65.776 65.736 65.713 65.661 65.646 65.613 65.581 65.536 65.518 65.488 65.463 65.458 65.428 65.391 65.373 65.348 65.318 65.278 65.223 65.208 65.186 65.196 65.223 65.278 65.358 65.413 65.598 65.201 64.896 64.861 64.863 64.831 64.926 65.033 65.031 64.398 64.363 64.411 64.376 64.306 64.258 64.253 64.226 64.193 64.156 64.118 64.108 64.071 64.058 64.013 63.998 63.988 63.966 63.958 63.973 63.996 63.983 63.983 63.961 63.926 63.921 63.856 63.806 63.763 63.698 63.631 63.521 63.431 63.368 63.308 63.278 63.198 63.156 63.076 63.021 62.958 62.888 62.818 62.748 62.696 62.648 62.586 62.523 62.441 62.401 62.368 62.351 62.381 62.376 62.336 62.346 62.391 62.418 62.436 62.471 62.476 62.481 62.498 62.516 62.521 62.511 62.511 62.518 62.531
85.851 86.336 85.744 84.956 83.539 83.206 83.064 83.439 83.396 83.261 83.229 83.209 83.656 84.051 84.109 86.866 86.811 82.401 81.901 81.404 82.176 83.219 83.354 83.514 83.931 85.589 86.561 85.949 81.624 80.366 80.331 79.921 79.694 79.669 79.719 79.729 79.686 79.591 79.696 80.094 80.311 83.796 85.399 85.874 86.269 86.184 85.809 84.836 80.724 80.239 80.221 79.596 79.681 80.704 80.819 80.629 80.374 79.926 79.681 79.639 79.471 79.266 79.174 79.056 78.899 78.734 78.634 78.576 78.479 78.444 78.371 78.311 78.234 78.169 78.104 78.031 77.974 77.914 77.819 77.769 77.711 77.639 77.584 77.516 77.426 77.331 77.204 77.081 77.006 76.974 76.911 76.871 76.859 76.834 76.891 77.121 77.244 77.131 76.851 76.474 75.479 73.869 71.854 70.834 70.391 69.664 68.404 67.369 66.454 65.904 65.971 66.096 66.289 66.311 66.141 66.064 66.271 65.959 65.801 65.904 66.001 66.499 65.794 65.686 65.611 65.899 65.614 65.756 65.989 66.111 66.184 66.229 66.131 66.281 66.401 66.496 66.629 66.726 66.849 67.066 67.461 67.606 67.724 67.716 67.836 67.406 67.371 67.204 67.041 66.971 66.936 67.324 67.194 66.906 66.796 66.669 66.479 66.294 66.144 65.994 65.821 65.641 65.356 65.144 65.066 65.071 65.261 65.514 65.551 65.486 65.474 65.524 65.534 65.909 66.289 65.714 65.114 64.994 64.899 64.954 65.006 64.989 64.956 64.941 64.951 64.974 65.071 65.204 65.686 66.501 67.444 68.419 69.534 70.606 72.294 71.959 71.976 72.026 72.086 71.939 71.716 71.701 71.691 71.609 71.539 71.509 71.451 71.419 71.391 71.364 71.326 71.276 71.231 71.174 71.109 71.071 70.991 70.921 70.834 70.791 70.701 70.651 70.594 70.551 70.464 70.426 70.379 70.316 70.274 70.201 70.144 70.074 69.984 69.954 69.901 69.821 69.776 69.719 69.619 69.524 69.421 69.324 69.239 69.209 69.209 69.114 69.046 68.954 68.941 69.494 69.109 68.714 68.669 68.661 68.609 68.531 68.481 68.466 68.474 68.431 68.411 68.326 68.264 68.181 68.096 68.046 68.039 67.981 67.919 67.879 67.824 67.796 67.746 67.734 67.659 67.626 67.574 67.516 67.464 67.409 67.356 67.309 67.218 67.171 67.161 67.098 67.071 67.008 66.961 66.911 66.858 66.803 66.811 66.723 66.703 66.631 66.591 66.606 66.558 66.526 66.461 66.406 66.388 66.373 66.351 66.303 66.291 66.271 66.228 66.198 66.163 66.171 66.146 66.146 66.116 66.126 66.096 66.063 66.036 66.016 66.008 65.951 65.923 65.863 65.841 65.776 65.711 65.696 65.686 65.653 65.596 65.566 65.551 65.513 65.473 65.473 65.453 65.411 65.411 65.393 65.358 65.301 65.286 65.273 65.241 65.216 65.251 65.278 65.416 65.448 65.388 65.286 65.033 64.863 64.843 64.861 65.011 65.316 65.481 65.181 64.431 64.351 64.461 64.433 64.383 64.343 64.298 64.276 64.221 64.186 64.156 64.111 64.088 64.068 64.053 64.028 64.031 64.016 64.006 64.013 64.031 64.008 63.998 63.968 63.931 63.901 63.833 63.788 63.741 63.666 63.576 63.498 63.428 63.351 63.288 63.256 63.201 63.148 63.086 63.016 62.973 62.881 62.823 62.766 62.711 62.663 62.598 62.528 62.476 62.456 62.421 62.426 62.416 62.396 62.398 62.423 62.436 62.453 62.488 62.516 62.533 62.563 62.553 62.553 62.561 62.551 62.556 62.561 62.551
88.294 87.346 86.351 85.659 83.241 82.934 82.934 82.996 83.334 83.289 83.191 83.176 83.174 83.434 83.454 83.179 82.609 82.256 81.896 81.066 80.659 83.896 86.664 86.141 85.244 83.744 85.271 83.636 81.639 80.196 80.174 79.896 79.634 79.719 79.716 79.669 79.649 79.584 79.561 80.016 80.139 80.589 81.126 84.766 85.626 86.076 86.251 82.889 81.956 81.661 80.979 79.469 79.579 79.786 79.749 79.849 80.541 81.596 79.704 79.626 79.506 79.284 79.189 79.034 78.889 78.751 78.696 78.611 78.501 78.459 78.411 78.316 78.224 78.156 78.086 78.026 77.981 77.919 77.854 77.804 77.739 77.636 77.576 77.529 77.454 77.341 77.194 77.081 77.034 76.991 76.954 76.894 76.876 76.854 76.969 77.281 77.241 77.189 76.489 76.706 75.056 72.954 71.266 70.456 70.086 69.054 67.904 66.849 66.086 65.811 65.969 66.126 66.216 66.379 66.081 66.101 66.289 65.864 65.889 65.934 66.021 66.386 65.976 66.039 66.579 65.916 65.826 66.054 66.689 66.659 66.476 66.414 66.324 66.494 66.609 66.669 66.731 66.766 66.864 67.106 67.456 67.836 69.449 67.966 67.789 67.501 67.251 67.311 67.126 66.976 66.999 67.006 66.971 66.861 66.784 66.589 66.386 66.229 66.076 65.944 65.789 65.591 65.244 65.074 65.009 65.036 65.181 65.531 65.529 65.489 65.591 65.704 65.759 66.214 66.239 65.339 64.976 64.939 65.164 65.501 65.206 65.024 64.961 64.931 64.984 65.541 65.114 65.429 66.181 67.079 68.091 69.184 70.746 70.916 71.839 71.939 72.031 71.959 71.996 71.746 71.729 71.711 71.626 71.566 71.536 71.491 71.441 71.441 71.406 71.361 71.331 71.286 71.249 71.199 71.109 71.039 70.976 70.901 70.849 70.804 70.694 70.666 70.616 70.539 70.491 70.396 70.369 70.306 70.286 70.206 70.141 70.076 69.956 69.984 69.896 69.814 69.759 69.694 69.591 69.496 69.436 69.369 69.261 69.194 69.191 69.146 69.044 68.966 69.076 69.731 69.434 68.691 68.654 68.611 68.564 68.526 68.489 68.404 68.431 68.414 68.384 68.294 68.226 68.146 68.101 68.041 67.989 67.936 67.879 67.836 67.786 67.769 67.726 67.679 67.639 67.606 67.554 67.471 67.429 67.386 67.341 67.261 67.211 67.163 67.113 67.066 67.068 67.008 66.951 66.901 66.861 66.846 66.788 66.728 66.696 66.656 66.613 66.581 66.573 66.526 66.481 66.423 66.386 66.381 66.361 66.323 66.303 66.253 66.218 66.213 66.213 66.188 66.163 66.178 66.143 66.156 66.136 66.093 66.071 66.048 66.013 65.971 65.928 65.871 65.836 65.796 65.753 65.711 65.703 65.648 65.606 65.601 65.571 65.521 65.511 65.486 65.458 65.431 65.403 65.383 65.316 65.301 65.283 65.298 65.306 65.316 65.383 65.456 65.643 66.273 65.436 65.133 64.941 64.916 64.946 64.878 64.918 65.038 65.271 65.408 64.476 64.428 64.536 64.526 64.473 64.381 64.363 64.313 64.246 64.208 64.171 64.143 64.113 64.088 64.096 64.061 64.046 64.056 64.066 64.066 64.053 64.031 63.998 63.986 63.941 63.886 63.838 63.776 63.703 63.626 63.546 63.456 63.428 63.363 63.301 63.253 63.196 63.126 63.091 63.031 62.968 62.871 62.801 62.773 62.743 62.681 62.618 62.573 62.521 62.493 62.496 62.508 62.461 62.483 62.483 62.466 62.466 62.518 62.528 62.558 62.596 62.596 62.606 62.578 62.581 62.618 62.608 62.608 62.611
89.411 88.504 86.846 85.601 85.689 82.954 84.429 82.936 83.091 83.794 83.174 83.136 83.106 83.514 83.121 82.684 82.049 81.579 82.234 81.156 80.561 84.851 86.986 86.976 86.546 85.334 81.069 80.484 80.124 80.191 79.911 79.669 79.681 79.709 79.696 79.671 79.611 79.536 79.436 79.871 80.336 79.799 79.571 79.591 82.584 85.371 84.796 82.074 81.911 83.856 84.686 82.384 80.926 79.459 79.514 79.686 80.199 81.831 79.766 79.676 79.559 79.321 79.191 79.056 78.926 78.814 78.754 78.656 78.574 78.494 78.409 78.321 78.226 78.136 78.069 78.029 77.999 77.951 77.894 77.806 77.721 77.644 77.596 77.549 77.456 77.354 77.196 77.114 77.071 77.036 76.981 76.959 76.921 76.939 77.159 77.321 77.276 77.106 76.004 75.701 74.599 71.916 70.779 70.294 69.866 68.661 67.486 66.574 65.874 65.886 66.059 66.221 66.284 66.234 66.054 66.194 66.071 65.804 65.881 66.036 66.244 66.139 66.114 66.364 66.666 66.494 66.359 66.449 67.469 67.341 66.679 66.601 66.606 66.731 66.761 66.814 66.836 66.894 66.994 67.149 67.531 68.076 68.896 68.126 67.959 67.876 67.824 67.459 67.276 67.086 66.999 67.039 67.314 67.119 66.694 66.509 66.324 66.156 66.051 65.911 65.714 65.524 65.224 65.094 65.034 65.099 65.314 65.514 65.521 65.609 65.806 66.349 66.501 66.426 65.849 65.126 64.894 65.006 65.476 65.736 65.349 65.036 64.971 64.964 65.086 65.299 65.084 65.934 66.811 67.854 68.916 70.024 70.826 71.441 72.014 72.064 72.296 72.114 71.934 71.754 71.751 71.699 71.599 71.551 71.556 71.526 71.456 71.424 71.389 71.366 71.334 71.294 71.236 71.171 71.104 71.051 70.976 70.889 70.819 70.784 70.721 70.669 70.631 70.549 70.474 70.431 70.374 70.304 70.249 70.209 70.139 70.074 70.019 69.959 69.871 69.814 69.764 69.719 69.656 69.546 69.451 69.339 69.286 69.236 69.186 69.114 69.014 68.976 68.931 69.219 69.676 68.781 68.666 68.604 68.584 68.531 68.451 68.394 68.409 68.374 68.326 68.279 68.189 68.136 68.086 68.009 67.944 67.901 67.826 67.779 67.776 67.734 67.664 67.639 67.611 67.586 67.539 67.476 67.424 67.366 67.306 67.264 67.206 67.161 67.101 67.073 67.021 66.996 66.951 66.898 66.846 66.828 66.783 66.741 66.711 66.661 66.618 66.566 66.516 66.496 66.456 66.458 66.426 66.398 66.388 66.343 66.291 66.278 66.258 66.223 66.233 66.223 66.216 66.178 66.176 66.163 66.148 66.126 66.123 66.071 66.031 65.988 65.938 65.878 65.858 65.826 65.778 65.753 65.701 65.661 65.613 65.578 65.566 65.548 65.528 65.491 65.456 65.438 65.366 65.326 65.318 65.316 65.296 65.326 65.361 65.428 65.546 65.956 66.201 65.633 65.268 65.031 64.936 64.901 65.011 64.976 64.908 65.008 65.063 65.661 64.608 64.511 64.578 64.608 64.548 64.436 64.411 64.348 64.298 64.226 64.173 64.156 64.143 64.108 64.098 64.088 64.083 64.116 64.111 64.091 64.086 64.036 64.016 63.978 63.908 63.873 63.828 63.768 63.681 63.603 63.533 63.451 63.408 63.358 63.298 63.253 63.201 63.131 63.106 63.053 62.971 62.916 62.853 62.816 62.746 62.701 62.633 62.601 62.576 62.541 62.533 62.541 62.546 62.543 62.518 62.541 62.531 62.573 62.586 62.598 62.611 62.636 62.636 62.641 62.641 62.661 62.653 62.653 62.648
89.824 89.301 88.094 87.291 88.209 86.011 86.424 84.879 83.291 83.531 83.481 83.491 83.154 83.316 83.789 82.309 82.054 82.801 83.206 82.271 81.729 84.171 86.304 86.739 87.009 81.686 80.119 80.831 79.914 79.799 79.684 79.636 79.676 79.676 79.654 79.616 79.571 79.534 79.459 79.374 79.974 80.434 79.516 79.481 80.901 82.421 81.909 82.031 82.779 86.126 85.924 85.486 84.499 79.699 79.259 79.284 79.561 81.654 80.409 79.711 79.626 79.404 79.214 79.101 78.994 78.901 78.806 78.731 78.626 78.491 78.394 78.299 78.201 78.124 78.081 78.056 78.026 77.961 77.894 77.816 77.751 77.679 77.629 77.524 77.446 77.329 77.254 77.179 77.124 77.099 77.039 77.006 76.986 77.044 77.309 77.281 77.274 76.811 75.484 74.384 72.774 71.406 70.936 71.254 69.386 68.199 67.069 66.414 65.779 65.969 66.181 66.239 66.344 66.049 66.016 66.164 65.886 65.904 65.909 66.124 66.231 66.164 66.209 66.389 68.214 66.609 66.654 66.601 66.669 66.746 67.504 66.821 66.769 66.794 66.814 66.866 66.941 67.089 67.139 67.256 67.644 68.716 68.284 68.174 68.064 68.309 69.381 67.646 67.281 67.141 67.051 67.149 69.004 68.536 66.734 66.519 66.414 66.231 66.119 65.956 65.801 65.529 65.291 65.161 65.179 65.294 65.494 65.561 65.556 65.669 66.104 66.889 67.104 66.514 65.636 64.924 64.849 65.131 65.384 65.424 65.214 64.999 65.009 65.054 65.094 65.456 65.449 66.474 67.521 68.716 69.601 70.604 71.101 71.746 71.974 72.574 74.159 71.959 71.746 71.799 71.749 71.686 71.611 71.574 71.531 71.484 71.466 71.446 71.396 71.369 71.296 71.276 71.234 71.166 71.109 71.059 70.994 70.924 70.876 70.809 70.744 70.679 70.606 70.554 70.484 70.404 70.371 70.294 70.279 70.221 70.136 70.061 69.986 69.919 69.874 69.849 69.796 69.729 69.644 69.566 69.474 69.354 69.274 69.234 69.176 69.134 69.044 69.024 68.936 69.051 69.521 68.794 68.651 68.616 68.561 68.504 68.454 68.344 68.336 68.306 68.276 68.211 68.166 68.134 68.059 67.986 67.926 67.864 67.824 67.784 67.769 67.701 67.666 67.629 67.604 67.561 67.506 67.459 67.401 67.346 67.316 67.269 67.218 67.168 67.118 67.056 67.043 67.003 66.938 66.901 66.866 66.811 66.801 66.743 66.708 66.661 66.603 66.586 66.536 66.501 66.473 66.451 66.428 66.436 66.398 66.338 66.333 66.318 66.308 66.271 66.268 66.251 66.226 66.203 66.173 66.191 66.178 66.161 66.113 66.088 66.033 65.993 65.943 65.921 65.881 65.838 65.793 65.743 65.718 65.686 65.646 65.616 65.581 65.566 65.543 65.513 65.483 65.456 65.373 65.356 65.336 65.313 65.331 65.388 65.473 65.573 65.893 68.328 67.421 65.246 65.081 65.011 64.966 65.466 65.558 65.336 64.956 64.988 65.061 65.488 64.901 64.538 64.621 64.668 64.591 64.523 64.458 64.398 64.301 64.243 64.216 64.161 64.163 64.136 64.123 64.116 64.116 64.156 64.168 64.123 64.101 64.063 64.028 63.968 63.916 63.851 63.806 63.758 63.661 63.588 63.546 63.458 63.396 63.361 63.318 63.263 63.203 63.133 63.098 63.033 62.983 62.926 62.886 62.846 62.771 62.716 62.678 62.653 62.618 62.601 62.608 62.621 62.608 62.606 62.596 62.626 62.603 62.613 62.638 62.636 62.651 62.663 62.683 62.681 62.678 62.701 62.708 62.693 62.696
89.041 88.269 88.024 89.406 89.446 88.919 87.966 86.421 85.236 83.331 83.776 83.476 83.019 83.531 84.214 82.676 81.529 81.606 84.159 86.396 85.864 83.934 83.941 85.426 85.331 81.354 80.126 80.099 79.956 79.726 79.609 79.601 79.669 79.674 79.619 79.566 79.504 79.481 79.431 79.369 79.294 79.331 79.474 79.514 79.369 79.389 79.559 80.739 84.724 85.566 85.944 86.064 85.706 85.236 83.646 80.476 79.284 81.014 80.909 79.716 79.649 79.489 79.244 79.119 79.014 78.926 78.849 78.766 78.629 78.489 78.374 78.281 78.201 78.139 78.101 78.094 78.056 77.971 77.889 77.836 77.751 77.694 77.621 77.516 77.429 77.356 77.294 77.234 77.176 77.089 77.046 77.031 77.066 77.211 77.401 77.314 77.194 76.311 74.964 73.564 72.349 70.901 70.369 69.966 68.821 67.726 66.781 66.186 65.801 66.014 66.169 66.236 66.241 66.006 66.169 66.094 65.786 65.919 66.346 66.579 66.146 66.186 66.279 66.386 66.611 66.791 66.671 66.849 66.639 66.834 68.786 66.874 66.744 66.756 66.816 66.871 66.969 67.141 67.259 67.374 67.631 68.484 68.026 68.039 67.806 67.881 68.974 67.664 67.266 67.231 67.129 67.069 67.974 67.764 66.704 66.569 66.441 66.311 66.176 66.011 65.851 65.664 65.526 65.499 65.456 65.479 65.734 65.531 65.531 65.616 66.161 66.719 66.751 65.956 65.161 64.954 65.079 65.189 65.126 65.166 64.991 65.029 65.044 65.206 65.059 65.299 66.071 67.206 68.334 69.216 70.226 71.019 71.409 71.906 71.946 72.546 72.566 71.871 71.779 71.809 71.744 71.646 71.596 71.554 71.516 71.516 71.486 71.419 71.394 71.341 71.314 71.251 71.214 71.149 71.106 71.056 70.994 70.951 70.866 70.796 70.744 70.681 70.621 70.549 70.501 70.404 70.366 70.331 70.251 70.201 70.151 70.059 70.016 69.976 69.916 69.861 69.831 69.759 69.676 69.566 69.494 69.384 69.291 69.244 69.181 69.144 69.106 69.049 68.934 68.934 69.229 68.976 68.634 68.569 68.541 68.519 68.461 68.374 68.306 68.291 68.251 68.201 68.159 68.066 68.006 67.959 67.879 67.829 67.806 67.774 67.739 67.694 67.661 67.611 67.589 67.549 67.519 67.466 67.411 67.339 67.321 67.251 67.241 67.176 67.123 67.106 67.043 67.008 66.966 66.926 66.891 66.846 66.791 66.763 66.726 66.678 66.608 66.598 66.548 66.521 66.513 66.491 66.478 66.461 66.376 66.386 66.358 66.336 66.308 66.303 66.278 66.273 66.248 66.253 66.211 66.218 66.188 66.146 66.126 66.098 66.036 66.016 65.993 65.946 65.908 65.848 65.806 65.771 65.766 65.703 65.673 65.653 65.623 65.586 65.546 65.516 65.463 65.433 65.403 65.383 65.356 65.398 65.428 65.506 65.613 65.766 65.768 65.353 65.151 65.081 65.123 65.048 65.141 65.533 65.223 65.066 65.033 65.016 65.098 65.308 65.371 64.603 64.646 64.728 64.663 64.573 64.526 64.436 64.333 64.301 64.243 64.206 64.191 64.153 64.161 64.141 64.166 64.178 64.178 64.143 64.111 64.091 64.033 63.988 63.926 63.871 63.808 63.733 63.648 63.578 63.506 63.438 63.403 63.366 63.336 63.261 63.196 63.168 63.118 63.043 62.996 62.971 62.911 62.861 62.806 62.743 62.733 62.681 62.681 62.676 62.683 62.688 62.698 62.678 62.681 62.666 62.676 62.683 62.688 62.681 62.681 62.711 62.731 62.741 62.743 62.731 62.753 62.733 62.741
85.396 84.456 86.091 88.791 89.279 89.451 88.986 88.321 86.499 85.529 83.266 83.636 82.644 82.999 83.791 83.094 81.164 80.469 84.236 86.851 86.696 85.981 84.829 81.996 81.994 80.564 80.054 79.961 79.739 79.619 79.619 79.644 79.639 79.624 79.586 79.551 79.476 79.386 79.334 79.351 79.289 79.229 79.191 79.246 79.236 79.271 79.919 79.666 82.676 83.804 85.299 85.751 86.099 85.966 85.529 84.379 80.599 79.561 80.626 79.799 79.679 79.536 79.304 79.124 79.049 78.966 78.879 78.789 78.649 78.499 78.411 78.324 78.264 78.184 78.144 78.136 78.069 78.001 77.914 77.821 77.731 77.656 77.599 77.521 77.421 77.349 77.309 77.256 77.179 77.091 77.061 77.086 77.151 77.329 77.301 77.366 76.951 75.751 74.389 72.904 71.569 70.576 70.226 69.384 68.346 67.271 66.499 65.954 65.929 66.111 66.166 66.291 66.081 66.001 66.246 66.244 65.826 65.946 66.636 67.176 66.204 66.259 66.276 66.356 66.579 66.801 66.769 67.226 66.634 66.671 66.976 66.624 66.689 66.749 66.819 66.899 66.981 67.094 67.206 67.291 67.449 67.751 67.854 67.921 67.871 67.816 67.789 67.471 67.281 67.471 67.186 67.019 66.901 66.791 66.691 66.611 66.486 66.319 66.161 66.066 65.964 65.766 65.636 65.606 65.501 65.434 65.699 65.451 65.449 65.666 65.981 66.091 65.836 65.266 65.054 64.971 65.094 65.169 64.999 65.104 64.986 64.989 65.076 65.281 65.244 65.669 67.329 67.749 69.079 69.909 70.824 71.316 71.794 72.044 72.504 72.221 72.004 71.776 71.811 71.811 71.709 71.661 71.631 71.561 71.531 71.494 71.474 71.429 71.399 71.346 71.289 71.269 71.224 71.181 71.146 71.069 71.011 70.946 70.859 70.791 70.719 70.661 70.619 70.559 70.509 70.444 70.386 70.314 70.259 70.184 70.136 70.064 70.021 69.984 69.946 69.911 69.851 69.774 69.694 69.594 69.529 69.414 69.346 69.249 69.196 69.166 69.134 69.094 68.979 68.991 69.619 69.451 68.656 68.549 68.521 68.496 68.419 68.359 68.304 68.279 68.241 68.214 68.159 68.076 68.001 67.936 67.876 67.819 67.796 67.744 67.724 67.666 67.616 67.599 67.549 67.509 67.504 67.454 67.431 67.384 67.314 67.276 67.246 67.201 67.153 67.091 67.073 67.018 66.978 66.936 66.868 66.863 66.811 66.761 66.696 66.678 66.668 66.623 66.593 66.556 66.528 66.511 66.488 66.466 66.443 66.436 66.398 66.361 66.358 66.328 66.333 66.286 66.271 66.256 66.226 66.238 66.206 66.193 66.151 66.118 66.061 66.038 66.021 65.966 65.906 65.881 65.836 65.793 65.758 65.741 65.688 65.673 65.648 65.586 65.546 65.521 65.446 65.428 65.428 65.413 65.408 65.458 65.551 65.643 65.716 65.666 65.288 65.268 65.143 65.043 65.046 65.138 65.571 65.341 65.046 65.051 65.096 65.061 65.076 65.128 65.958 64.706 64.676 64.738 64.698 64.618 64.521 64.453 64.363 64.313 64.286 64.253 64.221 64.201 64.191 64.198 64.221 64.213 64.191 64.171 64.143 64.096 64.038 63.988 63.918 63.856 63.808 63.736 63.656 63.591 63.523 63.471 63.438 63.376 63.331 63.251 63.221 63.193 63.136 63.083 63.031 63.011 62.946 62.881 62.841 62.793 62.776 62.718 62.711 62.726 62.746 62.761 62.746 62.761 62.771 62.753 62.736 62.751 62.748 62.753 62.738 62.758 62.773 62.786 62.783 62.796 62.781 62.773 62.773
84.094 82.864 82.469 84.614 87.201 89.211 89.466 87.219 85.714 83.126 83.289 82.604 82.334 82.104 82.474 82.924 82.434 83.541 86.026 86.764 86.861 86.849 82.384 81.124 81.109 81.054 80.599 79.884 79.696 79.606 79.636 79.606 79.576 79.721 80.101 80.479 80.629 80.371 79.539 79.316 79.259 79.251 79.194 79.144 79.136 79.159 79.964 79.249 79.601 80.164 82.821 84.699 85.559 85.949 86.114 85.366 80.249 79.616 80.346 79.869 79.714 79.564 79.331 79.194 79.091 78.976 78.896 78.809 78.679 78.559 78.481 78.411 78.351 78.256 78.206 78.149 78.116 78.014 77.939 77.854 77.746 77.641 77.574 77.511 77.409 77.336 77.304 77.246 77.196 77.119 77.116 77.171 77.316 77.411 77.319 77.274 76.421 75.064 73.689 72.286 71.044 70.529 69.966 68.966 67.899 66.869 66.291 65.836 66.001 66.169 66.199 66.261 66.024 66.061 66.376 66.124 65.866 66.099 66.694 66.564 66.424 66.441 66.276 66.769 67.526 66.801 66.951 66.774 66.819 66.741 66.506 66.604 66.654 66.749 66.809 66.876 66.926 67.004 67.101 67.166 67.256 67.549 68.546 67.599 67.704 67.731 67.426 67.389 67.279 67.591 67.199 66.996 66.889 66.801 66.696 66.589 66.446 66.316 66.214 66.151 66.061 65.906 65.796 65.701 65.531 65.381 65.564 65.364 65.501 65.786 65.839 65.476 65.211 65.126 64.991 64.829 64.946 64.951 64.934 64.959 64.974 65.036 65.139 65.036 65.466 66.329 67.401 68.496 69.694 70.789 71.336 71.564 71.951 72.199 74.174 72.196 71.829 71.851 71.856 71.779 71.729 71.674 71.611 71.549 71.556 71.526 71.484 71.439 71.396 71.359 71.329 71.304 71.251 71.176 71.129 71.059 71.019 70.969 70.871 70.806 70.756 70.686 70.641 70.574 70.501 70.429 70.366 70.299 70.261 70.194 70.136 70.056 70.006 69.976 69.944 69.871 69.826 69.779 69.704 69.586 69.536 69.451 69.349 69.249 69.191 69.196 69.151 69.066 68.959 68.924 69.339 69.656 68.831 68.571 68.546 68.469 68.394 68.344 68.299 68.256 68.249 68.189 68.154 68.064 67.991 67.931 67.889 67.811 67.789 67.761 67.699 67.676 67.639 67.594 67.546 67.519 67.484 67.444 67.431 67.379 67.299 67.304 67.246 67.203 67.151 67.116 67.091 67.031 67.001 66.976 66.923 66.871 66.811 66.748 66.716 66.696 66.648 66.643 66.618 66.568 66.563 66.553 66.511 66.508 66.503 66.463 66.431 66.446 66.421 66.383 66.388 66.341 66.318 66.303 66.281 66.238 66.218 66.206 66.153 66.118 66.111 66.046 66.033 65.981 65.928 65.893 65.868 65.826 65.793 65.761 65.728 65.688 65.633 65.613 65.566 65.478 65.476 65.481 65.481 65.456 65.496 65.603 65.706 65.808 66.131 65.356 65.248 65.231 65.116 65.068 65.158 65.606 65.496 65.143 65.023 65.078 65.183 65.111 65.103 65.183 65.623 64.678 64.701 64.758 64.771 64.656 64.523 64.463 64.388 64.346 64.326 64.291 64.241 64.221 64.216 64.238 64.251 64.243 64.221 64.191 64.176 64.126 64.068 64.008 63.916 63.866 63.796 63.756 63.658 63.578 63.556 63.508 63.446 63.371 63.348 63.286 63.228 63.213 63.148 63.106 63.093 63.036 62.993 62.926 62.873 62.846 62.806 62.786 62.771 62.796 62.801 62.831 62.823 62.826 62.828 62.813 62.798 62.791 62.816 62.803 62.806 62.816 62.821 62.848 62.836 62.846 62.838 62.833 62.823
82.701 82.119 82.091 82.224 86.349 88.106 87.191 86.056 83.894 83.149 82.754 82.239 82.011 81.629 82.459 81.969 82.761 85.309 86.539 86.866 86.431 85.631 81.269 80.604 80.366 80.196 80.434 79.929 80.574 79.644 79.606 79.586 79.651 80.659 80.231 79.906 79.611 79.606 79.741 79.376 79.281 79.219 79.189 79.154 79.066 79.029 79.116 79.504 80.016 79.551 79.339 80.529 84.501 85.236 85.616 80.821 79.211 79.514 81.719 79.861 79.724 79.586 79.351 79.181 79.074 78.974 78.904 78.801 78.701 78.594 78.521 78.466 78.406 78.319 78.236 78.171 78.094 77.981 77.909 77.789 77.734 77.629 77.556 77.471 77.416 77.379 77.334 77.294 77.246 77.204 77.189 77.304 78.161 77.416 77.331 76.951 75.771 74.764 73.199 71.726 70.654 70.794 69.554 68.646 67.371 66.621 66.129 65.886 66.039 66.201 66.294 66.066 65.989 66.091 65.896 65.834 65.886 66.046 67.741 66.484 66.149 66.421 66.796 67.229 67.686 67.666 67.201 66.589 66.804 66.809 66.506 66.581 66.611 66.664 66.716 66.774 66.821 66.926 67.001 67.071 67.129 67.164 67.276 67.271 67.301 67.366 67.346 67.281 67.271 67.171 67.041 66.941 66.856 66.734 66.646 66.554 66.456 66.394 66.306 66.234 66.131 66.064 65.911 65.724 65.499 65.376 65.476 65.349 65.571 65.799 65.529 65.176 65.134 64.991 64.844 64.881 64.954 64.974 64.984 64.974 65.004 65.059 65.181 65.156 65.911 67.174 69.309 70.414 70.321 71.131 71.599 71.901 72.126 72.894 72.099 71.931 71.879 71.894 71.846 71.789 71.709 71.671 71.616 71.569 71.564 71.534 71.466 71.446 71.434 71.379 71.351 71.309 71.259 71.199 71.156 71.079 71.039 70.979 70.914 70.819 70.746 70.651 70.589 70.549 70.474 70.404 70.346 70.296 70.241 70.161 70.129 70.081 70.026 69.984 69.926 69.896 69.839 69.769 69.709 69.599 69.526 69.451 69.341 69.284 69.229 69.189 69.166 69.084 68.996 68.859 68.936 69.291 68.924 68.569 68.536 68.469 68.401 68.351 68.274 68.256 68.259 68.194 68.106 68.046 67.994 67.941 67.856 67.804 67.786 67.736 67.701 67.654 67.614 67.591 67.556 67.541 67.506 67.461 67.414 67.376 67.329 67.324 67.246 67.218 67.168 67.171 67.101 67.041 67.018 66.986 66.933 66.891 66.833 66.811 66.763 66.726 66.696 66.676 66.641 66.603 66.608 66.561 66.561 66.543 66.503 66.511 66.498 66.483 66.448 66.421 66.418 66.383 66.358 66.338 66.316 66.268 66.233 66.223 66.173 66.156 66.136 66.081 66.048 65.996 65.981 65.933 65.888 65.843 65.831 65.783 65.756 65.718 65.656 65.628 65.568 65.531 65.511 65.508 65.528 65.553 65.621 65.756 65.818 65.916 65.563 65.241 65.168 65.158 65.158 65.111 65.746 65.626 65.218 65.036 65.051 65.116 65.203 65.141 65.173 65.226 65.871 64.828 64.706 64.758 64.786 64.686 64.556 64.518 64.436 64.391 64.348 64.313 64.298 64.288 64.281 64.291 64.276 64.243 64.238 64.218 64.181 64.128 64.083 64.033 63.963 63.873 63.818 63.751 63.698 63.611 63.598 63.533 63.476 63.418 63.396 63.321 63.273 63.226 63.186 63.158 63.106 63.066 63.003 62.938 62.906 62.861 62.866 62.858 62.843 62.873 62.883 62.878 62.881 62.898 62.871 62.866 62.901 62.888 62.876 62.836 62.836 62.843 62.861 62.883 62.898 62.876 62.871 62.886 62.856
82.931 82.126 82.069 82.244 83.114 85.504 86.086 83.636 82.664 82.694 82.114 81.899 81.546 81.214 80.911 81.064 81.519 82.359 84.016 86.609 86.091 83.606 80.376 80.176 80.136 80.159 79.956 79.956 79.856 79.594 79.606 79.571 80.444 80.619 79.719 79.609 79.529 79.531 80.156 79.256 79.334 79.254 79.161 79.126 79.106 79.051 78.996 78.989 79.056 79.399 79.179 79.496 80.379 80.819 82.576 80.526 79.516 79.349 81.464 80.184 79.741 79.629 79.386 79.176 79.024 78.936 78.851 78.789 78.681 78.599 78.531 78.484 78.409 78.341 78.256 78.144 78.036 77.929 77.831 77.746 77.644 77.584 77.536 77.466 77.439 77.384 77.321 77.294 77.284 77.234 77.251 78.196 79.961 77.434 77.241 76.404 75.091 73.814 72.419 71.184 70.404 69.989 69.031 67.991 66.896 66.424 65.934 65.931 66.101 66.179 66.251 66.006 65.964 65.881 65.784 65.881 65.961 66.504 66.544 66.159 66.184 67.226 67.336 67.474 66.924 67.304 66.801 67.286 66.949 66.549 66.476 66.519 66.554 66.584 66.649 66.714 66.774 66.851 66.894 66.961 67.006 67.024 67.059 67.141 67.214 67.209 67.196 67.121 67.166 67.084 67.011 66.931 66.861 66.761 66.691 66.619 66.576 66.529 66.356 66.234 66.129 66.059 65.874 65.716 65.516 65.336 65.244 65.286 65.454 65.561 65.331 65.269 65.051 64.949 64.794 64.816 64.931 64.964 64.964 64.999 65.054 65.276 65.196 65.716 66.964 68.726 69.261 71.341 72.461 71.499 71.766 72.191 72.536 73.716 72.199 71.861 71.961 71.884 71.824 71.734 71.719 71.666 71.594 71.586 71.544 71.546 71.509 71.479 71.434 71.401 71.351 71.304 71.266 71.206 71.161 71.099 71.039 70.984 70.904 70.801 70.721 70.644 70.576 70.519 70.481 70.409 70.346 70.306 70.264 70.194 70.131 70.079 70.041 70.021 69.941 69.904 69.851 69.806 69.729 69.671 69.551 69.489 69.386 69.301 69.231 69.211 69.196 69.129 69.009 68.899 68.929 69.106 69.236 68.596 68.519 68.474 68.376 68.324 68.304 68.259 68.224 68.161 68.116 68.081 67.999 67.926 67.859 67.831 67.784 67.739 67.699 67.659 67.616 67.609 67.556 67.544 67.521 67.461 67.444 67.411 67.364 67.336 67.308 67.226 67.218 67.166 67.081 67.088 67.008 66.991 66.958 66.906 66.858 66.846 66.798 66.753 66.728 66.706 66.671 66.646 66.636 66.588 66.596 66.583 66.543 66.548 66.528 66.503 66.493 66.451 66.443 66.408 66.356 66.361 66.326 66.308 66.268 66.241 66.208 66.183 66.153 66.101 66.103 66.051 65.998 65.963 65.918 65.893 65.856 65.811 65.778 65.738 65.661 65.616 65.588 65.553 65.543 65.588 65.601 65.681 65.776 65.841 65.816 65.458 65.278 65.288 65.181 65.596 66.071 65.606 66.748 65.361 65.041 65.076 65.073 65.148 65.208 65.186 65.246 65.253 65.868 65.128 64.746 64.783 64.813 64.726 64.603 64.531 64.473 64.446 64.408 64.386 64.383 64.353 64.348 64.323 64.296 64.281 64.273 64.233 64.198 64.168 64.103 64.033 63.961 63.876 63.856 63.786 63.726 63.693 63.631 63.591 63.528 63.448 63.421 63.376 63.316 63.281 63.258 63.206 63.161 63.078 63.013 62.978 62.961 62.921 62.913 62.938 62.928 62.943 62.938 62.948 62.956 62.971 62.941 62.956 62.956 62.956 62.941 62.921 62.911 62.923 62.933 62.933 62.918 62.928 62.923 62.931 62.913
84.159 83.096 82.051 82.004 82.094 82.594 84.549 82.449 82.311 82.056 81.886 81.604 81.459 81.799 80.909 80.576 81.394 81.084 81.184 82.901 83.331 81.271 81.196 80.359 80.149 80.034 79.651 79.534 79.589 79.596 79.594 79.821 80.934 79.791 80.136 79.266 79.209 79.311 79.371 79.211 80.051 79.251 79.241 79.144 79.046 79.036 79.014 78.934 78.914 79.194 79.141 79.041 79.626 79.116 79.046 80.679 80.736 79.361 80.681 80.466 79.734 79.656 79.426 79.164 79.001 78.904 78.814 78.759 78.691 78.621 78.554 78.484 78.431 78.326 78.224 78.099 77.989 77.889 77.759 77.644 77.576 77.556 77.529 77.469 77.451 77.421 77.389 77.374 77.319 77.276 77.346 77.576 77.569 77.411 76.924 75.794 74.384 73.141 71.889 70.854 70.381 69.611 68.469 67.441 66.609 66.144 65.889 65.991 66.149 66.244 66.126 66.026 65.956 65.706 65.939 66.036 66.286 66.159 66.334 66.179 66.191 66.431 67.161 66.801 67.021 66.794 66.789 67.139 66.904 66.394 66.431 66.469 66.464 66.509 66.569 66.676 66.734 66.761 66.779 66.826 66.856 66.859 66.926 67.001 67.104 67.091 67.126 67.056 67.044 67.021 66.966 66.934 66.874 66.789 66.739 66.651 66.571 66.441 66.334 66.249 66.179 66.004 65.851 65.721 65.569 65.356 65.209 65.324 65.296 65.249 65.241 65.194 64.974 64.799 64.751 64.796 65.184 64.964 64.964 64.994 65.101 65.326 66.136 66.291 67.616 69.219 70.016 71.684 72.566 71.691 71.954 74.801 73.856 72.349 71.879 71.944 71.919 71.864 71.774 71.751 71.704 71.659 71.641 71.599 71.569 71.544 71.491 71.474 71.441 71.404 71.379 71.329 71.226 71.214 71.181 71.086 71.026 70.949 70.896 70.791 70.734 70.639 70.606 70.551 70.506 70.466 70.389 70.321 70.266 70.209 70.159 70.109 70.046 70.014 69.941 69.901 69.839 69.799 69.761 69.681 69.609 69.504 69.406 69.326 69.259 69.206 69.181 69.111 69.036 68.944 68.889 69.291 69.686 68.656 68.539 68.501 68.396 68.341 68.276 68.231 68.206 68.169 68.146 68.089 68.031 67.956 67.914 67.841 67.801 67.754 67.696 67.661 67.656 67.621 67.586 67.544 67.524 67.506 67.451 67.404 67.374 67.351 67.316 67.276 67.258 67.171 67.113 67.101 67.061 67.043 66.983 66.938 66.893 66.868 66.818 66.771 66.763 66.718 66.708 66.663 66.641 66.633 66.626 66.628 66.598 66.571 66.548 66.538 66.498 66.468 66.481 66.426 66.403 66.401 66.358 66.333 66.276 66.278 66.263 66.218 66.183 66.153 66.098 66.076 66.036 65.991 65.958 65.913 65.856 65.841 65.801 65.733 65.663 65.636 65.598 65.583 65.593 65.671 65.713 65.791 65.863 66.053 65.813 65.801 65.306 65.243 66.448 70.298 69.658 65.731 65.371 65.078 65.118 65.106 65.113 65.161 65.196 65.206 65.251 65.258 65.701 65.581 64.781 64.816 64.838 64.778 64.638 64.581 64.528 64.481 64.461 64.451 64.438 64.411 64.408 64.378 64.336 64.328 64.291 64.276 64.226 64.168 64.116 64.051 63.981 63.921 63.866 63.811 63.768 63.711 63.651 63.623 63.573 63.506 63.471 63.411 63.381 63.348 63.301 63.236 63.178 63.118 63.033 63.028 63.021 63.018 62.996 63.001 63.011 63.008 63.018 63.008 63.011 63.011 63.008 63.031 63.028 63.021 62.978 62.981 62.976 62.973 62.978 62.963 62.951 62.988 62.981 62.966 62.958
83.586 84.916 83.974 83.164 82.484 82.004 81.986 82.599 82.081 81.966 81.684 81.264 82.601 83.154 84.626 80.919 80.626 81.076 80.881 80.479 80.529 80.206 80.326 80.214 79.851 79.734 79.541 79.564 79.589 79.556 79.896 80.779 80.021 79.931 83.536 84.566 82.051 81.001 80.876 79.414 79.386 80.039 79.231 79.264 79.131 79.011 78.984 78.966 78.921 78.864 78.956 78.964 79.404 78.959 79.034 79.084 79.461 80.684 81.256 81.376 79.719 79.604 79.424 79.176 79.011 78.884 78.796 78.759 78.726 78.661 78.571 78.479 78.396 78.289 78.201 78.099 77.949 77.841 77.734 77.606 77.539 77.529 77.499 77.461 77.461 77.479 77.444 77.429 77.381 77.359 77.471 77.596 77.426 77.371 76.519 75.154 73.719 72.479 71.539 70.659 70.059 69.051 67.929 67.024 66.364 65.889 65.906 66.034 66.144 66.281 66.086 66.014 65.894 65.694 66.484 67.574 67.139 66.631 66.354 66.234 66.216 66.231 66.511 66.349 67.054 66.919 66.761 66.744 66.409 66.279 66.396 66.414 66.414 66.434 66.449 66.559 66.631 66.634 66.659 66.689 66.701 66.704 66.759 66.866 66.966 67.019 66.989 66.986 66.954 66.911 66.896 66.846 66.796 66.776 66.694 66.621 66.491 66.381 66.339 66.916 66.314 66.016 65.819 65.704 65.514 65.216 65.181 65.354 65.606 65.476 65.224 64.984 64.874 64.696 64.691 64.766 65.036 64.991 65.009 65.051 65.184 65.154 66.236 66.954 67.986 68.984 71.269 72.004 71.676 71.866 72.856 73.946 73.816 72.001 71.891 71.939 71.899 71.824 71.789 71.744 71.711 71.674 71.666 71.619 71.569 71.539 71.519 71.501 71.456 71.409 71.356 71.316 71.251 71.221 71.161 71.096 71.021 70.959 70.879 70.821 70.721 70.671 70.626 70.589 70.564 70.464 70.396 70.314 70.271 70.221 70.159 70.106 70.064 70.021 69.939 69.904 69.839 69.806 69.761 69.716 69.634 69.524 69.441 69.334 69.234 69.209 69.164 69.096 69.034 68.949 68.831 69.051 69.954 68.949 68.544 68.511 68.424 68.344 68.306 68.254 68.229 68.204 68.166 68.099 68.049 67.979 67.894 67.851 67.816 67.746 67.709 67.666 67.644 67.621 67.606 67.569 67.524 67.521 67.461 67.424 67.411 67.354 67.308 67.276 67.228 67.203 67.148 67.116 67.083 67.031 66.991 67.018 66.911 66.881 66.861 66.816 66.788 66.768 66.713 66.683 66.663 66.661 66.643 66.653 66.616 66.616 66.596 66.561 66.531 66.506 66.496 66.476 66.461 66.428 66.383 66.338 66.291 66.271 66.268 66.253 66.213 66.171 66.156 66.088 66.068 66.006 65.953 65.926 65.861 65.843 65.793 65.706 65.646 65.623 65.631 65.648 65.663 65.756 65.853 65.953 65.928 65.623 65.413 65.331 65.283 66.136 70.493 73.523 70.803 65.543 65.198 65.153 65.143 65.126 65.141 65.181 65.203 65.211 65.251 65.303 65.428 65.891 64.801 64.821 64.851 64.793 64.698 64.626 64.588 64.546 64.541 64.531 64.493 64.493 64.458 64.423 64.373 64.361 64.316 64.293 64.268 64.176 64.138 64.076 64.036 63.956 63.903 63.868 63.816 63.768 63.711 63.666 63.621 63.566 63.508 63.471 63.428 63.381 63.331 63.273 63.203 63.151 63.123 63.088 63.076 63.091 63.086 63.078 63.081 63.076 63.071 63.068 63.053 63.076 63.061 63.078 63.083 63.078 63.073 63.046 63.046 63.033 63.016 62.996 63.028 63.021 63.008 63.016 63.048
82.271 83.731 85.361 84.026 83.674 83.034 83.204 82.766 82.361 81.826 81.729 80.944 80.881 82.536 86.576 86.169 84.819 80.329 80.421 81.036 80.289 80.131 80.381 79.911 79.666 79.531 79.526 79.574 79.586 79.561 79.881 80.179 79.661 82.009 85.469 85.251 84.749 83.586 81.964 80.656 79.149 79.194 79.264 79.551 79.646 79.124 78.999 78.896 78.899 78.871 78.811 78.771 78.851 78.911 78.994 78.986 78.901 79.134 80.299 81.439 79.616 79.536 79.416 79.174 79.006 78.889 78.796 78.744 78.721 78.659 78.559 78.451 78.361 78.254 78.134 78.014 77.874 77.771 77.694 77.579 77.541 77.549 77.549 77.539 77.526 77.529 77.509 77.504 77.461 77.464 77.854 78.014 77.481 77.074 76.001 74.496 73.069 71.849 71.006 70.381 69.559 68.426 67.469 66.634 66.066 65.836 66.006 66.099 66.244 66.221 66.086 65.929 65.901 65.791 67.211 68.671 66.451 66.454 67.146 66.839 66.794 66.226 66.381 67.119 67.346 67.214 66.936 66.289 66.236 66.254 66.349 66.336 66.319 66.356 66.346 66.414 66.491 66.484 66.509 66.501 66.521 66.554 66.629 66.756 66.821 66.886 66.936 66.936 66.914 66.844 66.844 66.804 66.774 66.729 66.631 66.546 66.446 66.376 66.336 66.506 68.166 67.131 65.759 65.669 65.434 65.121 65.284 65.979 65.926 65.594 65.121 64.986 64.824 64.711 64.794 65.069 65.004 64.989 65.076 65.256 65.396 65.349 66.329 67.576 68.689 69.719 72.776 73.719 71.794 72.021 73.854 74.299 72.701 71.929 71.951 71.931 71.849 71.801 71.796 71.729 71.724 71.699 71.639 71.584 71.564 71.531 71.521 71.474 71.446 71.409 71.379 71.319 71.256 71.199 71.121 71.089 71.009 70.944 70.879 70.804 70.751 70.686 70.639 70.589 70.536 70.469 70.406 70.334 70.259 70.224 70.159 70.114 70.059 70.004 69.941 69.891 69.889 69.841 69.779 69.704 69.634 69.544 69.456 69.359 69.256 69.206 69.149 69.119 69.046 68.986 68.849 68.876 69.559 69.306 68.539 68.496 68.439 68.384 68.331 68.249 68.239 68.226 68.161 68.076 68.016 67.984 67.891 67.839 67.796 67.754 67.709 67.666 67.636 67.624 67.589 67.569 67.554 67.519 67.489 67.446 67.404 67.369 67.288 67.266 67.246 67.228 67.173 67.133 67.081 67.043 67.033 66.986 66.933 66.898 66.886 66.858 66.823 66.781 66.726 66.731 66.691 66.688 66.706 66.701 66.666 66.653 66.633 66.608 66.581 66.538 66.543 66.513 66.491 66.441 66.403 66.386 66.353 66.336 66.283 66.266 66.238 66.186 66.143 66.098 66.088 66.056 65.993 65.938 65.893 65.831 65.763 65.696 65.666 65.668 65.688 65.731 65.768 65.863 66.438 66.226 66.328 65.433 65.388 65.271 65.973 68.471 69.866 70.803 70.816 65.291 65.221 65.171 65.151 65.176 65.168 65.208 65.243 65.233 65.231 65.356 65.376 65.898 64.818 64.828 64.873 64.853 64.748 64.661 64.641 64.618 64.613 64.593 64.586 64.533 64.481 64.461 64.418 64.386 64.353 64.301 64.276 64.216 64.161 64.098 64.073 64.023 63.951 63.901 63.856 63.808 63.766 63.733 63.661 63.616 63.573 63.548 63.508 63.436 63.378 63.313 63.251 63.203 63.173 63.183 63.176 63.163 63.133 63.166 63.148 63.143 63.128 63.101 63.098 63.101 63.113 63.138 63.141 63.141 63.111 63.106 63.101 63.098 63.078 63.053 63.073 63.046 63.068 63.096 63.101
81.576 81.949 83.029 83.846 85.409 84.769 83.151 81.674 81.676 82.259 81.714 80.594 80.259 83.104 86.589 86.771 86.431 83.591 80.109 80.134 80.766 80.539 79.871 80.114 79.574 79.539 79.561 79.709 80.901 79.886 80.736 79.654 80.391 83.396 85.051 85.461 85.354 85.019 84.391 80.534 78.891 78.989 79.739 79.506 79.906 79.036 79.046 78.991 78.906 78.864 78.849 78.771 78.739 78.789 78.816 78.769 78.746 78.794 78.926 80.086 79.624 79.484 79.384 79.171 78.989 78.899 78.801 78.721 78.691 78.609 78.534 78.421 78.304 78.191 78.071 77.931 77.829 77.739 77.639 77.559 77.554 77.589 77.621 77.611 77.571 77.549 77.554 77.566 77.544 77.586 78.479 80.354 78.531 76.611 75.164 73.779 72.611 71.379 70.411 70.181 69.324 68.196 67.061 66.246 65.806 65.916 66.086 66.144 66.286 66.144 66.119 65.956 65.924 65.841 65.961 66.276 66.316 66.584 66.679 67.371 66.899 66.266 66.326 66.329 66.321 66.374 66.241 66.219 66.161 66.189 66.289 66.276 66.286 66.296 66.244 66.281 66.361 66.391 66.384 66.371 66.384 66.454 66.551 66.646 66.744 66.771 66.874 66.851 66.816 66.791 66.759 66.731 66.669 66.579 66.554 66.501 66.426 66.329 66.229 66.049 66.754 66.021 65.679 65.586 65.361 65.204 65.356 65.869 65.874 65.389 65.074 64.884 64.754 64.749 65.056 65.286 64.991 64.991 65.221 65.431 65.079 65.869 67.011 68.274 69.544 70.349 71.219 71.994 72.021 72.141 73.906 72.799 71.909 71.939 71.921 71.879 71.836 71.799 71.781 71.749 71.701 71.656 71.616 71.576 71.536 71.526 71.486 71.484 71.414 71.394 71.361 71.299 71.234 71.156 71.089 71.049 70.989 70.959 70.871 70.806 70.719 70.669 70.611 70.564 70.506 70.449 70.369 70.314 70.259 70.204 70.136 70.069 70.024 69.991 69.971 69.924 69.861 69.841 69.786 69.681 69.591 69.526 69.454 69.359 69.259 69.196 69.136 69.096 69.044 68.989 68.869 68.884 69.319 69.379 68.559 68.504 68.459 68.384 68.329 68.264 68.236 68.224 68.159 68.089 68.029 67.976 67.889 67.824 67.774 67.751 67.729 67.686 67.661 67.624 67.594 67.581 67.551 67.534 67.484 67.441 67.401 67.384 67.278 67.251 67.246 67.203 67.191 67.136 67.096 67.083 67.028 67.001 66.971 66.928 66.871 66.886 66.856 66.791 66.758 66.756 66.731 66.736 66.738 66.731 66.711 66.671 66.653 66.643 66.616 66.588 66.573 66.538 66.528 66.468 66.456 66.426 66.396 66.343 66.303 66.301 66.253 66.223 66.191 66.143 66.093 66.038 66.016 65.946 65.861 65.811 65.783 65.721 65.711 65.731 65.758 65.821 68.021 69.516 69.036 65.998 65.591 65.616 65.336 65.583 67.718 68.881 71.773 66.903 65.411 65.273 65.248 65.221 65.221 65.211 65.188 65.233 65.256 65.246 65.263 65.371 65.403 66.181 64.858 64.853 64.856 64.881 64.818 64.698 64.701 64.673 64.683 64.671 64.658 64.616 64.563 64.521 64.446 64.401 64.376 64.323 64.281 64.231 64.198 64.146 64.103 64.088 64.026 63.938 63.928 63.863 63.833 63.791 63.723 63.691 63.648 63.638 63.573 63.483 63.418 63.366 63.316 63.271 63.266 63.248 63.248 63.216 63.208 63.196 63.193 63.188 63.186 63.181 63.186 63.173 63.191 63.198 63.171 63.171 63.168 63.186 63.168 63.131 63.118 63.128 63.133 63.116 63.133 63.166 63.158
81.256 81.331 81.399 81.834 85.734 84.906 82.249 81.574 81.424 81.579 82.521 81.644 81.756 84.499 85.851 86.344 86.664 83.291 80.084 80.104 80.079 80.404 80.481 79.579 79.489 79.531 79.556 80.666 80.594 80.966 79.769 79.731 79.171 80.226 83.551 84.819 85.301 85.546 85.249 84.756 82.349 79.589 79.279 78.946 78.956 78.854 78.951 79.019 79.001 78.864 78.821 78.796 78.766 78.774 78.726 78.716 78.706 78.736 78.826 79.344 79.746 79.406 79.344 79.129 78.921 78.831 78.771 78.704 78.646 78.534 78.454 78.331 78.234 78.099 77.974 77.859 77.809 77.766 77.679 77.601 77.616 77.636 77.684 77.684 77.629 77.566 77.591 77.629 77.631 77.919 77.489 78.041 77.134 76.091 74.649 73.219 72.921 70.916 70.259 69.984 68.736 67.684 66.619 65.926 65.861 65.964 66.119 66.179 66.224 66.121 65.969 65.749 65.771 65.891 65.984 66.026 66.496 66.856 66.361 66.226 67.401 66.666 66.219 66.246 66.261 66.234 66.226 66.156 66.134 66.189 66.236 66.226 66.224 66.254 66.266 66.274 66.279 66.301 66.304 66.249 66.254 66.366 66.461 66.571 66.621 66.711 66.804 67.229 66.706 66.694 66.654 66.619 66.566 66.509 66.459 66.381 66.391 66.259 66.111 65.994 65.861 65.736 65.641 65.534 65.316 65.284 65.521 66.016 65.394 65.006 64.961 64.791 64.736 64.726 65.079 65.114 64.959 65.101 65.341 65.414 65.421 66.589 67.771 69.149 70.256 70.954 71.544 71.944 72.029 72.156 73.371 72.214 71.901 71.886 71.864 71.831 71.794 71.764 71.719 71.711 71.661 71.616 71.561 71.526 71.494 71.506 71.446 71.426 71.386 71.331 71.316 71.251 71.184 71.151 71.076 71.061 71.001 70.949 70.864 70.779 70.711 70.654 70.594 70.526 70.484 70.404 70.381 70.296 70.229 70.149 70.111 70.056 70.016 69.994 69.964 69.921 69.854 69.799 69.751 69.689 69.589 69.496 69.409 69.344 69.239 69.129 69.129 69.106 69.064 69.019 68.936 68.794 68.889 69.199 68.576 68.481 68.456 68.411 68.311 68.266 68.206 68.189 68.159 68.076 68.029 67.971 67.891 67.819 67.784 67.741 67.719 67.699 67.671 67.631 67.609 67.579 67.554 67.549 67.486 67.446 67.424 67.349 67.306 67.286 67.246 67.221 67.191 67.131 67.128 67.076 67.038 67.013 66.981 66.946 66.926 66.886 66.828 66.831 66.833 66.798 66.791 66.766 66.761 66.761 66.743 66.718 66.678 66.676 66.646 66.608 66.583 66.553 66.543 66.506 66.476 66.443 66.408 66.363 66.323 66.318 66.258 66.223 66.188 66.151 66.096 66.033 65.976 65.913 65.861 65.833 65.783 65.748 65.738 65.776 65.853 65.988 68.891 74.373 73.671 65.698 65.446 65.426 65.578 66.113 67.323 66.626 67.108 69.031 65.326 65.286 65.266 65.286 65.296 65.273 65.263 65.246 65.263 65.278 65.278 65.336 65.408 65.998 64.951 64.863 64.908 64.906 64.838 64.758 64.726 64.743 64.736 64.741 64.713 64.681 64.631 64.568 64.508 64.461 64.433 64.361 64.311 64.276 64.196 64.156 64.141 64.131 64.063 64.033 63.996 63.941 63.896 63.853 63.808 63.751 63.736 63.686 63.616 63.538 63.473 63.426 63.393 63.381 63.346 63.323 63.308 63.318 63.293 63.286 63.276 63.256 63.258 63.261 63.261 63.266 63.266 63.261 63.241 63.236 63.246 63.243 63.198 63.181 63.173 63.176 63.161 63.146 63.188 63.196 63.181
80.736 80.691 81.189 82.991 85.639 83.856 81.679 81.529 81.256 81.256 83.001 84.031 85.554 84.999 83.514 84.294 84.539 81.249 80.016 80.019 79.909 79.826 79.664 79.506 79.504 79.534 79.516 80.086 81.259 80.261 79.791 79.309 79.149 79.286 81.366 82.946 84.639 85.086 85.464 85.406 82.606 80.679 80.636 80.844 80.654 78.856 78.789 78.874 79.961 80.356 79.191 78.796 78.769 78.769 78.694 78.709 78.709 78.694 78.831 79.261 79.709 79.344 79.294 79.094 78.834 78.744 78.686 78.609 78.551 78.464 78.381 78.291 78.164 78.036 77.949 77.879 77.821 77.789 77.729 77.666 77.656 77.694 77.734 77.716 77.651 77.604 77.634 77.684 77.706 77.674 77.626 77.494 76.719 75.409 74.079 72.824 71.419 70.474 70.226 69.541 68.119 67.261 66.399 66.016 65.919 66.079 66.179 66.314 66.116 66.041 65.791 65.601 65.799 65.934 66.011 66.106 66.229 66.096 66.099 66.151 67.141 66.186 66.231 66.201 66.251 66.221 66.166 66.111 66.156 66.221 66.224 66.219 66.201 66.254 66.234 66.274 66.294 66.234 66.181 66.114 66.189 66.286 66.389 66.496 66.521 66.604 66.716 67.369 66.606 66.519 66.499 66.449 66.419 66.364 66.311 66.281 66.374 66.311 66.119 66.106 65.814 65.721 65.629 65.514 65.341 65.394 66.239 65.604 64.864 64.846 64.816 64.764 64.684 64.831 65.136 64.954 65.006 65.229 65.231 65.261 66.224 67.534 68.694 70.404 72.251 72.119 71.919 72.144 72.259 72.594 71.961 71.871 71.891 71.861 71.819 71.791 71.759 71.724 71.711 71.681 71.616 71.589 71.566 71.521 71.481 71.446 71.404 71.364 71.349 71.296 71.249 71.194 71.171 71.126 71.089 71.019 70.956 70.894 70.864 70.771 70.691 70.609 70.556 70.504 70.441 70.404 70.346 70.261 70.214 70.176 70.121 70.069 70.001 69.994 69.939 69.916 69.844 69.799 69.741 69.681 69.606 69.519 69.434 69.346 69.256 69.151 69.136 69.121 69.079 69.026 68.984 68.859 68.781 69.061 68.631 68.486 68.476 68.406 68.351 68.276 68.224 68.206 68.146 68.099 68.019 67.949 67.886 67.826 67.789 67.746 67.729 67.681 67.661 67.649 67.594 67.576 67.546 67.514 67.479 67.451 67.396 67.369 67.361 67.296 67.263 67.246 67.193 67.173 67.143 67.101 67.071 67.033 66.996 66.958 66.918 66.906 66.888 66.858 66.843 66.846 66.806 66.791 66.786 66.773 66.738 66.743 66.686 66.698 66.663 66.651 66.613 66.578 66.546 66.551 66.496 66.441 66.403 66.363 66.343 66.291 66.261 66.223 66.166 66.131 66.103 66.006 65.973 65.921 65.883 65.846 65.803 65.771 65.816 65.868 65.931 66.211 68.438 72.588 72.831 66.291 65.486 65.948 66.481 67.298 67.053 66.938 65.451 65.346 65.351 65.341 65.388 65.383 65.381 65.331 65.311 65.266 65.298 65.316 65.301 65.351 65.451 65.791 65.281 64.881 64.941 64.971 64.903 64.806 64.796 64.796 64.813 64.803 64.753 64.718 64.673 64.618 64.566 64.511 64.473 64.413 64.361 64.311 64.261 64.243 64.206 64.161 64.121 64.078 64.053 64.008 63.958 63.931 63.896 63.838 63.811 63.728 63.661 63.598 63.561 63.501 63.463 63.446 63.416 63.411 63.393 63.373 63.358 63.333 63.343 63.301 63.336 63.351 63.333 63.331 63.306 63.303 63.293 63.276 63.306 63.283 63.246 63.236 63.241 63.226 63.213 63.226 63.228 63.226 63.213
80.051 80.206 80.964 85.031 85.849 85.009 82.154 81.469 81.371 80.629 81.184 84.841 86.631 86.039 84.979 83.511 80.564 80.586 79.906 79.904 79.826 79.646 79.534 79.519 79.524 79.534 79.531 80.094 80.819 79.654 79.641 79.219 79.141 79.076 80.731 79.869 80.034 82.601 84.874 85.306 80.724 84.439 84.454 83.184 81.951 81.409 79.671 78.736 80.086 80.881 80.681 78.851 78.751 78.696 78.686 78.711 78.684 78.671 78.749 79.134 79.444 79.301 79.236 79.056 78.781 78.649 78.574 78.514 78.504 78.424 78.356 78.266 78.126 78.026 77.979 77.916 77.851 77.816 77.741 77.704 77.704 77.761 77.806 77.764 77.676 77.651 77.674 77.726 77.704 77.569 77.544 77.239 76.181 74.846 73.471 72.089 70.904 70.236 69.766 68.669 67.709 66.866 66.126 65.939 65.984 66.139 66.216 66.249 66.081 66.029 65.694 65.721 65.811 65.919 66.386 67.134 66.129 66.049 66.051 66.079 66.124 66.154 66.166 66.189 66.241 66.196 66.096 66.066 66.144 66.231 66.209 66.191 66.091 66.029 66.096 66.161 66.161 66.111 66.036 66.031 66.144 66.209 66.356 66.376 66.444 66.489 66.471 66.556 66.419 66.371 66.329 66.311 66.311 66.266 66.214 66.186 66.224 66.119 66.046 66.176 65.916 65.769 65.644 65.464 65.444 65.679 66.004 65.039 64.824 64.726 64.711 64.681 64.746 64.956 64.974 64.946 65.064 65.259 65.049 65.954 67.944 68.349 69.314 70.989 72.101 72.589 72.016 72.181 72.481 72.324 71.856 71.889 71.871 71.831 71.781 71.741 71.709 71.686 71.659 71.616 71.596 71.574 71.541 71.479 71.439 71.376 71.349 71.326 71.301 71.289 71.249 71.209 71.179 71.124 71.019 70.986 70.916 70.869 70.804 70.724 70.664 70.619 70.556 70.504 70.439 70.386 70.304 70.284 70.221 70.151 70.111 70.046 70.036 69.999 69.961 69.894 69.841 69.786 69.751 69.681 69.621 69.544 69.449 69.341 69.286 69.201 69.136 69.139 69.099 69.054 68.971 68.869 68.916 68.866 68.766 68.439 68.469 68.414 68.351 68.301 68.239 68.191 68.149 68.106 68.026 67.954 67.926 67.854 67.811 67.789 67.739 67.686 67.666 67.631 67.631 67.609 67.561 67.531 67.479 67.446 67.446 67.391 67.361 67.293 67.278 67.253 67.216 67.186 67.151 67.118 67.086 67.051 67.033 66.971 66.931 66.941 66.891 66.861 66.866 66.863 66.856 66.823 66.788 66.796 66.768 66.758 66.741 66.696 66.673 66.641 66.611 66.566 66.548 66.543 66.483 66.436 66.413 66.366 66.328 66.291 66.241 66.218 66.178 66.128 66.066 66.001 65.946 65.946 65.881 65.816 65.811 65.836 65.913 65.991 66.073 66.463 67.026 68.596 66.048 65.678 65.583 65.948 67.791 67.656 66.981 66.046 65.361 65.376 65.376 65.401 65.443 65.456 65.436 65.373 65.338 65.283 65.323 65.356 65.346 65.366 65.466 65.621 65.631 64.911 64.961 65.011 64.936 64.853 64.878 64.901 64.866 64.853 64.841 64.793 64.726 64.688 64.623 64.563 64.506 64.453 64.418 64.363 64.318 64.311 64.251 64.211 64.188 64.168 64.101 64.078 64.046 63.986 63.953 63.933 63.873 63.803 63.746 63.668 63.626 63.591 63.556 63.528 63.503 63.498 63.466 63.441 63.398 63.388 63.401 63.371 63.416 63.413 63.388 63.401 63.383 63.361 63.363 63.361 63.353 63.323 63.308 63.296 63.271 63.253 63.271 63.286 63.261 63.271 63.258
79.761 80.169 80.531 83.611 84.194 81.364 81.226 82.039 81.316 81.449 83.091 86.059 86.486 86.794 86.599 82.774 80.161 79.911 79.816 79.939 79.881 79.581 79.554 79.529 79.499 79.484 79.854 79.756 80.514 80.006 80.166 80.574 79.041 79.026 79.901 78.826 78.746 78.796 81.446 81.094 82.101 85.126 85.094 84.651 84.141 82.594 81.621 79.581 78.914 79.564 79.146 78.876 78.881 78.729 78.661 78.616 78.659 78.649 78.631 78.849 79.311 79.229 79.161 79.009 78.771 78.569 78.514 78.484 78.471 78.384 78.339 78.266 78.141 78.071 78.014 77.954 77.876 77.836 77.761 77.729 77.744 77.804 77.831 77.801 77.706 77.684 77.724 77.751 77.661 78.321 78.379 77.149 75.611 76.756 73.376 71.531 70.514 70.829 69.376 68.179 67.364 66.539 65.941 65.891 66.081 66.181 66.306 66.146 66.029 65.746 65.686 65.776 65.841 65.954 66.109 66.339 66.009 66.014 66.249 66.751 66.074 66.109 66.226 66.381 66.199 66.109 66.036 66.074 66.116 66.174 66.171 66.161 65.934 65.936 66.044 66.079 66.074 66.019 65.964 66.019 66.136 66.236 66.356 66.286 66.914 67.101 66.519 66.359 66.274 66.216 66.156 66.161 66.156 66.141 66.111 66.104 66.114 66.061 66.006 65.934 65.906 65.779 65.589 65.441 65.526 66.101 65.596 64.876 64.801 65.166 64.726 64.716 64.849 65.024 64.951 65.031 65.196 65.104 65.296 66.406 67.864 68.976 69.879 71.124 71.926 71.984 72.149 72.654 72.521 71.891 71.801 71.834 71.804 71.781 71.749 71.719 71.651 71.649 71.629 71.626 71.589 71.514 71.491 71.434 71.399 71.344 71.306 71.299 71.269 71.269 71.224 71.176 71.131 71.081 71.014 70.941 70.894 70.839 70.791 70.726 70.654 70.594 70.551 70.431 70.366 70.366 70.316 70.249 70.189 70.146 70.091 70.049 70.019 69.984 69.944 69.889 69.841 69.766 69.714 69.656 69.616 69.544 69.444 69.349 69.266 69.174 69.146 69.129 69.079 69.041 69.004 68.889 68.884 69.339 69.124 68.519 68.479 68.434 68.374 68.329 68.254 68.221 68.169 68.134 68.056 67.991 67.954 67.901 67.846 67.809 67.744 67.731 67.676 67.666 67.624 67.581 67.574 67.536 67.494 67.454 67.439 67.409 67.371 67.321 67.291 67.278 67.208 67.191 67.173 67.143 67.096 67.046 67.031 67.008 66.966 66.948 66.906 66.906 66.876 66.876 66.856 66.833 66.813 66.808 66.773 66.758 66.743 66.716 66.671 66.646 66.626 66.603 66.586 66.506 66.483 66.463 66.428 66.358 66.333 66.286 66.253 66.206 66.148 66.098 66.038 65.996 65.956 65.908 65.863 65.823 65.861 65.921 66.008 66.143 66.256 65.941 65.666 65.603 65.526 65.618 65.511 65.973 67.733 67.716 65.676 65.376 65.431 65.436 65.488 65.508 65.528 65.528 65.493 65.458 65.378 65.338 65.341 65.368 65.413 65.363 65.431 65.638 66.133 64.971 65.028 65.043 64.996 64.946 64.938 64.941 64.908 64.908 64.886 64.836 64.808 64.751 64.676 64.628 64.551 64.506 64.473 64.413 64.398 64.346 64.293 64.253 64.233 64.191 64.156 64.161 64.113 64.071 64.053 63.988 63.936 63.851 63.823 63.771 63.703 63.688 63.658 63.628 63.601 63.576 63.541 63.516 63.508 63.478 63.461 63.473 63.476 63.463 63.441 63.443 63.441 63.426 63.403 63.418 63.391 63.378 63.376 63.363 63.331 63.318 63.338 63.311 63.303 63.281 63.263
80.874 80.179 80.751 81.799 81.309 80.556 80.631 81.596 81.876 81.979 83.729 85.029 85.786 86.244 85.401 81.194 80.599 80.054 79.844 79.681 79.514 79.484 79.524 79.531 79.484 79.579 81.906 81.936 80.339 80.664 81.136 79.461 79.024 79.459 79.551 78.844 78.779 78.736 78.799 78.949 83.499 84.521 84.986 85.164 84.861 84.214 83.264 81.664 78.796 79.839 78.646 78.516 78.769 78.941 78.734 78.596 78.606 78.626 78.591 78.699 79.916 79.161 79.089 78.999 78.761 78.549 78.499 78.481 78.434 78.371 78.304 78.241 78.159 78.074 78.021 77.966 77.906 77.859 77.806 77.781 77.836 77.859 77.854 77.794 77.711 77.729 77.776 77.814 77.614 77.634 77.259 76.256 74.959 73.936 72.184 70.961 70.164 69.836 68.614 67.746 66.999 66.096 65.836 65.954 66.179 66.194 66.301 66.094 65.991 65.749 65.719 65.826 65.881 66.204 66.819 66.296 65.946 66.009 66.784 68.354 66.411 66.091 66.161 66.299 66.126 66.036 66.061 66.071 66.059 66.144 66.151 65.891 65.724 65.894 66.066 66.011 65.986 65.921 65.901 66.064 66.126 66.189 66.269 66.159 66.521 66.501 66.884 66.386 66.171 66.079 65.989 65.994 65.996 65.981 65.999 66.019 65.974 65.991 65.946 65.851 65.816 65.726 65.549 65.481 65.909 65.946 65.079 64.766 64.816 64.814 65.009 64.816 64.936 64.974 64.999 65.161 65.496 65.206 65.871 67.266 68.424 69.516 70.531 71.631 72.021 72.064 72.199 72.119 73.779 71.794 71.836 71.811 71.761 71.731 71.689 71.639 71.646 71.646 71.609 71.554 71.526 71.474 71.456 71.389 71.321 71.294 71.306 71.271 71.254 71.224 71.174 71.119 71.091 71.024 70.964 70.926 70.866 70.814 70.781 70.714 70.616 70.561 70.504 70.431 70.391 70.326 70.281 70.244 70.176 70.134 70.024 70.016 69.971 69.946 69.904 69.876 69.819 69.751 69.706 69.641 69.591 69.516 69.434 69.371 69.294 69.194 69.151 69.076 69.056 69.029 68.986 68.976 70.704 70.936 68.921 68.584 68.481 68.441 68.354 68.319 68.294 68.201 68.171 68.116 68.091 68.024 67.991 67.939 67.874 67.811 67.759 67.734 67.686 67.669 67.619 67.594 67.581 67.496 67.504 67.486 67.446 67.426 67.368 67.316 67.313 67.276 67.221 67.206 67.188 67.163 67.126 67.058 67.043 67.006 66.983 66.946 66.948 66.936 66.888 66.886 66.888 66.856 66.826 66.818 66.796 66.796 66.781 66.721 66.698 66.663 66.646 66.598 66.583 66.526 66.508 66.476 66.416 66.363 66.331 66.293 66.248 66.176 66.136 66.066 66.031 65.991 65.953 65.916 65.881 65.886 65.946 66.026 66.191 66.788 66.058 65.718 65.628 65.608 65.663 65.611 65.681 66.691 66.981 65.821 65.418 65.433 65.478 65.523 65.558 65.581 65.601 65.581 65.546 65.483 65.408 65.366 65.358 65.411 65.456 65.411 65.486 65.553 65.406 65.076 65.046 65.066 65.081 65.043 65.003 64.981 64.961 64.938 64.918 64.868 64.846 64.803 64.728 64.663 64.621 64.566 64.483 64.431 64.438 64.373 64.348 64.318 64.268 64.246 64.223 64.206 64.191 64.146 64.088 64.058 63.981 63.923 63.888 63.833 63.811 63.788 63.766 63.741 63.708 63.636 63.623 63.593 63.558 63.548 63.543 63.538 63.541 63.546 63.541 63.518 63.503 63.496 63.493 63.481 63.458 63.463 63.433 63.413 63.378 63.393 63.388 63.338 63.361 63.311 63.276
84.491 83.251 82.786 79.841 79.559 80.084 80.146 80.381 81.829 83.016 81.034 84.109 84.474 84.694 83.636 80.944 81.144 80.574 80.671 79.579 79.471 79.506 79.506 79.494 79.529 81.461 81.446 79.569 79.306 80.389 81.631 81.384 80.499 79.811 78.846 78.799 78.741 78.651 78.806 78.671 79.069 82.131 84.331 84.791 85.199 85.104 84.624 82.914 78.476 78.524 78.276 78.296 79.279 78.779 79.181 79.184 78.599 78.551 78.519 80.129 81.276 79.431 79.034 78.939 78.744 78.556 78.481 78.456 78.396 78.324 78.244 78.176 78.131 78.061 78.029 77.974 77.901 77.876 77.834 77.841 77.879 77.851 77.821 77.749 77.711 77.776 77.874 77.976 78.131 77.706 76.654 75.491 74.329 72.799 71.786 71.489 70.089 69.254 68.034 67.384 66.456 65.886 65.889 66.081 66.154 66.274 66.194 66.059 65.971 65.709 65.754 65.826 66.064 67.119 67.129 65.909 65.909 65.991 66.176 67.664 67.021 66.059 66.046 66.059 66.016 66.074 66.119 66.071 66.101 65.989 65.839 65.759 65.624 65.979 66.034 65.941 65.949 66.354 66.219 66.009 66.041 66.114 66.179 66.064 66.201 66.556 66.316 66.166 66.031 65.936 65.859 65.884 65.859 65.816 65.836 65.876 65.876 65.879 65.844 65.796 65.734 65.576 65.486 65.539 65.964 65.426 64.814 64.696 64.691 64.731 64.826 64.879 64.971 64.959 65.056 65.196 65.646 65.501 66.691 68.724 69.139 70.179 71.339 72.099 72.019 72.519 75.986 73.229 71.796 71.861 71.819 71.776 71.704 71.694 71.656 71.634 71.616 71.614 71.561 71.529 71.481 71.449 71.401 71.349 71.311 71.299 71.269 71.241 71.211 71.171 71.149 71.119 71.064 70.999 70.941 70.876 70.846 70.809 70.721 70.689 70.599 70.524 70.446 70.421 70.389 70.321 70.281 70.224 70.136 70.084 70.019 69.986 69.959 69.914 69.894 69.871 69.809 69.741 69.696 69.634 69.564 69.504 69.459 69.364 69.269 69.191 69.144 69.059 69.056 69.019 68.981 68.976 70.039 68.846 69.226 68.776 68.476 68.436 68.374 68.334 68.286 68.241 68.209 68.139 68.101 68.061 68.019 67.946 67.894 67.836 67.774 67.741 67.706 67.661 67.641 67.609 67.561 67.539 67.516 67.479 67.434 67.404 67.346 67.331 67.311 67.266 67.208 67.188 67.173 67.148 67.108 67.068 67.063 67.011 67.008 66.973 66.943 66.938 66.913 66.898 66.883 66.851 66.851 66.826 66.811 66.791 66.763 66.733 66.721 66.696 66.653 66.611 66.578 66.561 66.513 66.471 66.411 66.363 66.356 66.308 66.251 66.196 66.123 66.111 66.058 65.996 65.971 65.948 65.983 66.008 66.073 66.168 66.398 66.231 65.758 65.696 65.711 65.773 65.678 65.801 66.043 66.056 66.291 65.458 65.493 65.501 65.563 65.598 65.606 65.631 65.641 65.608 65.588 65.526 65.441 65.411 65.381 65.441 65.471 65.418 65.491 65.518 65.378 65.131 65.071 65.136 65.143 65.073 65.046 65.026 65.011 64.983 64.986 64.941 64.878 64.861 64.801 64.741 64.673 64.623 64.581 64.538 64.473 64.421 64.401 64.366 64.331 64.326 64.301 64.276 64.261 64.203 64.143 64.081 64.031 63.983 63.931 63.916 63.896 63.893 63.871 63.833 63.781 63.746 63.693 63.653 63.621 63.613 63.608 63.603 63.583 63.573 63.593 63.583 63.581 63.578 63.561 63.531 63.531 63.488 63.496 63.471 63.453 63.438 63.408 63.391 63.371 63.318 63.298
82.864 83.564 85.156 83.954 80.031 79.044 79.284 80.934 81.534 79.999 79.959 80.344 81.436 82.956 81.664 79.951 80.566 80.534 79.846 79.524 79.491 79.501 79.484 79.556 79.864 81.326 79.576 80.276 79.611 79.159 79.704 80.429 81.596 81.749 79.041 78.724 78.899 78.794 78.634 78.759 78.691 80.879 81.316 83.614 84.569 85.011 85.124 81.881 81.494 81.951 79.776 80.206 80.154 78.864 78.996 79.451 78.691 78.676 78.684 81.196 81.306 80.566 78.969 78.864 78.701 78.511 78.436 78.404 78.349 78.269 78.191 78.169 78.114 78.066 78.026 77.979 77.924 77.906 77.876 77.886 77.869 77.836 77.786 77.724 77.739 77.839 77.819 78.274 78.631 77.241 75.996 74.876 73.534 72.239 71.764 70.276 69.849 68.676 67.784 66.969 66.034 65.864 65.924 66.209 66.226 66.334 66.059 66.006 65.944 65.764 65.789 65.866 66.111 66.681 66.256 65.861 65.916 66.059 67.186 66.629 66.211 66.049 66.001 65.926 65.936 66.044 66.096 66.136 66.084 65.876 65.759 65.646 65.641 65.789 65.861 65.954 65.966 66.804 66.391 65.991 65.939 65.981 66.014 65.976 66.109 66.164 66.521 66.461 65.981 65.844 65.731 65.861 65.704 65.681 65.721 65.764 65.749 65.771 65.749 65.731 65.621 65.471 65.494 65.994 65.816 64.999 64.729 64.704 64.649 64.626 65.059 64.986 64.916 64.974 65.091 65.059 65.306 66.286 69.979 70.926 70.024 71.849 72.046 72.104 72.224 73.666 73.544 71.944 71.784 71.851 71.754 71.694 71.681 71.629 71.636 71.619 71.571 71.551 71.511 71.474 71.449 71.411 71.369 71.336 71.276 71.249 71.219 71.176 71.149 71.129 71.091 71.059 71.044 70.989 70.921 70.881 70.846 70.761 70.699 70.626 70.556 70.496 70.464 70.389 70.366 70.314 70.249 70.191 70.109 70.059 69.999 69.969 69.941 69.916 69.884 69.831 69.774 69.731 69.704 69.626 69.556 69.504 69.431 69.349 69.264 69.174 69.116 69.089 69.024 69.046 69.021 68.981 68.864 68.774 69.546 68.934 68.499 68.481 68.404 68.324 68.296 68.236 68.194 68.161 68.126 68.099 68.021 67.976 67.894 67.834 67.791 67.729 67.696 67.694 67.664 67.579 67.566 67.556 67.511 67.466 67.414 67.391 67.356 67.333 67.283 67.266 67.226 67.186 67.146 67.148 67.096 67.061 67.088 67.031 67.013 66.988 66.988 66.948 66.911 66.908 66.888 66.881 66.846 66.838 66.833 66.793 66.743 66.743 66.733 66.708 66.671 66.643 66.623 66.568 66.521 66.501 66.446 66.388 66.356 66.311 66.246 66.213 66.166 66.126 66.048 66.028 66.036 66.041 66.101 66.136 66.178 66.433 66.168 66.426 65.746 65.746 65.816 65.788 65.796 66.093 66.276 65.821 65.478 65.526 65.571 65.611 65.626 65.646 65.688 65.718 65.701 65.673 65.638 65.583 65.493 65.426 65.406 65.453 65.498 65.463 65.456 65.506 65.571 65.198 65.091 65.163 65.186 65.131 65.076 65.076 65.046 65.018 65.003 64.981 64.951 64.873 64.823 64.768 64.713 64.701 64.643 64.581 64.526 64.491 64.448 64.408 64.391 64.376 64.348 64.331 64.298 64.243 64.203 64.153 64.088 64.061 64.026 64.026 63.998 63.993 63.961 63.913 63.883 63.841 63.818 63.758 63.723 63.708 63.686 63.691 63.673 63.658 63.658 63.648 63.648 63.633 63.636 63.616 63.598 63.588 63.556 63.533 63.513 63.473 63.451 63.411 63.368 63.346 63.296
82.269 85.171 85.586 85.254 84.076 81.144 79.394 79.491 79.861 79.846 79.889 80.024 80.329 80.626 80.354 80.704 79.796 79.556 79.469 79.446 79.491 79.471 79.494 80.671 81.251 79.926 80.179 82.259 81.736 80.436 79.341 78.839 78.794 79.776 80.139 78.991 80.089 79.119 78.579 78.504 78.451 78.969 79.874 80.804 82.461 83.956 82.639 81.326 84.279 84.306 83.316 82.064 81.389 80.446 79.156 78.556 78.751 79.026 78.564 80.221 81.429 80.949 78.894 78.806 78.626 78.464 78.404 78.371 78.281 78.229 78.194 78.144 78.124 78.051 77.989 77.974 77.934 77.904 77.924 77.904 77.881 77.816 77.759 77.726 77.826 77.871 77.724 78.036 77.596 76.641 75.359 74.124 72.734 71.666 70.486 70.076 69.296 68.174 67.421 66.401 65.824 65.904 66.024 66.169 66.299 66.229 66.019 65.896 65.789 65.804 65.834 65.946 66.159 66.521 65.861 65.836 65.931 66.146 66.404 66.144 65.941 65.981 65.939 65.879 65.969 65.999 66.006 66.076 65.994 65.729 65.634 65.624 65.704 65.709 65.746 66.384 66.506 66.676 66.499 66.434 66.856 65.944 65.839 65.881 66.016 65.986 65.984 65.999 65.879 65.756 65.669 65.629 65.616 65.584 65.606 65.631 65.631 65.671 65.631 65.589 65.436 65.414 65.656 66.044 65.301 64.831 64.701 64.709 64.646 65.084 65.011 64.981 64.939 65.031 65.199 65.064 66.044 67.374 69.844 70.714 70.664 71.551 72.289 72.029 72.189 72.701 73.324 71.744 71.794 71.766 71.684 71.669 71.679 71.601 71.601 71.591 71.564 71.549 71.441 71.431 71.416 71.379 71.351 71.311 71.284 71.209 71.199 71.139 71.131 71.106 71.094 71.066 71.024 70.976 70.906 70.854 70.804 70.709 70.674 70.624 70.549 70.491 70.441 70.396 70.364 70.294 70.219 70.166 70.084 70.019 69.979 69.986 69.931 69.909 69.851 69.829 69.794 69.736 69.701 69.629 69.554 69.514 69.426 69.346 69.304 69.224 69.184 69.121 69.094 69.061 69.024 68.984 68.919 68.786 69.036 69.321 68.569 68.496 68.429 68.349 68.319 68.244 68.159 68.156 68.146 68.091 68.036 67.984 67.934 67.871 67.811 67.766 67.724 67.679 67.629 67.621 67.566 67.514 67.509 67.484 67.424 67.386 67.353 67.333 67.266 67.231 67.218 67.193 67.143 67.121 67.118 67.076 67.063 67.046 67.021 67.003 66.981 66.953 66.951 66.931 66.901 66.881 66.891 66.858 66.831 66.801 66.776 66.791 66.761 66.693 66.711 66.653 66.646 66.593 66.536 66.501 66.476 66.431 66.368 66.331 66.276 66.218 66.181 66.121 66.096 66.078 66.088 66.151 66.218 66.273 67.181 66.941 65.941 65.833 65.763 65.921 65.803 65.841 66.208 66.643 65.926 65.531 65.576 65.618 65.651 65.671 65.691 65.736 65.758 65.781 65.728 65.708 65.651 65.608 65.546 65.476 65.451 65.496 65.543 65.506 65.466 65.526 66.196 65.406 65.163 65.173 65.241 65.196 65.118 65.113 65.073 65.036 65.031 64.993 64.976 64.933 64.878 64.801 64.761 64.731 64.698 64.631 64.561 64.531 64.491 64.468 64.453 64.413 64.396 64.361 64.328 64.283 64.256 64.221 64.161 64.158 64.146 64.138 64.113 64.081 64.053 64.016 63.946 63.918 63.878 63.843 63.823 63.801 63.788 63.768 63.733 63.716 63.696 63.713 63.711 63.701 63.711 63.678 63.656 63.643 63.603 63.571 63.546 63.496 63.493 63.436 63.381 63.356 63.311
79.869 84.084 85.159 85.591 85.274 84.749 80.216 80.944 79.226 79.454 79.881 79.874 79.929 79.884 80.044 79.961 79.694 79.451 79.466 79.464 79.461 79.449 79.981 82.014 80.226 79.499 83.224 83.241 82.394 81.621 79.186 78.731 78.729 79.296 79.584 78.841 79.181 80.389 78.541 78.506 78.406 78.576 78.166 78.284 79.919 80.696 80.756 82.991 84.746 84.909 84.501 84.049 82.486 81.546 79.936 78.386 79.399 79.404 78.496 79.039 81.414 81.164 79.154 78.739 78.594 78.381 78.329 78.281 78.231 78.181 78.159 78.129 78.089 78.031 77.991 77.961 77.914 77.919 77.951 77.926 77.869 77.786 77.746 77.784 77.879 77.884 77.719 77.669 77.266 76.041 74.734 73.484 72.124 70.926 70.256 69.861 68.779 67.789 67.004 65.999 65.804 65.904 66.174 66.184 66.351 66.099 65.881 65.644 65.861 65.859 65.866 65.991 66.036 66.051 65.849 66.166 66.899 66.019 65.939 65.856 65.936 65.896 65.869 65.941 65.979 66.039 66.034 66.026 65.699 65.401 65.364 65.754 65.836 65.679 65.784 66.464 66.616 66.669 66.749 66.889 68.061 65.884 65.739 65.781 65.949 65.851 65.881 65.831 65.766 65.676 65.604 65.541 65.521 65.489 65.536 65.544 65.544 65.686 65.594 65.481 65.369 65.469 65.991 65.634 64.964 64.854 64.681 64.659 64.726 65.024 64.976 64.929 65.004 65.124 65.204 65.536 66.904 68.209 69.406 70.124 71.244 72.101 72.189 72.084 72.081 72.299 71.826 71.771 71.814 71.724 71.686 71.661 71.636 71.584 71.564 71.541 71.521 71.486 71.459 71.436 71.404 71.371 71.331 71.281 71.241 71.179 71.176 71.159 71.149 71.101 71.089 71.059 71.006 70.934 70.881 70.796 70.731 70.711 70.671 70.596 70.531 70.504 70.444 70.389 70.346 70.274 70.226 70.141 70.079 70.036 69.989 69.939 69.931 69.899 69.906 69.849 69.786 69.754 69.704 69.631 69.581 69.514 69.479 69.414 69.361 69.299 69.236 69.146 69.106 69.084 69.096 69.026 68.946 68.806 68.766 69.714 68.671 68.486 68.449 68.386 68.311 68.261 68.206 68.186 68.161 68.116 68.059 67.981 67.936 67.869 67.801 67.761 67.719 67.654 67.659 67.619 67.569 67.536 67.496 67.491 67.436 67.426 67.376 67.318 67.253 67.243 67.213 67.203 67.186 67.153 67.106 67.103 67.076 67.071 67.023 67.028 67.008 66.988 66.966 66.941 66.903 66.913 66.906 66.888 66.851 66.841 66.821 66.801 66.758 66.728 66.708 66.686 66.636 66.618 66.568 66.526 66.483 66.421 66.363 66.326 66.298 66.256 66.196 66.156 66.138 66.146 66.208 66.271 66.506 66.933 69.198 66.653 65.891 65.831 66.028 65.903 65.796 66.298 66.398 66.051 65.596 65.586 65.651 65.696 65.728 65.751 65.756 65.801 65.813 65.803 65.776 65.728 65.686 65.658 65.598 65.543 65.496 65.503 65.546 65.553 65.481 65.596 66.226 65.691 65.186 65.246 65.288 65.248 65.153 65.116 65.096 65.066 65.048 65.028 65.013 64.978 64.908 64.886 64.828 64.803 64.756 64.681 64.628 64.586 64.551 64.536 64.501 64.461 64.403 64.391 64.383 64.338 64.293 64.253 64.241 64.238 64.251 64.216 64.178 64.143 64.116 64.096 64.041 63.998 63.948 63.933 63.908 63.863 63.878 63.831 63.788 63.781 63.786 63.798 63.796 63.778 63.768 63.713 63.693 63.668 63.658 63.641 63.596 63.556 63.488 63.453 63.401 63.376 63.341
79.584 81.251 84.154 85.096 85.349 83.149 82.026 84.454 83.221 80.636 79.304 79.656 79.784 79.686 79.744 79.791 79.506 79.446 79.436 79.429 79.419 79.454 81.486 80.584 79.119 82.136 85.114 84.786 83.991 82.741 81.414 78.664 78.694 80.381 80.606 78.729 78.556 79.316 80.349 78.399 79.554 78.336 78.079 78.064 78.024 78.229 78.599 80.966 84.084 84.549 84.866 84.739 84.221 83.386 79.091 78.756 79.811 79.011 78.411 78.511 80.481 81.251 79.761 78.646 78.511 78.306 78.246 78.216 78.161 78.114 78.121 78.096 78.041 78.011 78.009 77.934 77.916 77.951 77.974 77.936 77.874 77.821 77.796 77.894 77.969 77.794 77.684 77.596 76.666 75.346 74.029 74.594 72.119 70.469 71.196 69.986 68.211 67.456 66.456 65.839 65.926 66.026 66.191 66.246 66.246 66.016 65.706 65.756 65.966 65.909 65.919 66.684 66.121 65.949 65.801 66.629 67.941 65.996 65.876 65.901 65.899 65.851 65.879 65.926 65.956 66.029 65.971 65.809 65.514 65.224 65.216 65.596 65.926 65.569 65.754 66.316 66.619 66.481 66.696 66.416 66.011 65.771 65.681 65.709 65.699 65.724 65.746 65.739 65.724 65.656 65.559 65.464 65.416 65.424 65.456 65.476 65.669 65.866 65.701 65.404 65.381 65.809 65.949 65.106 65.049 64.816 64.594 64.624 64.901 64.919 64.941 64.944 65.074 65.119 65.446 66.511 67.856 69.189 69.969 70.666 71.686 72.356 72.069 72.241 72.131 72.004 71.731 71.819 71.776 71.696 71.636 71.614 71.619 71.544 71.529 71.509 71.516 71.504 71.446 71.411 71.371 71.354 71.341 71.259 71.229 71.199 71.164 71.149 71.136 71.074 71.036 71.031 70.981 70.896 70.834 70.771 70.731 70.706 70.634 70.571 70.529 70.474 70.409 70.356 70.301 70.259 70.206 70.139 70.079 70.004 69.964 69.941 69.921 69.869 69.849 69.804 69.761 69.719 69.681 69.636 69.604 69.561 69.506 69.484 69.394 69.324 69.274 69.216 69.166 69.129 69.079 69.036 68.969 68.871 68.771 69.331 68.744 68.494 68.471 68.399 68.344 68.321 68.219 68.176 68.169 68.151 68.079 68.034 67.959 67.894 67.844 67.804 67.746 67.726 67.681 67.624 67.594 67.556 67.529 67.506 67.484 67.436 67.383 67.338 67.286 67.281 67.243 67.208 67.198 67.186 67.153 67.141 67.123 67.088 67.063 67.066 66.991 66.998 66.993 66.931 66.941 66.918 66.906 66.913 66.868 66.863 66.843 66.801 66.796 66.791 66.733 66.683 66.661 66.606 66.581 66.528 66.501 66.426 66.373 66.321 66.298 66.241 66.221 66.216 66.213 66.263 66.323 66.856 66.608 66.558 67.981 66.248 65.878 65.908 66.413 66.438 66.991 66.403 66.138 65.698 65.618 65.683 65.748 65.788 65.786 65.826 65.851 65.863 65.861 65.831 65.818 65.771 65.726 65.708 65.658 65.606 65.556 65.523 65.593 65.578 65.523 65.628 66.063 66.191 65.216 65.283 65.321 65.306 65.201 65.151 65.138 65.113 65.083 65.038 65.021 64.986 64.953 64.933 64.881 64.828 64.771 64.721 64.676 64.631 64.623 64.573 64.543 64.498 64.451 64.441 64.413 64.373 64.328 64.313 64.321 64.326 64.321 64.293 64.271 64.231 64.196 64.156 64.118 64.078 64.033 64.013 63.968 63.941 63.906 63.868 63.856 63.841 63.848 63.851 63.843 63.853 63.803 63.763 63.756 63.733 63.711 63.658 63.633 63.568 63.516 63.468 63.416 63.371 63.326
79.136 81.321 82.166 83.844 83.376 82.686 85.036 85.404 84.881 83.576 80.676 78.934 79.419 79.604 79.716 79.449 79.391 79.444 79.401 79.384 79.339 79.651 81.769 79.504 80.166 85.209 85.721 85.476 85.046 84.494 82.971 81.501 79.604 79.509 78.639 78.411 78.381 78.574 79.661 79.424 79.249 79.296 78.089 78.006 78.571 78.889 78.049 78.029 79.934 82.806 84.309 84.769 84.874 84.491 82.244 80.544 81.184 81.446 79.861 78.446 79.804 81.146 79.039 78.589 78.471 78.251 78.159 78.114 78.074 78.076 78.094 78.089 78.021 77.991 77.994 77.981 77.989 78.014 77.989 77.944 77.856 77.826 77.876 77.976 77.996 77.754 77.731 77.294 75.939 74.699 73.519 72.604 70.989 70.281 70.831 71.066 67.819 66.906 65.966 65.861 65.946 66.104 66.156 66.331 66.131 65.936 65.736 66.034 66.051 66.006 66.046 66.271 66.051 65.921 65.799 65.821 65.924 65.866 65.889 65.911 65.796 65.829 65.866 65.874 65.936 65.971 65.944 66.466 65.544 65.211 65.176 65.631 65.734 65.949 65.851 66.361 66.461 66.579 66.391 66.029 65.824 65.629 65.571 65.656 65.746 65.671 65.701 65.751 65.661 65.566 65.474 65.421 65.376 65.396 65.406 65.481 65.524 65.601 65.524 65.361 65.509 65.931 65.271 65.056 65.234 64.856 64.596 64.586 64.956 64.979 64.929 65.001 65.199 65.054 65.769 67.466 69.084 69.759 70.324 71.136 72.074 72.354 72.206 72.284 72.101 71.764 71.766 71.786 71.711 71.664 71.641 71.576 71.549 71.544 71.534 71.546 71.476 71.454 71.404 71.399 71.374 71.311 71.296 71.271 71.251 71.191 71.131 71.124 71.114 71.059 71.001 70.954 70.906 70.874 70.831 70.791 70.756 70.689 70.639 70.574 70.476 70.441 70.391 70.354 70.311 70.259 70.191 70.139 70.081 70.004 69.936 69.914 69.876 69.854 69.819 69.801 69.789 69.751 69.716 69.671 69.616 69.569 69.514 69.471 69.446 69.391 69.329 69.246 69.181 69.144 69.084 69.036 68.994 68.911 68.761 69.089 69.526 68.539 68.461 68.386 68.339 68.321 68.219 68.199 68.204 68.164 68.129 68.076 67.986 67.936 67.904 67.811 67.794 67.756 67.686 67.671 67.624 67.579 67.551 67.539 67.471 67.459 67.406 67.343 67.353 67.326 67.231 67.251 67.221 67.206 67.181 67.183 67.148 67.141 67.103 67.086 67.048 67.028 66.996 66.993 66.976 66.933 66.933 66.921 66.888 66.863 66.846 66.823 66.823 66.788 66.751 66.701 66.661 66.633 66.583 66.541 66.478 66.411 66.408 66.363 66.311 66.291 66.303 66.296 66.341 66.431 67.313 69.246 67.021 66.018 66.026 65.956 65.968 66.843 65.888 66.181 69.748 67.683 65.763 65.681 65.743 65.771 65.803 65.861 65.876 65.896 65.916 65.916 65.906 65.878 65.861 65.806 65.778 65.746 65.701 65.623 65.598 65.581 65.641 65.623 65.571 65.651 65.873 66.498 65.318 65.296 65.338 65.346 65.256 65.178 65.163 65.113 65.096 65.071 65.038 65.026 64.988 64.953 64.928 64.876 64.826 64.768 64.718 64.688 64.621 64.606 64.588 64.536 64.493 64.478 64.433 64.426 64.396 64.416 64.403 64.408 64.386 64.351 64.328 64.286 64.261 64.228 64.178 64.151 64.108 64.076 64.033 64.016 63.978 63.911 63.916 63.903 63.903 63.898 63.903 63.891 63.843 63.826 63.786 63.758 63.743 63.701 63.646 63.588 63.536 63.463 63.428 63.373 63.313
78.811 78.941 80.776 81.594 81.709 83.426 84.789 85.296 85.436 84.901 83.644 79.899 79.469 79.674 79.436 79.336 79.401 79.384 79.369 79.294 79.286 79.326 81.429 79.401 81.636 84.709 85.166 85.579 85.649 85.246 84.816 83.684 79.169 78.926 78.109 78.121 78.311 79.984 79.034 79.144 78.494 79.876 78.289 78.099 78.656 78.174 78.014 78.044 78.154 78.399 81.079 83.919 84.549 84.709 80.206 84.286 83.866 83.106 81.186 78.654 78.179 80.571 79.174 78.534 78.419 78.191 78.051 78.006 77.996 78.004 78.056 78.056 78.021 77.994 78.004 78.016 78.041 78.024 77.984 77.911 77.869 77.866 77.911 78.074 77.886 77.819 77.579 76.699 76.274 74.159 73.011 71.561 70.821 70.766 69.511 68.266 67.329 66.276 65.781 65.866 65.989 66.196 66.244 66.324 66.044 65.919 65.876 66.146 66.086 66.079 66.256 66.436 66.194 66.049 65.824 65.764 65.809 65.854 65.856 65.839 65.819 65.871 65.839 65.851 65.869 65.896 65.831 65.604 65.311 65.256 65.271 65.321 65.524 66.021 66.046 66.426 66.509 66.629 66.046 65.774 65.684 65.536 65.524 65.641 66.849 65.649 65.386 65.611 65.546 65.451 65.381 65.469 65.634 65.561 65.426 65.734 65.529 65.511 65.381 65.346 65.891 65.441 65.144 65.286 65.721 64.861 64.594 64.921 65.069 64.916 64.949 65.116 65.959 65.429 66.454 69.274 70.644 70.144 70.644 71.606 72.349 72.176 72.319 72.271 71.906 71.781 71.789 71.726 71.656 71.636 71.616 71.621 71.549 71.561 71.519 71.489 71.439 71.426 71.394 71.366 71.334 71.311 71.311 71.269 71.219 71.151 71.109 71.081 71.034 70.989 70.981 70.939 70.921 70.874 70.826 70.771 70.739 70.671 70.576 70.551 70.484 70.416 70.374 70.311 70.269 70.229 70.169 70.109 70.041 69.964 69.904 69.891 69.854 69.826 69.871 69.834 69.791 69.766 69.741 69.699 69.656 69.604 69.529 69.516 69.486 69.424 69.364 69.269 69.221 69.161 69.126 69.041 69.001 68.941 68.836 69.114 69.871 68.589 68.504 68.439 68.366 68.339 68.296 68.239 68.214 68.191 68.124 68.089 68.046 67.991 67.894 67.886 67.844 67.761 67.736 67.686 67.641 67.606 67.579 67.546 67.516 67.471 67.433 67.391 67.371 67.318 67.283 67.293 67.246 67.226 67.206 67.223 67.181 67.153 67.113 67.108 67.048 67.036 67.028 66.998 67.003 66.958 66.951 66.931 66.926 66.903 66.856 66.863 66.856 66.786 66.771 66.711 66.666 66.656 66.606 66.541 66.483 66.443 66.383 66.368 66.331 66.333 66.366 66.393 66.731 68.018 71.096 70.998 70.328 66.686 66.093 65.973 65.971 66.001 66.548 66.798 67.233 67.268 65.731 65.768 65.816 65.848 65.873 65.918 65.923 65.941 65.948 65.951 65.936 65.913 65.873 65.846 65.831 65.796 65.756 65.688 65.641 65.623 65.623 65.631 65.563 65.656 65.778 66.216 65.273 65.283 65.351 65.363 65.276 65.196 65.201 65.143 65.128 65.098 65.046 65.011 64.991 64.986 64.956 64.898 64.851 64.798 64.771 64.736 64.681 64.631 64.603 64.583 64.536 64.523 64.481 64.461 64.451 64.471 64.478 64.483 64.441 64.403 64.403 64.376 64.326 64.276 64.221 64.208 64.166 64.128 64.088 64.041 64.013 63.981 63.988 63.933 63.938 63.968 63.936 63.903 63.876 63.858 63.853 63.816 63.791 63.726 63.658 63.611 63.541 63.501 63.446 63.388 63.336
78.701 78.736 79.664 79.566 81.891 82.331 83.399 84.716 85.251 85.411 82.416 79.514 79.936 79.339 79.281 79.351 79.359 79.354 79.311 79.259 79.211 79.166 80.704 80.011 78.919 79.514 83.841 84.924 85.394 85.684 85.474 85.034 80.731 79.239 78.236 77.929 78.489 79.741 78.081 77.989 78.159 79.531 79.984 79.319 78.591 78.116 77.936 77.949 78.461 78.591 77.936 78.869 83.429 81.346 81.989 84.796 84.616 84.191 81.979 79.024 78.399 80.716 79.519 78.439 78.344 78.179 77.996 77.931 77.899 77.894 77.919 77.944 77.964 77.954 77.969 77.984 77.959 77.959 77.931 77.894 77.886 77.914 77.996 78.056 77.889 77.826 77.066 75.999 75.119 73.539 72.394 70.904 70.276 70.699 69.339 68.101 66.811 65.924 65.874 65.916 66.131 66.166 66.299 66.146 65.939 65.774 65.999 66.139 66.136 66.464 66.576 66.461 66.204 65.901 65.861 65.799 65.799 65.786 65.746 65.739 65.799 65.841 65.819 65.849 65.861 65.876 66.289 65.426 65.306 65.281 65.319 65.421 65.801 66.034 66.051 66.609 66.371 66.321 65.839 65.704 65.574 65.436 65.534 65.604 65.746 65.494 65.329 65.366 65.416 65.324 65.321 65.544 65.719 65.749 65.441 65.529 65.491 65.339 65.411 66.014 65.926 65.034 65.254 64.949 64.569 64.626 65.236 64.954 64.916 64.909 65.099 65.099 65.211 66.216 67.154 68.771 70.064 70.536 71.409 72.186 72.279 72.194 72.254 72.096 71.756 71.799 71.746 71.676 71.636 71.629 71.609 71.556 71.521 71.506 71.484 71.466 71.449 71.389 71.374 71.374 71.326 71.289 71.269 71.214 71.174 71.131 71.061 71.044 71.009 70.976 70.976 70.944 70.906 70.864 70.804 70.736 70.684 70.596 70.576 70.546 70.479 70.429 70.366 70.319 70.271 70.226 70.146 70.054 69.999 69.934 69.896 69.891 69.866 69.856 69.826 69.844 69.809 69.746 69.719 69.654 69.626 69.574 69.546 69.519 69.474 69.434 69.366 69.316 69.241 69.161 69.136 69.094 69.059 68.959 68.851 68.829 69.851 68.749 68.501 68.494 68.439 68.361 68.286 68.259 68.251 68.244 68.189 68.154 68.099 67.989 67.986 67.919 67.861 67.821 67.769 67.719 67.676 67.646 67.611 67.574 67.554 67.501 67.468 67.428 67.383 67.366 67.351 67.303 67.303 67.273 67.256 67.256 67.193 67.191 67.158 67.101 67.093 67.068 67.033 66.988 66.976 66.966 66.938 66.956 66.936 66.891 66.896 66.898 66.843 66.796 66.768 66.728 66.683 66.653 66.603 66.543 66.481 66.453 66.413 66.398 66.401 66.391 66.461 66.691 68.308 70.543 71.521 70.183 69.991 69.443 66.101 65.961 65.836 66.076 66.968 66.468 65.831 65.748 65.778 65.811 65.866 65.908 65.946 65.961 65.976 65.993 65.988 65.986 65.956 65.921 65.903 65.906 65.886 65.861 65.791 65.738 65.686 65.668 65.666 65.656 65.606 65.651 65.746 66.346 65.278 65.298 65.383 65.396 65.331 65.223 65.201 65.168 65.143 65.088 65.058 65.036 65.041 65.026 64.991 64.931 64.881 64.838 64.803 64.778 64.711 64.683 64.631 64.583 64.548 64.528 64.523 64.516 64.531 64.546 64.541 64.533 64.498 64.483 64.471 64.431 64.388 64.326 64.283 64.261 64.223 64.163 64.131 64.091 64.056 64.038 64.056 64.013 64.018 64.016 63.953 63.948 63.903 63.903 63.883 63.848 63.806 63.746 63.678 63.641 63.541 63.513 63.426 63.383 63.323
78.574 79.334 81.086 79.041 80.806 81.591 82.251 81.129 83.754 82.194 80.784 79.984 79.724 79.179 79.186 79.261 79.269 79.256 79.221 79.171 79.131 79.054 79.629 80.264 79.011 78.941 79.951 81.249 84.109 85.146 85.594 83.674 81.186 83.934 82.059 78.696 78.296 79.544 77.916 77.884 77.926 79.346 79.534 80.279 80.894 78.421 78.349 77.999 78.514 77.961 77.816 78.039 79.081 79.509 83.709 84.209 84.661 84.766 84.421 83.314 81.174 80.821 78.479 78.404 78.279 78.154 77.986 77.874 77.829 77.819 77.854 77.881 77.909 77.911 77.931 77.971 77.981 77.956 77.886 77.891 77.924 77.974 78.164 77.974 77.916 77.611 76.489 75.349 74.146 72.819 71.501 70.579 70.319 69.609 68.386 67.441 66.276 65.779 65.916 65.961 66.131 66.216 66.291 66.011 65.866 65.831 65.984 66.266 66.249 66.586 67.121 66.954 66.209 65.889 65.851 65.819 65.761 65.696 65.699 65.759 65.779 65.776 65.774 65.806 65.919 65.771 65.441 65.351 65.316 65.314 65.349 65.576 66.039 66.271 66.396 66.641 66.411 66.304 65.754 65.656 65.469 65.496 65.544 65.576 65.554 65.449 65.379 65.341 65.334 65.291 65.369 65.634 65.661 65.799 65.461 65.454 65.396 65.394 65.706 66.274 65.444 64.926 65.011 64.651 64.576 64.651 64.924 64.914 64.876 65.029 65.124 65.006 65.604 66.919 67.931 69.294 70.439 71.286 72.161 72.431 72.139 72.244 72.174 71.814 71.806 71.801 71.696 71.644 71.626 71.651 71.596 71.556 71.524 71.484 71.451 71.459 71.429 71.404 71.379 71.339 71.301 71.244 71.234 71.166 71.141 71.066 71.029 71.021 70.996 70.976 70.969 70.946 70.896 70.849 70.786 70.721 70.674 70.611 70.551 70.509 70.466 70.419 70.376 70.321 70.246 70.149 70.131 70.066 70.034 70.001 69.951 69.926 69.944 69.904 69.851 69.834 69.781 69.741 69.689 69.664 69.621 69.604 69.569 69.569 69.524 69.454 69.376 69.326 69.254 69.211 69.179 69.139 69.091 68.999 68.869 68.751 69.676 69.099 68.579 68.526 68.484 68.424 68.324 68.296 68.286 68.276 68.241 68.191 68.121 68.084 68.009 67.951 67.906 67.854 67.811 67.776 67.739 67.711 67.671 67.629 67.581 67.544 67.516 67.433 67.411 67.421 67.358 67.343 67.333 67.308 67.298 67.266 67.246 67.206 67.168 67.131 67.108 67.078 67.071 67.028 67.001 67.001 66.983 66.953 66.918 66.916 66.918 66.881 66.858 66.813 66.788 66.753 66.696 66.656 66.626 66.558 66.518 66.493 66.443 66.456 66.488 66.558 66.641 66.768 68.463 70.191 70.713 69.761 68.523 67.673 66.016 66.001 66.508 66.116 66.266 65.948 65.768 65.818 65.841 65.861 65.921 65.948 65.986 66.008 66.001 66.036 66.031 65.996 65.991 65.958 65.936 65.911 65.938 65.893 65.838 65.771 65.693 65.688 65.673 65.673 65.648 65.653 65.788 66.788 65.343 65.323 65.431 65.453 65.366 65.276 65.251 65.176 65.138 65.138 65.101 65.076 65.061 65.026 65.006 64.956 64.923 64.888 64.848 64.793 64.746 64.703 64.676 64.613 64.568 64.551 64.548 64.571 64.586 64.621 64.608 64.588 64.566 64.546 64.518 64.516 64.438 64.406 64.358 64.303 64.268 64.218 64.181 64.128 64.101 64.091 64.091 64.093 64.066 64.016 63.983 63.963 63.971 63.951 63.921 63.863 63.813 63.746 63.691 63.626 63.573 63.521 63.413 63.363 63.326
