ncols 440
nrows 31
xllcorner    428120
yllcorner    543292
cellsize     2
NODATA_value -9999
31.321 29.964 28.399 28.015 29.68 31.203 29.363 25.986 25.834 25.753 -9999 -9999 -9999 -9999 -9999 -9999 -9999 25.848 26.215 26.415 27.123 28.466 29.018 29.254 29.736 30.071 30.225 30.261 30.381 30.436 30.532 30.53 30.502 30.484 30.465 30.428 30.41 30.408 30.423 30.48 30.528 30.595 30.628 30.655 30.705 30.77 30.818 30.923 31.028 31.185 31.288 31.695 31.893 31.788 31.81 31.828 31.88 32.013 32.308 35.37 38.653 39.338 39.115 37.915 34.95 33.268 32.975 33.048 33.155 33.225 33.365 33.588 33.945 34.433 34.32 34.17 34.075 34.128 34.165 34.208 34.255 34.243 34.18 34.108 34.12 34.13 34.135 34.155 34.173 34.24 34.36 34.585 34.195 34.208 34.255 34.335 34.295 34.348 34.413 34.483 34.573 34.685 34.733 34.848 35.145 35.35 35.478 35.74 36.013 36.373 37.025 37.258 37.228 37.113 37.055 36.895 36.875 37.04 37.428 37.958 38.278 38.48 38.708 39.035 39.648 40.353 42.143 44.515 43.773 42.473 45.205 44.018 45.398 45.618 45.703 46.73 45.978 47.008 47.36 47.553 48.655 49.103 49.563 49.92 50.445 50.79 50.985 51.145 51.305 51.445 51.53 51.63 51.713 51.773 51.838 51.938 52.043 52.158 52.333 52.52 52.78 53.07 53.385 53.775 54.275 55.255 56.06 57.285 56.753 57.775 57.568 57.53 58.083 57.773 57.848 58.088 58.283 60.008 58.198 60.67 58.855 59.03 59.373 59.718 60.1 60.503 61.33 61.723 62.148 63.275 64.278 62.725 63.85 63.3 63.14 63.763 63.633 63.235 63.013 63.015 63.13 63.215 63.288 63.425 63.54 63.748 64.103 64.625 65.175 66.61 67.523 68.345 67.05 67.545 68.423 68.445 68.843 69.583 70.218 70.898 71.655 72.448 73.088 73.38 73.24 73.138 73.1 73.075 73.045 73.153 73.41 73.865 74.51 75.038 75.128 74.933 74.895 74.853 74.788 74.795 75.003 75.058 75.758 76.148 76.545 76.765 76.97 77.12 77.16 77.268 77.333 77.508 77.74 77.943 78.068 78.218 78.573 78.445 79.565 81.81 82.56 82.193 81.043 81.725 80.825 82.655 83.228 83.858 84.465 85.043 85.183 84.74 82.633 82.123 80.865 81.168 84.093 84.388 83.29 81.293 81.063 80.585 80.498 81.465 80.39 80.455 80.818 80.788 80.785 80.745 80.811 81.711 81.138 80.706 80.618 80.601 80.583 80.613 80.686 80.731 80.751 80.738 80.766 80.811 80.891 81.006 81.066 80.906 80.803 80.638 80.618 80.621 80.613 80.593 80.853 81.063 81.063 80.613 82.203 85.566 85.068 84.428 83.778 82.446 80.786 80.026 79.851 79.813 79.778 79.783 80.778 82.453 81.843 80.818 80.356 80.353 80.426 80.491 80.526 80.536 80.553 80.543 81.356 81.226 81.573 82.708 84.603 84.556 84.058 83.116 81.511 79.881 79.908 79.991 80.103 80.211 80.618 80.538 80.568 80.651 80.701 80.738 80.873 81.293 81.196 81.271 81.351 81.408 82.536 82.138 82.111 84.158 84.641 84.651 83.636 83.078 82.976 82.336 82.228 82.213 82.218 82.221 82.176 82.238 82.156 82.406 84.183 86.813 88.133 89.136 88.896 87.203 85.618 85.656 84.393 84.568 83.771 83.421 83.488 83.863 84.833 83.511 83.478 83.521 83.506 83.548 83.593 83.668 83.681 83.733 83.786 83.846 86.818 87.983 85.796 84.283 84.261 86.508 86.898 86.928 84.943 84.231 84.183 84.198 84.168 84.131 84.138 84.191 84.911 86.666 88.596 89.301 89.268 89.186 89.283 90.156 90.183 90.223 89.353 90.753
31.795 29.469 28.701 28.755 29.468 29.306 27.753 26.037 25.87 -9999 -9999 -9999 -9999 -9999 -9999 -9999 -9999 25.828 25.955 26.261 26.96 28.405 28.989 29.41 29.945 30.22 30.139 30.192 30.339 30.396 30.494 30.541 30.494 30.466 30.473 30.418 30.41 30.4 30.423 30.465 30.528 30.593 30.648 30.665 30.718 30.74 30.813 30.898 31.045 31.135 31.273 31.803 31.728 31.728 31.753 31.78 31.92 31.995 32.513 33.773 37.003 38.693 39.438 39.305 38.468 35.478 33.218 33.135 33.2 33.293 33.378 33.958 34.393 34.593 34.698 34.28 34.283 34.263 34.183 34.245 34.3 34.33 34.275 34.235 34.448 34.478 34.265 34.25 34.22 34.2 34.293 34.283 34.2 34.208 34.203 34.223 34.3 34.35 34.398 34.54 34.645 34.808 34.833 34.988 35.403 35.685 35.855 36.058 36.4 36.788 37.313 37.64 37.623 37.465 37.345 37.27 37.215 37.47 37.9 38.383 38.673 38.85 39.135 39.43 39.695 40.145 42.118 43.763 43.028 42.725 43.168 45.273 44.945 44.993 46.228 48.06 46.425 49.18 48.74 49.915 48.848 49.448 50.003 50.373 50.778 50.93 51.045 51.145 51.258 51.358 51.458 51.543 51.598 51.685 51.818 51.903 52.045 52.17 52.44 53.113 53.985 53.343 53.788 54.673 56.135 56.523 55.373 56.478 55.743 57.52 59.453 60.183 59.525 58.47 58.188 58.525 58.498 59.063 58.383 58.975 59.04 59.185 59.518 59.943 60.32 60.803 61.363 61.898 62.628 63.023 63.015 64.06 65.088 63.423 63.053 63.77 64.215 63.278 63.18 63.158 63.253 63.325 63.398 63.56 63.66 63.753 64.273 64.863 65.435 66.37 68.468 67.593 67.265 67.923 68.153 68.588 69.125 69.893 70.63 71.378 72.128 72.855 73.268 73.238 73.135 73.108 73.033 73.033 73.118 73.338 73.723 74.31 74.948 75.158 74.95 74.833 74.855 74.755 74.743 74.965 74.968 75.313 76.105 76.523 76.813 76.92 77.068 77.06 77.275 77.23 77.378 77.535 77.713 77.903 78.09 78.255 78.375 78.475 78.968 80.723 81.913 82.068 81.558 81.603 80.095 81.805 82.183 82.708 83.385 83.825 84.503 84.263 81.793 81.75 80.578 82.965 86.16 85.59 85.015 84.425 83.435 81.733 80.53 80.87 80.475 80.873 81.018 81.085 80.98 80.888 80.901 81.813 81.183 80.986 81.008 80.863 80.743 80.726 80.713 80.721 80.721 80.731 80.771 80.756 80.801 80.746 80.776 80.773 80.726 80.638 80.666 80.663 80.663 80.701 80.798 80.618 80.838 80.733 82.901 84.953 85.466 85.438 84.583 83.341 80.963 80.806 80.608 80.718 81.236 80.758 80.701 81.403 80.478 80.376 80.513 80.401 80.578 80.473 80.378 83.126 84.441 81.981 80.543 80.566 80.576 80.751 81.536 82.083 84.438 85.503 82.616 80.416 80.483 82.408 81.873 80.311 80.951 80.608 80.706 81.303 80.716 80.788 81.263 81.593 81.848 82.131 82.596 82.623 82.806 83.636 84.146 83.891 83.216 83.023 83.293 84.293 83.436 82.538 82.476 82.386 82.296 82.293 82.286 82.311 82.578 83.881 86.511 87.998 89.051 89.111 88.021 87.031 86.381 84.128 83.773 84.413 84.461 84.476 84.253 84.701 83.851 83.533 83.558 83.553 83.553 83.601 83.643 83.723 83.781 83.808 83.866 83.891 84.191 84.568 85.596 88.348 85.446 84.631 85.133 85.176 84.318 84.253 84.241 84.193 84.216 84.208 84.216 84.253 84.283 84.341 85.488 87.433 88.673 88.766 90.026 90.208 90.206 90.196 90.198 90.198
32.888 28.836 27.735 26.774 26.68 28.087 27.577 26.87 26.242 -9999 -9999 -9999 -9999 -9999 -9999 -9999 -9999 25.713 25.848 26.008 26.66 28.451 29.188 29.573 29.806 30.255 30.214 30.198 30.282 30.418 30.451 30.513 30.473 30.459 30.423 30.41 30.393 30.383 30.428 30.47 30.505 30.585 30.608 30.653 30.68 30.738 30.788 30.905 31.08 31.238 31.778 31.695 31.645 31.675 31.73 31.848 31.975 31.945 31.953 31.973 32.05 35.15 38.475 39.3 39.33 38.72 37.313 33.235 33.273 33.343 33.388 33.695 34.518 34.655 34.628 34.638 34.845 34.368 34.323 34.313 34.348 34.42 34.443 34.445 34.423 34.785 34.563 34.35 34.318 34.28 34.245 34.258 34.213 34.31 34.243 34.298 34.348 34.39 34.5 34.613 34.735 34.968 35.09 35.398 35.863 36.065 36.183 36.49 36.863 37.238 37.49 37.713 37.728 37.65 37.553 37.61 37.753 38.093 38.438 38.748 39.01 39.955 39.868 39.895 40.293 40.625 41.758 42.498 42.513 42.915 43.958 46.415 46.443 45.658 46.293 48.13 50.653 49.618 50.305 49.315 49.05 49.618 50.17 50.585 50.783 50.875 50.958 51.065 51.193 51.313 51.43 51.528 51.633 51.743 51.85 52.22 52.618 52.583 52.928 55.225 54.14 53.525 53.765 54.628 55.338 55.723 55.45 56.168 55.94 56.735 58.563 58.4 60.1 58.86 58.683 59.345 58.738 59.26 58.825 59.58 59.315 59.595 59.748 60.18 60.558 60.905 61.39 62.093 62.988 62.34 62.623 63.155 63.068 63.21 63.19 63.285 63.553 63.35 63.26 63.355 63.335 63.4 63.563 63.733 63.865 64.078 64.49 65.12 65.603 66.11 67.405 67.243 67.48 67.98 68.243 68.868 69.62 70.24 71.033 71.795 72.5 73.01 73.155 73.128 73.105 73.043 73.023 73.008 73.245 73.59 74.153 74.795 75.125 75.023 74.86 74.84 74.788 74.713 74.905 74.88 75.09 75.675 76.428 77.02 77.598 77.335 77.25 77.275 77.573 77.465 77.398 77.98 78.323 77.95 78.46 78.27 78.38 78.69 78.448 78.608 79.635 80.853 80.31 80.66 79.415 79.66 80.738 82.18 82.898 83.083 83.385 81.975 81.893 83.068 82.038 85.26 86.405 86.478 86.183 85.653 84.995 84.458 82.738 80.56 80.648 81.383 81.535 84.018 82.978 81.123 81.423 81.548 81.188 81.041 81.791 81.711 80.876 80.878 81.003 80.946 80.853 80.823 80.796 80.768 80.771 80.778 80.788 80.758 80.738 80.728 80.716 80.706 80.678 80.903 81.248 80.723 80.476 80.471 81.648 83.261 84.361 84.973 85.138 81.371 80.548 80.076 80.791 81.951 82.083 81.906 82.081 80.408 80.336 80.406 80.473 82.331 81.098 80.213 80.278 83.076 86.378 83.258 81.921 80.731 81.473 80.776 80.718 80.756 81.838 82.986 81.331 80.803 82.153 84.646 84.538 83.368 82.338 80.683 80.698 80.761 80.816 81.223 82.638 82.166 81.861 81.216 81.438 81.451 81.573 83.013 83.196 82.261 82.141 82.416 85.288 86.958 86.128 84.156 83.576 84.441 82.528 82.441 82.728 82.496 83.351 86.686 87.908 88.901 89.196 88.171 87.171 86.633 86.573 85.466 83.703 83.733 84.326 85.566 85.558 84.191 83.633 83.601 83.638 83.618 83.656 83.701 83.746 83.848 83.903 83.898 83.916 84.056 84.503 84.693 87.616 88.368 88.388 87.926 85.861 84.373 84.353 84.308 84.271 84.221 84.243 84.228 84.256 84.321 84.328 84.376 84.376 84.478 85.278 89.156 90.208 90.206 90.203 90.181 90.228 90.213
29.063 26.666 26.208 26.124 26.184 27.719 29.4 28.672 26.306 -9999 -9999 -9999 -9999 -9999 -9999 -9999 -9999 -9999 -9999 26.093 26.198 27.939 29.168 29.803 29.688 30.035 30.36 30.161 30.236 30.349 30.44 30.496 30.487 30.441 30.398 30.395 30.4 30.4 30.443 30.485 30.518 30.568 30.588 30.59 30.64 30.685 30.778 30.945 31.173 31.7 31.603 31.605 31.568 31.615 31.708 31.765 32.26 32.05 31.93 31.978 32.035 32.238 35.8 38.39 39.185 39.49 38.88 37.43 33.765 33.388 33.455 33.533 33.685 34.3 34.788 34.798 34.51 34.513 34.438 34.535 34.443 34.423 34.505 34.543 34.56 34.65 34.825 34.525 34.418 34.348 34.333 34.363 34.26 34.36 34.303 34.33 34.403 34.488 34.673 34.728 34.845 35.098 35.56 36.235 36.535 36.56 36.675 36.995 37.365 37.545 37.645 37.735 37.72 37.79 37.81 37.958 38.265 38.468 38.675 38.948 39.283 40.388 40.345 40.79 41.323 41.525 42.723 42.883 43.58 44.218 45.925 44.93 45.488 46.275 48.253 48.65 48.828 50.063 48.963 49.2 49.535 49.923 50.395 50.615 50.708 50.835 50.94 51.078 51.183 51.295 51.42 51.535 51.83 52.905 53.253 53.558 52.76 52.525 54.498 53.133 53.798 53.683 54.02 54.385 54.798 56.995 55.71 56.048 56.845 58.43 57.775 58.325 58.528 58.42 58.618 58.938 58.988 59.4 59.565 59.318 59.543 59.853 59.99 60.383 60.718 61.03 61.495 63.973 64.02 62.405 62.658 62.76 62.983 63.205 63.353 63.408 63.428 63.408 63.415 63.455 63.465 63.63 63.693 64.38 64.678 64.595 65.35 67.353 66.428 66.418 66.888 67.335 68.123 68.153 68.583 69.15 69.888 70.735 71.5 72.223 72.93 73.188 73.088 73.125 73.073 72.968 72.95 73.128 73.438 73.968 74.595 75.08 75.065 74.87 74.835 74.815 74.763 74.863 74.928 75.008 75.403 76.473 76.668 78.333 77.195 77.948 77.5 77.21 77.668 77.605 77.368 77.843 77.85 77.885 78.105 78.285 78.483 78.64 78.838 78.59 78.883 80.205 79.705 79.343 79.315 79.383 80.158 80.62 81.263 82.658 82.85 81.753 82.23 83.628 83.483 84.728 85.218 85.818 86.17 86.25 86.21 85.63 81.753 80.61 81.405 82.203 84.315 85.688 85.055 84.515 83.163 81.888 81.138 81.313 82.351 81.358 80.976 81.013 81.126 81.203 81.261 81.141 81.143 80.908 80.821 80.816 80.788 80.761 80.756 80.756 80.756 80.783 80.718 80.956 80.936 80.741 80.811 80.488 80.361 80.351 82.366 83.738 83.576 82.481 81.226 80.083 79.938 80.116 82.946 82.711 80.596 80.301 80.318 80.203 80.478 81.636 80.278 80.216 80.368 81.706 81.143 80.596 83.053 82.788 84.246 82.228 80.941 82.053 80.966 80.996 80.933 81.026 81.316 84.458 85.606 85.798 82.726 81.053 80.851 80.828 80.953 81.006 81.041 81.101 81.108 81.226 81.343 81.496 81.583 81.806 82.273 82.201 82.226 83.541 88.361 88.126 87.466 86.833 86.278 86.376 84.518 82.798 83.971 82.671 83.238 86.948 88.833 89.443 88.363 87.276 86.636 86.513 85.813 83.778 83.736 83.726 84.703 84.473 83.961 83.696 83.698 83.713 83.696 83.731 83.778 83.803 83.831 83.941 83.983 83.953 83.981 84.136 84.306 87.258 88.398 88.351 88.398 88.408 88.338 84.543 84.378 84.343 84.293 84.246 84.263 84.278 84.293 84.318 84.373 84.443 84.458 84.516 85.306 89.818 90.216 90.218 90.208 90.196 90.218 90.171
26.008 25.806 25.855 26.009 26.189 26.642 27.507 27.177 25.986 -9999 -9999 -9999 -9999 -9999 -9999 -9999 -9999 -9999 -9999 -9999 26.074 27.368 28.91 29.781 29.809 30.136 30.46 30.156 30.183 30.269 30.39 30.436 30.447 30.427 30.397 30.415 30.395 30.415 30.425 30.453 30.49 30.525 30.525 30.578 30.6 30.645 30.803 30.975 31.455 31.563 31.475 31.518 31.555 31.623 31.75 31.873 32.02 32.263 32.215 32.003 32.138 32.475 32.808 34.06 37.29 38.943 39.538 39.095 38.303 35.418 33.48 33.568 33.7 33.875 34.17 34.493 34.25 34.33 34.68 35.045 34.688 34.518 34.538 34.615 34.643 34.718 34.713 34.973 34.47 34.468 34.453 34.448 34.373 34.395 34.378 34.423 34.493 34.613 34.755 34.878 35.02 35.613 36.323 36.788 36.933 36.945 37.113 37.395 37.633 37.785 37.85 37.845 37.878 38.02 38.04 38.333 38.613 38.743 38.943 39.41 40.47 40.525 40.403 40.898 41.61 42.78 44.358 44.408 46.533 46.4 46.718 46.138 50.21 47.58 50.345 49.535 49.225 48.948 49.145 49.443 49.79 50.105 50.4 50.608 50.698 50.833 50.918 51.038 51.225 51.363 51.508 51.588 52.328 54.013 51.975 52.875 52.72 52.903 53.338 53.56 53.903 54.168 54.678 54.993 55.308 55.655 55.83 56.29 57.04 57.898 58.94 59.128 60.318 59.47 58.795 59.57 59.24 59.943 60.96 59.918 59.673 59.895 60.2 60.49 60.808 61.178 61.53 62.393 62.248 62.445 62.688 62.908 63.1 63.268 63.453 63.533 63.615 63.593 63.565 63.618 63.7 64.263 64.275 65.5 64.998 65.178 67.038 69.43 67.455 66.813 67.508 68.263 68.32 68.52 68.953 69.548 70.858 71.558 72.145 72.793 73.215 73.123 73.033 73.03 72.983 72.945 73.078 73.3 73.77 74.415 74.923 75.093 74.9 74.815 74.805 74.763 74.768 74.965 74.998 75.158 75.6 77.17 76.363 77.965 77.843 77.393 77.245 77.215 77.35 77.425 77.478 77.978 77.633 77.83 78.163 78.413 78.353 78.418 78.65 78.638 79.483 79.748 79.375 79.333 79.308 79.385 80.483 79.633 80.818 82.135 82.103 81.938 83.305 83.613 83.775 83.975 82.595 83.498 84.735 85.16 85.925 85.033 81.7 80.768 82.648 81.983 86.338 86.718 86.365 85.823 85.243 84.011 82.611 81.616 81.483 81.123 81.141 81.203 81.261 81.286 81.268 81.316 81.433 81.338 81.283 81.288 80.906 80.861 80.803 80.806 80.826 80.803 80.776 80.906 80.736 80.646 80.581 80.866 80.476 80.476 81.563 82.638 82.861 82.713 80.043 79.971 79.936 80.506 80.993 81.773 80.468 80.366 80.353 81.093 81.043 80.246 80.278 80.426 80.478 80.543 80.568 80.623 80.848 80.808 82.463 84.221 82.603 84.258 82.176 82.166 81.728 81.178 81.143 82.753 83.343 83.323 81.896 83.088 81.991 81.373 81.446 81.296 81.243 81.116 81.163 81.243 81.343 81.473 81.638 82.038 82.021 82.201 82.236 85.003 87.723 88.363 88.711 88.101 87.326 86.878 85.523 83.643 83.636 83.161 83.038 83.176 87.766 88.536 87.451 86.683 86.571 85.988 83.836 83.741 83.743 83.973 84.466 83.733 83.693 83.751 83.766 83.801 83.791 83.826 83.848 83.876 83.913 84.011 84.026 84.038 84.138 84.273 85.261 88.411 88.431 88.381 88.376 88.373 86.636 84.373 84.371 84.338 84.363 84.286 84.311 84.338 84.363 84.398 84.381 84.458 84.523 84.571 89.018 90.233 90.251 90.236 90.233 90.206 90.198 90.193
26.236 25.829 25.853 25.922 26.043 26.092 26.102 26.448 26.016 -9999 -9999 -9999 -9999 -9999 -9999 -9999 -9999 -9999 -9999 -9999 26.083 27.02 28.368 29.696 29.938 30.387 30.489 30.321 30.132 30.188 30.347 30.394 30.402 30.425 30.378 30.384 30.41 30.408 30.43 30.435 30.46 30.48 30.49 30.55 30.555 30.643 30.793 31.365 31.468 31.425 31.39 31.445 31.515 31.603 31.85 31.803 31.863 32.025 32.158 32.293 32.87 32.35 32.548 33.045 33.865 37.1 38.788 39.493 38.978 35.385 33.853 33.665 33.773 33.868 34.073 34.143 34.213 34.398 34.79 34.948 34.9 34.613 34.668 34.66 34.7 34.758 34.758 34.785 34.65 34.608 34.633 34.598 34.56 34.558 34.51 34.538 34.62 34.773 34.903 34.96 35.16 36.29 36.688 37.065 37.228 37.27 37.435 37.715 37.925 38.06 38.09 38.113 38.118 38.195 38.353 38.768 39.135 39.308 40.208 40.743 41.018 40.64 40.843 41.495 43.353 47.665 48.23 45.605 47.62 47.8 47.145 48.478 47.11 47.968 48.398 48.608 48.85 49.023 49.355 49.65 49.93 50.21 50.42 50.568 50.67 50.815 50.9 51.078 51.333 51.578 51.555 51.623 51.793 52.238 54.495 53.065 52.673 53.01 53.445 53.885 54.25 54.853 55.31 55.58 55.69 56.13 56.415 56.673 57.22 57.643 58.455 60.163 59.5 61.038 59.28 59.853 60.083 59.87 61.593 60.523 59.885 61.153 62.008 60.903 60.9 61.245 61.525 61.81 62.185 62.445 62.678 62.928 63.175 63.365 63.538 63.643 63.73 63.738 63.71 63.803 63.998 67.378 64.48 64.645 65.243 65.235 67.033 69.18 67.348 67.39 68.523 68.928 68.828 69.018 69.293 70.02 73.275 74.108 72.655 73.14 73.133 73.088 73.015 72.973 72.945 73.038 73.24 73.618 74.248 74.81 75.055 74.905 74.828 74.775 74.733 74.728 74.843 74.935 75.093 75.325 75.508 77.34 76.288 76.918 76.83 77.538 77.32 77.468 77.485 77.423 77.445 78.718 78.293 77.993 78.053 78.188 78.348 78.425 78.7 78.84 79.888 79.325 79.293 79.285 79.285 79.72 79.975 79.76 80.018 80.593 80.6 81.933 83.393 82.843 81.823 82.73 80.838 80.848 82.485 83.985 84.565 82.485 82.928 81.853 81.61 83.173 85.69 86.265 86.93 86.895 86.526 85.886 85.358 83.833 81.546 81.258 81.308 82.941 83.781 82.273 81.398 81.586 81.436 81.276 81.246 81.381 81.138 82.628 81.281 80.836 80.843 80.843 80.838 80.971 80.773 80.698 80.761 83.663 84.106 82.263 81.013 81.141 82.676 81.161 80.131 80.036 79.973 80.951 80.848 80.421 80.388 80.406 80.938 81.441 80.753 80.493 80.313 80.518 80.598 80.503 80.626 80.756 80.948 81.011 81.311 81.648 81.948 82.433 81.518 81.848 83.076 84.253 81.518 81.251 81.183 81.301 81.341 81.428 83.133 83.596 81.586 81.606 81.658 81.593 81.396 81.316 81.396 81.531 81.661 81.768 81.883 82.056 82.378 84.686 86.268 87.121 87.838 88.413 88.556 87.918 87.281 86.068 83.943 83.813 83.236 83.303 83.583 85.831 86.718 86.588 86.441 84.263 84.116 83.756 83.788 85.106 84.051 83.768 83.811 83.863 83.853 83.866 83.913 83.941 83.941 83.938 83.998 84.041 84.111 84.138 84.253 84.363 87.286 88.451 88.453 88.408 88.408 88.413 84.553 84.378 84.356 84.358 84.371 84.338 84.346 84.386 84.401 84.421 84.456 84.478 84.576 85.666 90.228 90.228 90.246 90.231 90.223 90.198 90.233 90.196
26.442 26.089 25.81 25.875 25.969 25.997 25.964 26.22 25.818 -9999 -9999 -9999 -9999 -9999 -9999 -9999 -9999 -9999 -9999 -9999 26.011 26.842 27.93 29.275 29.972 30.315 30.471 30.47 30.123 30.144 30.276 30.382 30.414 30.398 30.354 30.376 30.393 30.408 30.405 30.395 30.405 30.45 30.485 30.49 30.568 30.618 30.975 31.398 31.373 31.385 31.35 31.415 31.548 31.91 31.968 31.808 31.868 31.965 32.11 32.428 32.23 32.32 32.473 32.488 32.575 32.78 36.72 38.493 35.538 33.628 33.798 34.323 33.89 33.935 34.133 34.178 34.318 34.52 34.598 34.658 35.068 34.778 35.143 35.235 34.805 34.88 34.968 34.933 34.938 34.85 34.753 34.705 34.713 34.69 34.758 34.705 34.798 34.898 34.983 35.058 36.065 36.72 37.033 37.26 37.508 37.603 37.705 37.948 38.155 38.258 38.265 38.295 38.37 38.63 38.858 39.248 39.943 40.61 40.598 40.758 40.808 41.073 41.475 42.445 45.055 48.01 46.94 46.855 47.13 47.56 46.915 48.428 47.688 49.54 49.12 48.535 48.8 49.143 49.508 49.763 49.985 50.255 50.423 50.535 50.668 50.94 51.07 51.723 51.478 51.518 51.5 51.668 51.79 52.013 53.16 52.18 52.518 53.085 55.183 54.608 54.59 55.268 55.543 55.663 55.88 57.838 57.318 56.978 57.988 58.425 57.755 60.428 58.695 59.055 60.4 60.668 60.61 60.253 59.675 59.92 60.083 60.375 60.793 60.863 60.985 61.318 61.575 61.865 62.18 62.46 62.713 62.98 63.23 63.498 63.655 63.763 63.838 63.898 63.888 63.983 64.163 65.275 64.88 64.848 65.685 67.165 66.71 68.76 68.093 68.155 69.55 69.145 69.253 69.34 69.668 70.478 71.738 72.62 73.043 73.143 73.008 73.025 73.013 72.945 72.95 73.163 73.488 74.08 74.705 75.078 74.988 74.8 74.765 74.748 74.685 74.838 74.945 75.015 75.215 75.473 75.643 75.798 76.185 76.295 77.375 78.285 77.66 77.458 78.123 77.943 77.895 78.123 78.735 78.508 78.478 78.568 78.475 78.918 78.73 79.288 79.34 79.273 79.278 79.253 79.305 80.275 80.078 79.838 79.848 79.79 80.78 81.763 83.068 81.888 80.545 80.868 80.81 80.778 81.285 84.125 83.355 82.55 83.188 83.568 83.395 82.385 83.513 84.97 85.51 86.15 86.651 86.928 86.641 83.601 82.333 81.438 81.496 85.043 85.666 85.021 84.163 82.696 81.578 81.308 81.281 81.236 81.646 85.721 82.396 80.868 80.893 80.856 80.896 81.021 80.811 80.771 82.126 85.643 85.363 84.851 84.218 82.286 80.318 80.471 80.611 80.201 80.421 82.176 81.028 80.423 80.456 80.863 81.691 80.378 80.356 80.378 80.361 80.461 80.553 80.543 80.606 80.763 80.936 81.013 81.241 81.231 81.436 82.436 81.808 81.528 81.318 81.998 81.753 81.426 81.611 82.291 82.386 81.896 81.673 81.616 82.111 82.433 81.701 81.716 81.801 81.726 81.598 81.551 81.698 81.821 81.926 82.106 82.231 82.446 83.936 85.286 86.338 87.251 87.913 88.521 87.936 86.053 84.388 84.088 83.601 84.421 84.421 83.608 84.668 86.388 83.963 83.623 83.716 85.291 85.853 84.013 83.778 83.883 83.928 83.936 83.946 83.951 83.983 84.001 84.033 84.046 84.093 84.111 84.171 84.236 84.338 85.656 88.401 88.568 88.288 88.438 88.428 85.358 84.408 84.383 84.391 84.361 84.386 84.398 84.361 84.416 84.448 84.491 84.491 84.516 85.106 89.111 90.213 90.221 90.226 90.248 90.231 90.226 90.228 88.323
26.663 26.324 25.924 25.843 25.887 25.873 25.931 25.987 -9999 -9999 -9999 -9999 -9999 -9999 -9999 -9999 -9999 -9999 -9999 -9999 25.954 26.592 27.679 28.852 29.816 30.129 30.374 30.351 30.013 30.121 30.219 30.336 30.38 30.398 30.365 30.356 30.38 30.388 30.375 30.373 30.413 30.478 30.493 30.53 30.575 30.803 31.278 31.338 31.273 31.283 31.33 31.443 31.583 31.905 31.868 31.865 31.895 31.965 32.04 32.11 32.265 32.335 32.408 32.463 32.575 32.718 32.863 33.975 34.588 33.583 33.593 33.598 34.418 34.42 34.185 34.238 35.255 34.773 34.8 34.838 34.85 34.955 35.785 36.113 35.61 34.978 35.088 35.16 35.25 35.263 35.113 34.943 34.865 34.893 34.878 34.928 35.048 35.148 35.225 35.483 36.255 36.75 37.24 37.558 37.79 37.82 37.96 38.125 38.313 38.41 38.46 38.543 38.753 39.34 41.903 40.57 40.73 40.463 40.633 40.973 41.478 42.413 44.11 45.378 46.058 48.628 47.205 46.46 46.953 47.525 48.335 47.788 47.7 48.02 48.26 48.58 48.91 49.295 49.598 49.825 50.07 50.378 50.493 50.63 50.703 50.693 51.143 50.94 51.758 52.008 51.57 51.753 51.875 51.988 52.078 52.538 53.835 54.038 54.733 54.588 54.945 56.413 55.79 55.755 56.018 57.57 57.175 57.59 59.86 58.58 57.818 59.138 60.413 59.17 58.935 59.113 59.348 59.65 59.843 60.078 60.213 60.41 60.663 60.87 61.08 61.298 61.598 61.888 62.253 62.52 62.81 63.113 63.365 63.598 63.763 63.87 63.99 64.095 64.1 64.188 64.3 65.353 66.553 66.213 68.768 67.528 66.983 68.255 68.688 68.878 69.025 69.225 69.443 69.588 70.223 71.278 72.228 72.908 73.123 73.045 72.953 72.968 72.953 72.918 73.048 73.323 73.868 74.525 75.035 74.993 74.858 74.763 74.705 74.668 74.728 74.933 75.025 75.138 75.325 75.578 75.783 75.96 76.023 76.108 76.273 76.353 76.47 76.61 76.733 76.85 77.183 77.295 77.51 78.283 79.213 79.013 78.908 78.658 78.94 79.578 79.293 80.21 79.973 79.728 79.825 80.045 80.143 80.215 80.235 80.683 81.695 82.673 82.22 80.205 80.363 80.62 80.715 80.633 82.363 84.085 81.76 81.648 82.968 83.705 82.77 81.233 81.18 81.66 84.135 84.878 85.426 85.973 85.596 83.223 82.178 81.668 83.666 87.071 86.853 86.321 85.731 84.878 83.568 82.523 81.366 81.363 81.273 81.613 81.431 80.921 80.913 80.928 80.978 81.031 80.843 80.686 82.821 85.276 85.761 85.971 85.601 82.243 80.333 80.243 80.276 80.446 81.403 81.543 80.491 80.471 80.568 80.963 81.658 81.186 80.473 80.448 80.476 80.473 80.591 80.661 80.753 80.766 80.936 81.046 81.126 81.198 81.273 82.001 81.643 82.463 83.028 81.721 81.541 81.596 81.718 84.023 86.631 81.946 83.116 82.278 81.883 82.001 82.098 82.521 82.571 81.948 82.071 81.958 81.928 81.871 81.978 82.131 82.241 82.288 82.328 82.426 84.806 86.076 86.648 87.328 86.328 84.661 83.213 84.098 85.513 86.236 85.818 83.858 83.813 84.083 83.666 83.661 83.696 84.956 84.991 83.796 84.126 85.108 84.146 83.976 84.018 84.023 84.078 84.096 84.146 84.206 84.216 84.233 84.266 84.373 84.636 87.791 88.406 88.601 88.526 88.453 87.263 84.486 84.381 84.381 84.416 84.503 84.656 84.543 84.441 84.468 84.508 84.526 84.546 84.618 87.048 90.216 90.183 90.218 90.218 90.231 90.228 90.246 90.226 86.631
26.919 26.39 26.479 26.053 26.551 26.76 26.179 25.938 -9999 -9999 -9999 -9999 -9999 -9999 -9999 -9999 -9999 -9999 -9999 -9999 -9999 26.231 27.388 29.46 30.981 31.088 30.202 30.142 30.042 29.989 30.146 30.259 30.348 30.378 30.37 30.353 30.373 30.373 30.383 30.375 30.435 30.478 30.508 30.543 30.713 31.168 31.193 31.273 31.258 31.245 31.323 31.503 32.085 31.895 31.855 31.795 31.888 31.903 32.003 32.093 32.183 32.273 32.383 32.48 32.613 32.69 32.84 33.093 33.325 33.585 33.638 33.665 33.685 34.003 34.83 35.203 35.023 34.935 34.91 34.938 34.975 35.015 35.008 35.763 36.16 35.573 35.243 35.32 35.453 35.513 35.558 35.335 35.133 35.125 35.128 35.138 35.258 35.418 35.69 36.143 36.603 37.123 37.56 37.823 37.968 38.08 38.275 38.373 38.488 38.573 38.708 38.883 39.203 39.758 41.22 40.54 41.75 40.868 41.118 41.865 42.86 46.435 48.078 46.933 45.493 46.525 47.03 46.473 46.76 47.513 47.51 47.475 47.738 47.998 48.318 48.69 48.988 49.4 49.813 50.178 50.673 50.703 50.483 50.505 50.283 50.263 50.585 51.208 51.138 51.618 51.605 51.82 51.99 52.118 52.42 52.778 53.253 53.955 54.223 54.853 55.828 56.285 55.818 56.113 56.838 57.348 58.42 59.133 59.048 57.988 57.73 57.958 58.833 58.73 58.628 59.068 59.41 59.68 59.91 60.175 60.405 60.58 60.785 60.96 61.198 61.405 61.658 61.923 62.253 62.58 62.9 63.253 63.51 63.733 63.89 64.058 64.228 64.325 64.385 64.455 64.758 65.26 67.393 66.923 66.465 67.33 67.953 68.575 69.075 69.11 69.223 69.378 69.55 69.973 70.9 71.905 72.715 73.103 73.058 72.953 72.915 72.92 72.875 72.935 73.135 73.61 74.275 74.93 75.068 74.803 74.753 74.715 74.743 74.69 74.89 74.965 75.033 75.263 75.523 75.7 75.838 75.94 76.05 76.113 76.21 76.34 76.463 76.605 76.68 76.725 76.758 76.815 76.91 77.053 77.35 77.508 77.783 78.573 79.86 80.145 80.083 80.468 80.048 79.885 80.425 79.91 79.963 80.863 80.743 81.868 81.925 81.98 80.838 80.245 80.335 80.438 80.708 80.623 80.635 81.263 81.115 80.803 82.915 83.698 81.438 81.195 81.193 81.258 81.678 82.088 82.841 84.773 83.741 83.791 83.986 83.583 84.891 86.288 86.848 87.258 87.028 86.523 85.926 85.386 84.731 83.121 81.916 81.591 81.241 80.931 80.946 80.963 81.013 81.003 80.808 80.683 81.681 83.828 84.513 84.993 85.371 82.191 80.456 80.308 80.331 80.453 81.551 80.718 80.486 80.616 80.596 80.516 81.051 80.611 80.508 80.518 80.508 80.506 80.596 80.693 80.711 80.831 80.923 81.048 81.183 81.236 81.771 81.851 82.591 81.858 81.568 82.358 81.703 83.903 83.351 83.853 85.333 84.651 85.636 84.168 82.803 81.976 82.008 81.991 82.111 82.336 83.481 83.571 83.526 82.303 82.073 82.213 82.266 82.323 82.346 82.668 85.266 85.733 85.786 86.036 85.791 83.928 83.516 83.748 86.171 86.248 86.271 84.421 83.691 83.721 83.728 83.756 84.033 83.991 83.783 83.938 84.753 85.003 84.016 84.066 84.051 84.101 84.166 84.196 84.261 84.308 84.446 84.378 85.051 84.443 86.111 88.396 88.368 88.403 88.408 87.921 84.633 84.453 84.396 84.408 84.476 85.561 84.748 84.618 84.723 84.521 84.553 84.598 84.621 85.816 90.036 90.206 90.213 90.206 90.188 90.203 90.218 90.236 89.493 84.598
26.755 26.37 26.559 27.774 29.267 30.023 27.719 -9999 -9999 -9999 -9999 -9999 -9999 -9999 -9999 -9999 -9999 -9999 -9999 -9999 -9999 27.026 26.654 27.861 32.11 31.756 30.203 30.056 30.04 30.052 30.212 30.188 30.286 30.354 30.374 30.36 30.36 30.37 30.378 30.398 30.468 30.508 30.548 30.598 31.218 31.04 31.195 31.238 31.235 31.24 31.298 32.115 34.51 31.745 31.793 31.803 32.135 32.015 32.053 32.125 32.185 32.285 32.408 32.538 32.655 32.723 32.85 33.075 33.298 33.46 34.313 33.853 33.858 33.785 35.06 35.338 35.113 35.03 35.038 35.04 35.123 35.205 35.25 35.403 35.918 36.335 35.72 35.495 35.63 35.758 35.888 35.855 35.593 35.43 35.463 35.585 35.728 35.818 36.11 36.723 37.318 37.735 38.09 38.19 38.308 38.535 38.645 38.675 38.685 38.763 38.893 39.103 39.448 39.953 40.485 40.393 44.058 44.195 42.728 43.67 44.895 47.05 47.85 46.953 45.805 46.06 46.405 46.603 46.87 47.098 47.293 47.518 47.735 47.978 48.353 48.798 49.315 50.538 50.128 49.955 50.005 53.583 51.788 49.65 50.503 49.665 49.91 50.17 50.628 51.373 51.743 51.948 52.155 52.303 52.77 53.02 53.36 53.845 54.33 55.298 55.31 55.768 56.23 57.113 58.17 58.443 60.043 58.86 58.048 58.028 57.895 58.19 58.223 58.345 58.638 59.05 59.425 59.76 60.343 60.385 60.58 60.75 60.898 61.11 61.325 61.555 61.818 62.06 62.355 62.708 63.053 63.408 63.638 63.868 64.083 64.275 64.41 64.453 64.51 64.73 65.048 65.988 68.185 69.153 69.403 71.773 71.288 68.925 69.438 69.288 69.385 69.483 69.84 70.643 71.508 72.49 73.028 73.065 72.973 72.943 72.885 72.875 72.893 73.075 73.425 74.033 74.7 75.005 74.863 74.785 74.75 74.715 74.605 74.78 74.93 74.99 75.238 75.408 75.603 75.763 75.89 75.933 76.008 76.155 76.273 76.368 76.503 77.033 77.19 77.125 77.095 77.048 77.035 77.098 77.18 77.185 77.27 77.358 77.453 77.848 78.523 79.243 80.14 80.34 80.38 80.19 80.133 80.235 81.21 83.215 81.618 80.308 80.26 80.35 80.36 80.69 80.65 80.638 80.665 80.675 80.78 81.188 81.15 81.663 81.163 81.185 81.23 81.978 82.25 81.4 81.591 81.418 83.073 83.778 84.016 83.553 85.238 85.376 85.546 86.128 86.601 87.026 87.058 86.673 85.521 85.371 84.783 81.558 81.168 80.976 81.001 80.973 81.076 81.121 80.948 80.691 80.586 80.606 81.796 83.681 83.996 83.378 81.601 80.356 80.326 81.393 81.101 80.536 80.508 80.666 80.471 80.453 80.493 80.483 80.463 80.526 80.516 80.546 80.638 80.671 80.716 80.796 80.976 81.171 81.241 81.263 81.623 84.006 81.813 81.666 81.688 82.198 84.276 83.038 85.161 84.493 83.773 85.281 85.433 86.771 85.441 83.956 82.168 82.191 82.201 82.391 82.703 82.906 83.966 82.838 82.901 82.301 82.301 82.378 82.588 83.018 83.143 84.278 85.683 85.641 85.046 83.343 83.551 83.448 85.368 86.291 85.973 84.378 83.728 84.156 84.493 87.276 84.816 83.886 84.131 85.018 85.288 84.271 84.036 84.041 84.063 84.151 84.236 84.283 84.338 84.356 84.826 87.923 87.126 84.721 87.953 88.388 88.406 88.371 88.408 86.866 84.741 84.451 84.441 84.451 84.563 87.836 88.738 86.586 84.601 84.581 84.691 84.651 84.666 88.111 90.183 90.186 90.181 90.183 90.193 90.198 90.196 89.701 85.966 85.146
26.625 26.437 26.602 28.963 33.489 32.809 30.443 -9999 -9999 -9999 -9999 -9999 -9999 -9999 -9999 -9999 -9999 -9999 -9999 -9999 -9999 32.388 31.436 32.511 33.525 31.766 30.113 30.432 30.041 30.07 30.033 30.172 30.195 30.296 30.358 30.373 30.36 30.405 30.423 30.455 30.545 30.628 30.64 30.933 31.018 31.113 31.188 31.235 31.228 31.265 31.885 35.485 35.875 35.868 32.418 31.835 32.028 32.033 32.053 32.098 32.175 32.305 32.473 32.583 32.7 32.805 33 33.175 33.315 33.5 33.753 34.273 35.243 34.323 35.863 35.235 35.188 35.158 35.163 35.153 35.24 35.315 35.42 35.455 35.54 35.988 36.403 36.045 35.813 36.015 36.225 36.318 36.238 35.953 35.83 36.008 36.205 36.308 36.468 37.068 37.688 38.015 38.3 38.513 38.725 38.898 38.89 38.883 38.938 39.138 39.88 40.285 40.463 40.683 40.678 41.498 44.988 43.308 45.743 44.685 48.345 45.183 46.123 45.82 46.133 46.338 46.548 46.71 46.88 47.08 47.255 47.483 47.705 48.048 48.59 49.723 50.01 49.535 49.465 49.248 49.125 50.183 49.348 49.093 49.425 49.705 50.79 50.4 50.71 51.425 51.828 52.063 52.268 52.388 52.665 52.983 54.633 54.023 54.675 54.783 55.353 56.095 56.94 58.863 57.988 58.173 58.19 58.2 58.3 58.17 58 58.125 58.32 58.388 58.65 59.108 60.7 60.045 62.61 61.808 60.935 60.743 60.908 61.123 61.423 61.7 61.98 62.313 62.593 62.895 63.28 63.598 63.79 63.988 64.235 64.393 64.53 64.603 64.72 64.97 65.323 66.25 66.4 68.06 69.743 72.15 70.993 69.635 69.46 69.428 69.523 69.718 70.568 71.205 72.123 72.925 73.048 72.953 72.89 72.915 72.828 72.85 73.055 73.335 73.865 74.54 75.023 74.98 74.758 74.75 74.73 74.643 74.743 74.875 74.948 75.108 75.43 75.563 75.695 75.828 75.91 75.973 76.09 76.24 76.368 76.463 76.498 76.558 76.688 76.835 76.938 77.065 77.123 77.198 77.328 77.42 77.928 78.048 77.703 77.635 77.693 77.753 77.838 78.043 78.193 78.588 78.975 79.253 79.695 80.148 80.348 80.083 80.635 80.815 80.535 80.83 80.658 80.65 80.668 81.673 82.435 81.025 81.038 81.043 81.095 81.165 81.228 82.67 82.21 81.468 81.386 81.901 83.403 83.916 83.833 83.746 85.443 84.058 83.518 84.846 85.396 85.928 86.523 86.043 83.978 84.966 84.258 81.921 81.206 81.073 81.103 81.073 81.093 81.148 81.106 81.018 80.856 80.833 81.901 83.078 83.146 83.046 80.743 80.456 80.971 81.501 80.603 80.526 80.586 80.863 80.483 80.483 80.538 80.531 80.526 80.566 80.558 80.623 80.743 80.783 80.803 80.881 80.978 81.523 81.488 81.626 81.641 81.981 82.853 83.601 83.536 83.731 83.751 83.053 83.511 82.773 83.498 84.373 83.433 83.578 82.691 82.741 82.676 85.218 83.696 82.636 82.501 82.446 83.148 84.531 83.816 83.838 83.303 83.346 86.426 85.876 84.758 83.603 84.043 84.388 84.521 83.573 83.483 83.411 84.046 85.228 84.678 83.746 83.751 84.088 85.428 84.841 83.928 83.926 84.388 85.228 84.393 84.096 84.086 84.078 84.111 84.176 84.226 84.316 84.353 84.386 85.106 88.186 87.463 85.381 88.306 88.428 88.408 88.381 87.876 84.793 84.483 84.491 84.486 84.506 86.371 88.961 88.943 88.963 88.593 85.211 84.811 84.856 85.621 89.811 90.166 90.186 90.198 90.183 90.166 90.191 90.186 86.778 84.596 84.613
26.804 26.603 26.298 28.58 31.935 31.508 -9999 -9999 -9999 -9999 -9999 -9999 -9999 -9999 -9999 -9999 -9999 -9999 -9999 -9999 -9999 -9999 35.859 32.001 32.804 32.774 33.478 30.421 29.999 30.005 30.048 30.073 30.219 30.263 30.343 30.385 30.401 30.414 30.463 30.528 30.638 30.705 30.76 31.008 31.025 31.133 31.183 31.225 31.263 31.643 33.19 35.958 37.455 37.215 36.378 34.583 32.148 31.963 31.988 32.073 32.175 32.288 32.433 32.578 32.753 32.87 33.103 33.28 33.38 33.608 33.915 34.345 34.955 35.133 35.158 35.225 35.225 35.258 35.28 35.285 35.363 35.455 35.575 35.635 35.683 35.808 36.185 35.903 36.028 36.26 36.485 36.66 36.75 36.753 36.468 36.405 36.543 36.67 36.9 37.395 37.848 38.263 38.565 38.9 39.228 39.168 39.155 41.173 39.788 40.04 40.473 41.228 41.875 41.8 42.213 42.96 45.273 47.623 47.408 45.113 45.385 45.4 45.763 46.053 46.26 46.39 46.523 46.705 46.928 47.095 47.26 47.443 47.833 48.403 48.8 49.003 49.433 49.195 48.84 48.643 48.858 49.213 49.57 49.635 49.9 50.185 50.443 50.68 50.948 51.47 51.748 52.145 52.443 52.533 52.73 53.143 53.763 53.985 55.013 54.953 55.553 56.92 59.845 59.853 58.14 58.253 58.143 58.26 58.478 58.22 58.043 58.135 58.37 58.535 58.76 60.078 63.36 61.778 63.155 62.873 60.87 60.893 61.073 61.275 61.515 61.83 62.148 62.538 62.823 63.155 63.503 63.763 63.945 64.153 64.333 64.508 64.658 64.748 65.018 65.398 65.78 66.653 67.42 67.848 68.36 69.05 69.575 69.725 69.468 69.555 69.583 70.04 70.915 71.63 72.698 73.038 72.918 72.87 72.86 72.805 72.82 73.03 73.288 73.703 74.348 74.928 75.018 74.785 74.728 74.733 74.67 74.653 74.85 74.9 75.06 75.29 75.535 75.633 75.863 75.91 75.925 76.048 76.19 76.338 76.45 76.55 76.645 76.735 76.87 76.99 77.028 77.065 77.125 77.215 77.315 77.39 77.488 77.65 77.918 77.92 78.008 78.263 78.288 78.328 78.435 78.335 78.42 78.563 78.78 78.93 79.16 79.745 80.875 81.39 81.32 81.468 82.913 81.73 80.873 81.52 82.425 81.065 81.003 81.04 81.078 81.145 82.045 82.57 81.5 81.45 81.678 83.103 83.481 83.681 82.688 83.256 84.151 83.303 81.976 82.503 82.881 84.103 85.243 82.746 81.768 81.828 82.116 81.808 81.186 81.063 81.078 81.071 81.086 81.101 81.106 81.411 81.843 81.628 82.061 82.923 82.943 81.846 80.433 80.591 81.721 80.931 80.553 80.531 80.761 81.098 80.516 80.621 80.723 80.601 80.561 80.588 80.648 80.721 80.843 80.906 80.968 81.026 81.213 81.708 81.573 81.666 82.036 81.696 81.668 82.451 86.076 85.026 84.638 83.643 83.613 82.971 83.456 84.198 83.603 83.528 82.593 83.571 82.671 85.428 85.208 85.648 85.631 85.876 83.648 82.753 82.841 83.308 83.116 83.238 86.966 86.786 87.691 85.743 84.688 83.776 84.931 84.071 83.633 83.446 83.766 83.701 84.661 84.156 83.838 83.991 84.576 83.933 83.956 83.966 84.051 84.153 84.133 84.183 84.193 84.156 84.181 84.223 84.258 84.358 84.368 84.616 86.458 87.538 84.561 84.441 85.113 85.986 87.916 88.381 86.023 84.483 84.501 84.513 84.528 84.756 88.493 88.958 88.956 88.943 88.963 88.906 88.021 86.168 86.901 88.703 89.758 90.163 90.211 90.196 90.158 90.178 89.586 84.576 84.653 84.606
28.171 26.829 26.542 26.846 26.475 26.971 26.508 -9999 -9999 -9999 -9999 -9999 -9999 -9999 -9999 -9999 -9999 -9999 -9999 -9999 -9999 -9999 35.251 36.993 32.936 34.528 33.135 32.254 30.782 29.989 30.038 30.121 30.197 30.275 30.345 30.417 30.462 30.452 30.495 30.545 30.65 30.738 30.725 30.86 31.173 31.12 31.14 31.195 32.573 32.853 31.425 34.755 36.735 37.205 37.398 37.028 36.545 33.725 31.968 32.093 32.2 32.33 32.443 32.583 32.76 32.933 33.145 33.315 33.518 33.743 34.058 34.618 34.903 35.028 35.15 35.24 35.29 35.38 35.42 35.43 35.483 35.578 35.72 35.815 35.935 36.038 36.06 36.108 36.268 36.468 36.683 36.925 37.165 37.288 37.118 36.94 36.878 36.99 37.25 37.635 38.04 38.563 39.033 39.403 39.408 39.395 40.135 44.57 40.855 41.263 41.67 42.145 42.598 43.015 43.508 43.975 43.978 45.953 45.63 45.08 45.335 45.603 45.855 46.055 46.208 46.388 46.525 46.708 46.913 47.055 47.285 47.855 48.243 48.56 48.88 49.053 49.025 48.623 48.458 48.813 49.328 49.79 50.108 50.295 50.945 50.608 51.385 50.93 51.58 51.533 51.928 52.438 52.648 52.75 52.958 53.393 53.698 54.248 55.753 55.288 57.815 57.918 58 58.25 57.935 58.143 58.185 58.265 58.325 58.258 58.208 58.243 58.42 58.613 59.673 59.85 59.878 60.3 63.058 63.83 60.788 60.965 61.168 61.37 61.61 62 62.42 62.768 63.098 63.375 63.72 63.923 64.085 64.268 64.478 64.835 65.333 65.05 65.778 65.855 66.163 66.825 68.21 68.53 68.988 69.123 69.765 69.48 69.605 69.743 70.163 70.64 71.285 72.44 73.013 72.938 72.825 72.843 72.84 72.8 72.895 73.185 73.568 74.168 74.813 74.978 74.81 74.735 74.718 74.66 74.628 74.79 74.888 75.14 75.26 75.528 75.678 75.785 75.913 75.91 76.01 76.155 76.32 76.443 76.548 76.643 76.77 76.885 77 77.078 77.115 77.133 77.185 77.285 77.4 77.488 77.59 77.685 77.825 78.005 78.23 78.393 78.635 78.798 79.31 79.55 79.423 79.518 79.195 79.08 79.14 79.208 79.33 79.455 79.643 80.195 80.895 80.955 81.173 82.335 83.438 82.96 82.745 82.845 82.12 81.83 82.563 81.825 81.51 81.543 82.336 83.911 83.088 81.961 81.988 81.828 82.036 82.051 82.078 82.053 81.721 81.588 82.418 82.261 81.813 81.751 82.223 82.198 81.256 81.088 81.123 81.113 81.091 81.088 81.133 81.566 83.253 83.586 82.891 81.901 81.781 80.901 80.603 81.318 81.021 80.631 80.563 80.611 80.698 80.536 80.573 80.913 80.911 80.753 80.651 80.741 80.766 80.793 80.876 80.948 81.141 82.206 82.593 81.463 81.866 81.813 82.128 82.151 82.563 82.523 83.658 84.426 84.621 85.811 84.523 84.386 84.328 84.766 85.423 84.963 82.543 83.638 84.568 82.871 83.958 86.348 85.893 86.091 84.353 83.206 82.966 82.953 83.018 83.143 84.908 85.303 85.236 86.311 85.441 83.513 85.161 85.673 85.366 84.533 83.603 84.018 85.423 85.038 84.223 84.326 83.956 83.986 84.021 84.028 84.068 84.108 84.203 84.231 84.256 84.198 84.283 84.278 84.353 84.403 84.426 85.138 87.931 85.576 84.481 84.491 84.468 84.516 85.161 86.306 84.608 84.536 84.556 84.586 84.546 85.466 88.026 88.948 88.948 88.941 88.918 88.961 88.963 88.633 88.201 88.691 88.688 88.911 89.961 90.183 90.171 90.163 87.483 84.736 84.633 84.631
29.732 27.569 26.808 26.427 26.325 26.137 26.003 -9999 -9999 -9999 -9999 -9999 -9999 -9999 -9999 -9999 -9999 -9999 -9999 -9999 -9999 -9999 34.154 32.448 33.264 32.84 35.131 31.689 30.199 30.087 30.035 30.123 30.16 30.238 30.325 30.402 30.503 30.518 30.543 30.613 30.673 30.773 30.773 30.808 31.12 31.118 31.16 31.725 34.115 35.403 34.213 32.003 32.878 35.523 36.973 37.498 37.37 36.815 34.9 32.153 32.238 32.41 32.48 32.655 32.868 33.133 33.243 33.36 33.618 33.858 34.178 34.71 35.07 35.165 35.223 35.303 35.365 35.47 35.543 35.583 35.638 35.688 35.87 35.988 36.11 36.253 36.378 36.353 36.565 36.688 36.903 37.13 37.42 37.658 37.708 37.73 37.455 37.46 37.57 37.913 38.323 39.01 39.543 39.568 39.66 40.015 40.728 41.715 41.868 42.315 42.735 43.065 43.358 43.693 44.015 44.245 44.473 44.765 45.04 45.225 45.433 45.648 45.875 46.078 46.24 46.435 46.6 46.77 46.94 47.315 47.99 48.558 48.623 48.91 48.88 48.548 48.298 48.348 48.668 49.143 49.653 50.195 50.655 50.795 50.923 51.21 51.723 51.49 51.693 51.883 52.198 52.5 52.803 52.993 53.143 53.585 54.145 54.413 54.945 55.53 58.4 58.143 57.118 57.738 59.088 57.983 58.143 58.25 58.303 58.305 58.398 58.448 58.575 60.09 62.998 61.958 59.64 59.988 60.41 61.368 60.93 61.035 61.235 61.41 61.738 62.11 62.593 62.993 63.513 63.715 63.89 64.073 64.193 64.35 64.61 64.903 65.18 65.513 65.938 66.1 66.955 67.43 67.975 68.44 68.978 69.54 69.623 69.71 69.768 69.805 70.368 71.238 71.978 72.923 72.938 72.813 72.75 72.77 72.755 72.828 73.01 73.393 73.975 74.625 75.015 74.885 74.708 74.703 74.658 74.623 74.678 74.843 74.93 75.168 75.503 75.768 75.86 75.925 75.963 76.02 76.12 76.263 76.455 76.588 76.665 76.763 76.85 76.935 77 77.068 77.13 77.193 77.26 77.373 77.48 77.588 77.693 77.86 78.06 78.218 78.475 78.648 78.768 78.848 78.935 79.048 79.135 79.233 79.555 79.798 79.588 79.533 79.678 79.73 79.833 79.973 79.96 80.02 80.133 80.315 80.433 80.72 81.458 82.305 83.168 84.138 84.328 83.498 82.78 82.318 82.863 83.243 82.696 81.966 81.928 81.936 81.923 82.083 82.308 81.951 81.981 81.881 81.976 82.263 82.478 82.831 82.588 82.318 81.283 81.148 81.156 81.161 81.121 81.453 83.128 83.413 83.766 83.731 82.966 82.523 80.576 80.608 81.306 81.691 80.791 80.638 80.651 80.661 80.636 80.696 80.826 81.053 80.931 80.736 80.698 80.883 81.033 80.918 81.631 83.578 82.618 82.163 84.276 82.288 82.041 83.213 84.626 85.101 86.081 84.458 83.906 82.941 82.986 83.993 83.796 85.821 85.118 84.916 83.903 83.856 85.223 84.183 84.976 83.726 83.773 84.476 85.911 85.296 87.068 83.896 84.208 83.128 83.203 83.228 83.243 83.283 83.351 83.668 84.006 84.968 84.361 85.556 85.468 85.058 83.541 85.058 86.116 87.333 86.213 83.918 83.953 84.006 84.078 84.116 84.148 84.203 84.251 84.281 84.268 84.291 84.326 84.363 84.446 84.481 84.546 86.028 87.561 84.523 84.528 84.546 84.546 84.548 84.503 84.518 84.558 84.551 84.588 84.611 84.558 84.528 84.683 87.088 88.616 88.958 88.956 88.951 88.843 88.696 88.533 88.291 88.696 88.721 88.691 88.951 90.108 88.791 84.821 84.653 84.641 84.758
29.216 28.692 26.924 26.745 26.483 26.229 25.983 -9999 -9999 -9999 -9999 -9999 -9999 -9999 -9999 -9999 25.958 -9999 -9999 -9999 -9999 -9999 34.529 34.62 33.945 35.804 33.38 32.128 30.018 29.964 30.024 30.185 30.25 30.259 30.316 30.4 30.461 30.526 30.576 30.62 30.675 30.813 30.903 31.043 31.088 31.1 31.303 32.403 35.108 35.628 35.673 35.195 34.288 32 35.158 36.533 37.168 37.295 34.798 32.175 32.308 32.478 32.548 32.748 33.055 33.248 33.333 33.52 33.815 34.11 34.383 34.71 35.085 35.25 35.305 35.388 35.44 35.495 35.613 35.685 35.81 35.87 36.003 36.153 36.285 36.425 36.593 36.648 36.74 36.923 37.113 37.305 37.643 37.87 38.115 38.285 38.19 38.77 38.105 38.448 39.005 39.75 39.765 39.823 40.223 41.025 41.89 42.383 42.75 42.965 43.188 43.403 43.648 43.92 44.158 44.415 44.663 44.875 45.1 45.32 45.55 45.713 45.895 46.128 46.268 46.465 46.653 46.858 47.255 48.528 48.345 48.718 48.338 48.333 48.088 47.97 48.433 49.34 49.473 49.503 50.015 50.598 50.935 51.13 51.033 51.155 51.383 51.6 52.1 52.1 52.405 52.8 53.075 53.205 53.323 53.955 54.783 54.64 59.475 55.985 57.983 57.66 57.22 57.173 57.578 57.745 58.103 58.388 58.448 58.443 58.593 58.638 58.695 59.408 60.24 59.758 59.623 59.95 60.42 60.99 61.073 61.063 61.203 61.488 61.845 62.24 62.643 63.128 63.653 63.908 64.048 64.19 64.288 64.445 64.703 65.038 65.915 65.908 66.768 66.535 66.973 67.57 68.803 68.818 69.358 69.683 69.665 69.785 69.858 70.295 71.033 71.85 72.715 72.995 72.798 72.773 72.738 72.695 72.713 72.905 73.16 73.743 74.478 74.92 74.888 74.725 74.723 74.643 74.545 74.625 74.833 75.09 75.068 75.393 75.748 75.893 76.075 76.013 76.088 76.175 76.26 76.388 76.563 76.668 76.768 76.828 76.885 76.96 77.02 77.09 77.165 77.27 77.355 77.455 77.54 77.66 77.773 77.903 78.228 78.305 78.653 78.905 79.038 79.145 79.233 79.288 79.33 79.333 79.445 79.543 79.615 79.668 79.72 79.813 79.87 80.338 80.875 80.935 81.098 80.838 80.693 80.658 80.738 80.838 81.015 81.378 81.963 82.633 83.44 84.025 83.361 82.943 84.438 84.011 83.446 82.301 82.531 83.238 82.358 82.023 82.053 82.346 83.546 84.203 84.113 83.813 82.993 81.878 81.308 81.171 81.208 81.193 81.153 81.211 82.098 81.628 83.938 83.901 83.086 82.853 80.603 80.666 81.573 81.236 80.753 80.666 80.766 80.791 80.833 80.893 80.921 80.966 82.863 86.323 88.823 86.028 86.946 88.278 88.956 90.773 90.606 85.353 81.953 82.923 81.751 85.398 89.296 92.188 92.686 94.016 88.623 85.188 84.948 85.111 85.828 85.478 84.933 84.668 84.586 85.231 84.783 84.601 84.531 85.638 85.316 84.606 83.856 84.338 84.751 84.078 85.223 86.606 83.436 83.258 83.356 83.751 84.078 83.521 83.808 86.291 85.178 85.308 84.776 85.263 84.543 84.916 85.713 88.223 86.443 83.888 83.921 84.013 84.106 84.151 84.196 84.253 84.333 84.348 84.338 84.361 84.401 84.463 84.468 84.526 85.121 85.193 84.661 84.573 84.581 84.601 84.603 84.596 84.601 84.608 84.593 84.636 84.633 84.671 84.618 84.586 84.618 84.626 86.053 87.946 88.713 88.926 88.703 88.691 88.591 88.693 88.736 88.708 88.673 88.653 88.686 85.866 84.866 84.603 84.646 84.621
30.282 28.459 26.892 26.93 26.697 26.318 26.108 -9999 -9999 -9999 -9999 -9999 -9999 -9999 -9999 -9999 25.91 25.955 -9999 -9999 -9999 -9999 35.018 34.472 32.218 29.898 30.572 29.887 29.942 30.039 30.05 30.248 30.186 30.293 30.287 30.41 30.48 30.524 30.628 30.655 30.773 30.898 30.945 31.023 31.053 31.09 31.35 31.15 31.833 33.648 35.348 35.885 35.623 34.718 32.828 32.843 35.455 35.463 32.118 32.235 32.403 32.533 32.655 32.918 33.198 33.333 33.445 33.765 34.138 34.695 34.995 35.033 35.203 35.325 35.378 35.455 35.578 35.603 35.705 35.825 35.925 36.02 36.15 36.29 36.433 36.61 36.695 36.853 37.01 37.135 37.388 37.56 37.898 38.153 38.365 38.653 38.798 39.23 38.958 39.375 39.75 39.873 39.965 40.32 41.3 42.1 42.538 42.77 42.995 43.135 43.343 43.52 43.82 44.113 44.345 44.498 44.72 44.96 45.195 45.433 45.643 45.805 46.043 46.295 46.46 46.63 46.845 47.11 47.69 48.073 47.845 47.93 47.908 47.785 47.75 48.33 49.063 49.71 49.923 50.188 50.605 51.013 51.15 51.448 51.43 51.478 51.658 51.858 52.29 52.383 52.788 53.983 53.398 53.47 53.57 53.93 54.443 56.618 56.783 57.5 58.72 57.52 56.85 57.008 57.263 59.26 60.205 59.778 58.418 58.475 58.69 58.908 58.99 58.99 59.538 59.558 59.7 60.063 60.523 61.158 60.96 61.04 61.305 61.515 62.605 63.583 62.865 63.38 63.818 64.103 64.198 64.28 64.375 64.593 64.868 65.723 65.888 67.588 67.65 67.258 67.933 67.933 68.575 69.188 69.808 69.668 69.84 69.985 70.315 71.903 71.67 72.553 72.95 72.785 72.735 72.69 72.71 72.745 72.823 73.053 73.548 74.183 74.86 74.92 74.73 74.698 74.66 74.568 74.598 74.718 74.84 75.388 75.395 75.68 75.903 76.075 76.08 76.135 76.26 76.34 76.423 76.535 76.695 76.768 76.848 76.903 76.943 77.048 77.093 77.15 77.238 77.355 77.468 77.543 77.61 77.73 77.833 78.023 78.223 78.343 78.74 79.015 79.23 79.36 79.45 79.533 79.54 79.503 79.565 79.658 79.763 79.803 79.85 79.908 79.97 80.028 80.105 80.283 80.57 80.955 81.07 81.223 81.645 81.595 81.753 81.858 81.593 81.623 81.68 81.773 81.826 81.916 82.176 82.881 83.421 82.878 84.378 83.711 82.511 83.093 83.536 84.463 85.798 84.293 84.216 84.198 83.916 81.561 81.323 81.178 81.238 81.218 81.178 81.221 81.288 81.468 84.006 83.961 83.626 82.468 80.701 81.818 81.583 80.781 80.748 80.751 80.836 81.371 80.973 80.963 80.913 81.796 87.018 91.601 91.811 90.166 89.836 92.006 90.706 91.003 91.448 87.533 81.856 81.941 81.733 83.321 85.596 91.786 92.228 90.006 87.123 82.878 83.133 84.113 84.871 84.006 82.661 82.776 83.156 82.851 82.858 82.736 82.771 83.023 83.721 83.258 83.196 83.243 83.366 83.941 83.823 84.751 84.766 85.301 84.301 84.361 84.586 83.638 83.661 84.061 84.148 84.223 84.113 84.621 86.503 88.036 88.568 86.578 83.896 83.891 83.956 84.001 84.078 84.158 84.221 84.291 84.391 84.418 84.393 84.418 84.478 84.536 84.571 85.023 84.973 84.846 84.591 84.603 84.623 84.611 84.663 84.631 84.653 84.676 84.711 84.711 84.706 84.711 84.701 84.666 84.678 84.648 84.663 84.683 85.463 86.631 88.191 88.523 88.701 88.711 88.723 88.723 88.763 88.666 87.836 85.251 84.966 84.766 84.713 84.638
31.198 31.299 27.969 26.942 26.801 26.613 26.095 -9999 -9999 -9999 -9999 -9999 25.928 25.913 25.873 25.935 25.885 25.85 25.85 -9999 -9999 -9999 -9999 34.038 32.216 27.816 28.868 29.443 29.683 29.757 29.957 30.049 30.251 30.292 30.407 30.318 30.521 30.607 30.704 30.768 30.845 30.915 31.023 30.993 31.028 31.225 31.145 31.05 31.11 31.193 33.053 34.92 35.635 35.78 35.328 34.2 33.363 32.928 32.22 32.393 32.548 32.653 32.773 33.01 33.305 33.488 33.725 34.088 34.595 35.138 35.258 35.298 35.38 35.46 35.478 35.533 35.64 35.74 35.818 35.903 36.033 36.165 36.3 36.418 36.588 36.79 36.883 37.003 37.208 37.413 37.67 37.888 38.165 38.405 38.658 38.888 39.143 39.313 39.685 40.133 40.168 40.143 40.823 41.3 42.098 42.483 42.698 42.858 43.07 43.433 43.443 43.61 43.915 44.12 44.343 44.59 44.85 45.11 45.34 45.585 45.813 45.94 46.228 47.565 47.718 47.005 47.15 47.388 47.76 48.603 47.565 47.495 47.513 47.688 47.98 48.543 49.105 49.738 50.27 50.578 50.885 51.493 51.923 51.495 51.785 52.023 52.155 52.308 52.508 53.04 54.683 54.73 53.763 53.728 53.86 54.143 55.298 56.565 55.395 56.395 57.695 57.115 56.688 56.795 57.143 60.52 61.278 60.178 58.49 58.595 58.853 59.058 59.178 59.215 59.328 59.49 60.143 63.423 60.293 60.738 61.018 62.803 61.505 62.338 62.32 63.178 62.915 64.243 64.343 64.258 64.325 64.365 64.475 64.683 65.208 65.695 65.793 66.51 67.093 67.508 68.663 68.26 68.933 69.985 69.71 69.845 70.02 70.215 70.62 71.443 72.415 72.808 72.798 72.705 72.73 72.69 72.655 72.773 72.943 73.358 73.988 74.65 74.933 74.745 74.655 74.67 74.618 74.57 74.713 74.76 74.905 75.168 75.585 75.878 76.03 76.065 76.163 76.238 76.34 76.433 76.538 76.66 76.8 76.863 76.928 76.975 77.018 77.075 77.138 77.225 77.308 77.435 77.535 77.628 77.703 77.788 77.873 78.048 78.295 78.378 78.738 79.06 79.33 79.473 79.555 79.638 79.628 79.588 79.625 79.705 79.788 79.88 79.93 79.995 80.113 80.195 80.315 80.455 80.598 80.768 80.853 80.933 81.083 81.23 81.435 81.818 81.795 81.585 81.635 81.703 81.791 81.883 81.896 81.958 81.986 81.991 82.328 82.378 82.171 82.176 82.201 82.176 82.701 83.096 83.081 84.021 83.043 81.516 81.326 81.238 81.256 81.266 81.263 81.338 81.293 81.363 82.953 83.521 82.988 82.191 81.068 82.161 80.868 80.746 80.776 80.863 81.358 81.926 80.988 80.946 80.971 81.116 82.026 86.001 88.046 84.843 83.938 83.478 83.193 83.171 87.496 90.783 84.263 81.533 81.638 82.053 83.576 86.863 86.396 83.408 82.103 82.243 82.716 82.931 82.706 82.611 82.623 82.606 84.716 83.183 83.023 82.833 82.876 83.243 84.258 83.606 83.223 83.246 83.311 83.366 83.643 84.136 83.921 84.976 84.823 86.061 84.706 83.686 83.753 83.843 83.911 83.943 84.051 84.128 85.903 87.331 86.706 84.561 84.261 83.958 84.016 84.041 84.118 84.173 84.221 84.331 84.473 84.496 84.496 84.546 84.563 84.636 84.746 86.058 86.286 84.716 84.591 84.656 84.651 84.653 84.681 84.693 84.726 84.723 84.733 84.753 84.763 84.753 84.741 84.723 84.708 84.718 84.668 84.643 84.708 85.951 87.971 87.943 87.853 88.498 88.711 88.803 88.716 88.686 88.646 87.603 85.713 84.901 84.891 84.798
30.576 31.963 28.977 27.277 26.907 26.804 26.333 -9999 -9999 -9999 -9999 -9999 25.923 25.941 25.889 25.968 25.958 25.848 25.94 25.931 -9999 -9999 -9999 -9999 29.044 27.343 28.674 29.486 29.693 29.688 29.706 30.057 30.153 30.221 30.429 30.508 30.474 30.749 30.762 30.81 30.898 30.958 31.103 30.97 31.085 31.523 31.068 31.06 31.135 31.23 31.388 31.878 33.74 35.273 35.87 35.74 35.99 35.055 33.263 32.625 32.805 32.883 32.948 33.1 33.428 33.755 34.118 34.54 35.055 35.305 35.373 35.413 35.47 35.593 35.645 35.708 35.755 35.89 35.955 36.028 36.195 36.325 36.44 36.648 36.818 36.98 37.098 37.258 37.413 37.643 37.878 38.195 38.515 38.713 38.905 39.123 39.385 39.715 39.953 40.335 40.54 42.668 42.14 43.938 42.448 42.558 42.745 42.925 43.118 43.348 43.48 43.613 43.87 44.153 44.43 44.723 45.003 45.273 45.58 45.808 46.02 46.345 47.25 47.298 47.098 48.058 47.528 47.523 48.503 47.893 47.673 47.75 47.833 47.995 48.54 49.05 50.2 51.065 50.643 50.898 51.16 51.893 52.493 51.718 51.895 52.078 52.16 52.36 53.635 53.09 53.363 54.623 54.38 54.055 54.113 54.285 54.845 55.14 55.343 55.635 57.458 58.978 56.885 56.79 57.22 59.823 61.338 58.97 58.765 58.805 59.085 59.31 59.373 59.445 59.62 59.648 59.77 60.13 60.255 60.675 61.208 62.718 61.67 63.63 63.325 65.963 63.398 65.228 64.478 64.448 64.55 64.418 64.553 64.81 65.08 65.47 66.088 66.54 67.045 67.613 68.085 68.62 69.18 69.56 69.79 70.025 70.183 70.655 71.198 72.198 72.718 72.795 72.705 72.725 72.63 72.683 72.658 72.835 73.185 73.75 74.443 74.87 74.865 74.645 74.61 74.608 74.535 74.66 74.773 74.875 75.173 75.445 75.833 75.993 76.095 76.135 76.248 76.328 76.428 76.528 76.633 76.75 76.848 76.933 77.003 77.053 77.088 77.143 77.2 77.265 77.365 77.473 77.578 77.663 77.768 77.843 77.92 78.068 78.378 78.41 78.733 79.088 79.39 79.54 79.595 79.645 79.648 79.623 79.653 79.745 79.835 79.94 80.033 80.11 80.218 80.338 80.473 80.608 80.703 80.803 80.928 81 81.125 81.258 81.388 81.525 81.57 81.543 81.633 81.703 81.751 81.873 81.916 81.953 82.018 82.056 82.078 82.101 82.103 82.101 82.058 81.946 81.908 81.833 81.836 81.843 81.678 81.496 81.368 81.296 81.301 81.298 81.346 81.401 81.263 81.276 81.078 80.958 80.903 80.956 81.236 80.926 80.808 80.826 80.898 80.921 82.341 82.248 81.156 81.151 81.098 81.108 81.023 81.076 81.108 81.001 81.053 81.898 81.633 81.941 88.696 91.191 84.356 81.583 81.688 82.376 82.206 82.163 82.258 82.236 82.233 82.378 82.618 82.508 82.611 82.741 82.778 82.698 82.903 82.971 82.851 82.883 83.521 83.801 83.813 84.251 83.381 83.288 83.323 83.386 83.596 83.628 83.711 83.861 83.956 84.286 86.673 87.133 85.156 84.083 83.988 83.968 84.041 84.566 84.173 85.038 85.068 84.521 84.658 84.668 84.283 84.156 84.146 84.196 84.256 84.378 84.508 84.528 84.543 84.588 84.653 84.696 85.661 86.361 85.791 84.648 84.658 84.711 84.678 84.718 84.686 84.796 84.766 84.781 84.801 84.833 84.828 84.826 84.816 84.773 84.761 84.741 84.703 84.711 84.766 85.776 87.961 87.978 86.226 87.376 88.691 88.703 88.741 88.788 90.243 88.768 88.646 86.361 85.253 84.986
31.292 29.621 29.23 28.247 27.814 28.354 26.323 -9999 -9999 -9999 -9999 27.338 25.965 25.912 25.903 25.965 25.928 25.865 25.938 -9999 -9999 -9999 -9999 -9999 25.978 26.414 28.491 29.53 29.597 29.725 29.849 30.005 30.065 30.18 30.34 30.521 30.639 30.562 30.71 30.808 30.87 30.995 30.95 30.998 31.118 35.928 35.978 33.268 31.228 31.24 31.315 31.495 31.658 33.055 34.643 35.945 37.73 37.245 36.493 33.56 32.985 33.07 33.185 33.408 33.785 34.158 34.525 34.953 35.265 35.39 35.48 35.48 35.515 35.63 35.745 35.818 35.885 35.978 36.095 36.208 36.34 36.45 36.613 36.828 37.05 37.17 37.308 37.51 37.703 37.868 38.095 38.375 38.653 39.033 39.238 39.428 39.655 39.948 40.26 40.553 40.94 41.528 43.495 42.308 42.503 42.653 42.803 42.958 43.07 43.225 43.415 43.653 43.9 44.258 44.615 44.963 45.238 45.503 45.858 46.073 46.148 46.333 47.28 46.913 47.485 48.208 47.983 47.79 48.09 48.103 48.19 48.268 48.295 48.588 49.613 49.533 50.128 50.64 50.985 51.233 51.735 51.71 51.818 51.973 52.853 52.245 52.293 52.54 52.923 53.21 53.625 54.438 54.928 54.518 54.37 54.505 54.853 55.255 55.408 55.643 55.885 56.02 56.425 58.11 59.155 58.888 59.123 58.688 58.903 59.088 59.398 59.578 59.678 59.74 59.723 59.76 59.92 60.08 60.238 60.738 61.303 61.518 62.19 62.313 62.555 64.118 63.568 63.613 63.92 64.303 64.443 64.473 64.655 64.953 65.303 65.78 66.245 66.948 67.32 67.88 68.465 69.005 69.433 69.703 69.943 70.205 70.323 71.068 72.048 72.695 72.77 72.738 72.643 72.653 72.655 72.61 72.68 73.05 74.783 74.3 74.815 74.888 74.685 74.595 74.625 74.518 74.558 74.693 74.813 75.053 75.473 75.708 75.938 76.055 76.108 76.193 76.303 76.405 76.525 76.628 76.73 76.838 76.93 76.983 77.055 77.095 77.12 77.195 77.248 77.308 77.425 77.543 77.623 77.718 77.833 77.918 78.025 78.12 78.503 78.435 78.733 79.068 79.333 79.51 79.548 79.585 79.613 79.645 79.723 79.828 79.948 80.045 80.153 80.24 80.338 80.443 80.568 80.898 81.13 80.853 80.928 81.008 81.093 81.145 81.655 81.458 81.595 81.558 81.623 81.695 81.743 81.831 81.886 81.961 82.036 82.061 82.071 82.156 82.206 82.321 82.121 82.038 81.953 81.906 81.853 81.746 81.633 81.551 81.446 81.356 81.331 81.346 81.376 81.381 81.258 81.171 81.091 80.988 80.951 80.911 80.873 80.878 80.978 81.011 80.958 81.016 81.981 81.988 81.358 81.411 81.303 81.251 81.156 81.176 81.968 81.768 81.183 81.961 81.656 82.226 87.176 89.881 84.416 81.743 81.851 82.786 82.351 82.263 82.463 82.401 82.358 82.508 82.561 82.578 82.651 83.026 82.663 82.733 82.871 83.041 82.913 82.936 83.953 83.808 83.873 84.353 83.301 83.346 83.383 83.441 83.591 83.656 83.718 83.828 83.956 84.868 87.371 88.098 88.121 88.638 85.901 84.206 84.151 85.313 84.266 84.471 84.301 84.361 84.463 84.631 84.751 85.001 85.016 84.568 84.386 84.406 84.506 84.548 84.566 84.608 84.716 85.393 88.043 87.861 84.738 84.673 84.711 84.713 84.691 84.723 84.816 84.843 84.818 84.823 84.856 84.846 84.873 84.911 84.881 84.826 84.836 84.786 84.753 84.816 84.843 84.891 86.051 86.356 86.266 88.666 88.701 88.753 88.786 91.681 95.226 95.016 89.511 88.651 91.958 92.656
32.771 31.492 29.623 28.619 28.658 29.72 28.496 -9999 -9999 -9999 29.018 27.608 25.848 25.879 25.83 25.909 25.898 25.905 25.963 -9999 25.818 25.801 -9999 25.848 25.885 26.589 28.421 29.338 29.647 29.789 30.005 30.097 30.218 30.176 30.299 30.428 30.592 30.559 30.64 30.838 30.948 30.95 30.943 31.088 31.445 37.553 38.74 36.535 31.35 31.318 31.325 31.435 31.578 31.865 32.228 34.938 36.963 37.52 37.47 36.89 35.195 33.363 33.428 33.758 34.175 34.553 34.91 35.273 35.405 35.498 35.573 35.6 35.628 35.688 35.825 35.933 36.008 36.08 36.208 36.38 36.433 36.6 36.778 36.975 37.19 37.388 37.498 37.66 37.91 38.11 38.293 38.535 38.76 39.013 39.468 39.735 39.978 40.268 40.45 40.76 41.188 41.775 42.153 42.32 42.433 42.595 42.655 42.8 42.968 43.15 43.39 43.685 44.093 44.548 45.003 45.265 45.495 46.253 46.413 46.988 47.27 46.815 47.123 47.378 47.978 48.02 48.063 48.18 48.41 48.708 49.273 48.92 49.053 51.07 49.855 50.618 50.45 50.778 51.07 51.453 51.675 52.203 52.24 52.358 52.693 52.563 52.588 52.695 53.03 54.778 54.685 54.633 55.22 55.34 54.753 54.788 55.045 55.553 55.613 55.725 55.913 56.318 57.023 58.855 61.12 59.82 58.95 58.975 59.118 59.398 59.878 59.87 59.84 59.94 59.943 59.973 60.053 60.178 60.373 60.7 62.358 62.98 64.96 64.64 63.895 63.865 63.525 63.705 63.978 64.365 64.578 64.668 64.92 65.235 65.625 66.138 66.645 67.213 67.663 68.218 68.788 69.355 69.683 69.843 70.013 70.21 70.778 71.765 72.568 72.808 72.703 72.643 72.613 72.595 72.603 72.643 72.863 73.463 75.285 75.375 74.91 74.735 74.58 74.593 74.553 74.54 74.62 74.693 74.925 75.185 76.408 76.05 76.08 76.065 76.135 76.22 76.335 76.445 76.573 76.688 76.788 76.895 76.995 77.035 77.12 77.16 77.178 77.238 77.3 77.393 77.49 77.595 77.675 77.773 77.89 77.973 78.075 78.188 78.578 78.533 78.743 79.023 79.225 79.39 79.458 79.558 79.648 79.713 79.8 79.915 80.04 80.143 80.228 80.32 80.398 80.58 80.57 80.698 81.153 80.82 80.9 81.023 81.87 84.02 84.198 81.803 81.603 81.61 81.575 81.658 81.691 81.786 81.858 81.933 82.021 82.186 82.636 82.723 82.331 83.173 83.908 83.596 82.973 82.316 81.908 81.828 81.731 81.641 81.508 81.406 81.383 81.403 81.426 81.426 81.346 81.251 81.206 81.308 81.151 81.038 80.988 81.138 82.348 82.671 83.393 82.133 83.006 81.831 82.553 82.248 81.421 81.398 81.301 81.323 81.676 81.518 81.431 82.246 82.163 81.633 81.808 82.466 82.098 82.031 82.136 82.498 82.301 82.758 82.688 82.581 82.518 82.636 82.876 82.643 82.723 83.146 82.796 82.816 82.926 82.898 82.966 83.038 83.158 83.338 83.271 83.271 83.338 83.373 83.433 83.581 83.681 83.696 83.798 83.856 84.028 84.063 84.271 84.388 84.706 85.958 85.713 85.826 84.861 84.281 84.293 84.736 84.328 84.383 84.461 84.493 84.536 84.706 84.996 85.383 85.113 85.121 84.723 84.616 84.643 84.666 84.708 86.026 88.156 86.258 84.688 84.671 84.706 84.748 84.736 84.776 84.876 84.826 84.831 84.886 84.921 84.941 84.933 84.951 84.946 84.936 84.891 84.861 84.833 84.863 84.881 84.841 84.851 84.881 87.766 88.666 88.743 88.433 89.241 94.433 95.243 95.221 95.216 93.316 94.746 95.256
33.572 31.758 29.954 28.973 29.062 30.946 29.976 26.404 -9999 27.978 29.555 28.499 25.842 25.855 25.914 25.922 25.919 25.843 25.87 25.903 25.865 25.888 -9999 25.863 25.945 26.162 28.353 29.407 29.776 30 30.109 30.235 30.33 30.273 30.358 30.391 30.451 30.539 30.624 30.8 30.988 30.93 30.92 31.083 33.108 37.615 38.735 36.343 31.498 31.43 31.398 31.378 31.62 31.885 32.163 32.538 34.04 35.815 37.255 37.7 34.478 33.555 33.905 34.093 34.585 34.99 35.343 35.53 35.598 35.67 35.693 35.735 35.763 35.8 35.92 36.063 36.185 36.238 36.295 36.44 36.58 36.738 36.923 37.113 37.36 37.583 37.825 37.933 38.088 38.308 38.48 38.685 38.91 39.16 39.44 39.943 40.543 40.63 40.753 40.995 41.253 41.695 42.048 42.175 42.203 42.39 42.563 42.728 42.938 43.155 43.398 43.853 44.263 44.875 46.593 45.665 45.718 46.3 46.643 47.333 47.095 47.685 47.635 47.865 48.333 48.3 48.36 48.518 48.65 49.16 49.973 49.56 49.693 49.883 50.078 50.325 50.715 52.335 51.24 51.945 52.053 52.225 53.148 52.94 52.953 53.038 53.03 53.305 53.343 53.923 54.388 54.738 55.345 55.69 55.135 55.063 55.23 55.705 55.753 55.95 57.323 58.31 58.038 57.43 59.835 60.03 59.038 59.248 59.428 59.85 59.948 60.058 60.128 60.23 60.24 60.28 60.413 60.428 60.42 60.768 61.418 61.938 62.673 63.48 63.425 63.775 63.448 63.753 64.04 64.415 64.825 64.943 66.228 65.925 65.948 66.528 67.563 67.495 68.07 68.555 69.068 69.46 69.748 69.963 70.098 70.453 71.393 72.333 72.683 72.725 72.633 72.613 72.595 72.575 72.578 72.715 73.188 73.908 75.38 74.95 74.753 74.613 74.575 74.568 74.545 74.585 74.673 75.143 75.205 75.475 75.813 76.018 75.99 76.03 76.148 76.253 76.363 76.468 76.605 76.71 76.805 76.923 77.043 77.103 77.178 77.21 77.243 77.31 77.37 77.465 77.575 77.67 77.75 77.848 77.94 78.025 78.135 78.265 78.583 78.608 78.813 79.043 79.2 79.355 79.473 79.58 79.72 79.805 79.885 79.988 80.075 80.18 80.295 80.363 80.483 80.623 80.573 80.628 80.673 80.75 81.095 82.348 83.728 84.808 85.03 83.563 81.658 81.668 82.075 82.725 81.641 81.721 81.823 81.953 82.326 83.811 83.763 83.081 82.338 83.378 82.513 82.396 82.883 83.918 82.128 82.031 81.961 81.798 81.558 81.428 81.443 81.446 81.483 81.603 81.693 81.698 82.151 82.881 81.818 81.786 81.931 81.981 83.873 83.943 85.721 82.088 82.198 81.976 81.638 81.701 81.716 81.621 81.543 81.516 81.728 81.621 81.668 82.388 82.011 81.903 82.028 82.153 82.148 82.268 82.353 82.783 82.471 83.363 84.053 82.773 82.666 82.696 82.981 82.696 82.766 82.956 82.886 82.913 82.988 83.043 83.068 83.103 83.228 83.348 83.393 83.398 83.451 83.528 83.546 83.548 83.701 83.783 83.833 83.866 84.146 84.041 84.046 84.183 84.356 85.041 88.263 88.006 85.743 85.193 84.798 84.728 84.476 84.423 84.441 84.498 84.568 84.618 84.708 84.851 84.983 84.941 84.756 84.716 84.758 84.743 84.748 86.483 87.348 85.398 85.268 84.768 84.731 84.758 84.743 84.886 84.883 84.881 84.936 84.976 85.041 85.106 85.203 85.148 85.076 84.978 84.938 84.916 84.868 84.851 84.841 84.871 84.906 87.016 88.661 88.683 88.708 87.668 90.698 95.273 95.256 95.228 95.236 95.251 95.256 95.253
32.505 29.666 30.337 29.101 29.258 30.459 30.771 27.955 28.54 29.485 28.957 26.978 25.915 25.892 25.942 25.906 25.892 25.895 25.885 25.94 25.943 -9999 -9999 25.874 25.95 26.769 28.641 29.389 29.877 30.1 30.192 30.222 30.293 30.31 30.322 30.467 30.476 30.533 30.662 30.765 30.975 30.898 30.94 31.005 33.2 37.81 38.688 35.498 31.545 31.515 31.478 31.425 31.8 32.03 32.218 32.373 32.548 32.743 35.49 35.753 33.678 33.693 34.01 34.51 35.47 35.918 36.853 37.03 36.12 35.81 35.82 35.845 35.873 35.895 35.983 36.088 36.315 36.425 36.473 36.558 36.72 36.888 37.108 37.323 37.513 37.783 38.008 38.213 38.36 38.458 38.685 38.853 39.003 39.25 39.54 40.315 41.238 41.275 41.38 41.375 41.638 41.848 41.953 42.08 42.188 42.378 42.56 42.748 43.013 43.33 43.625 43.98 44.518 45.245 46.023 45.935 46.068 46.428 46.678 47.34 47.758 48.133 48 48.303 48.538 48.638 48.725 48.86 49.068 49.65 50.04 50.288 50.278 50.415 50.483 50.828 52.708 51.915 51.633 52.445 52.29 52.52 52.735 53.168 53.28 53.298 53.368 53.52 53.695 54.07 54.378 54.845 55.363 55.878 55.44 55.313 55.438 55.695 56.043 56.305 58.095 57.06 57.338 57.425 58.65 60.83 59.255 59.455 59.738 60.07 60.193 60.323 60.598 60.773 60.62 60.615 60.708 60.715 60.673 60.998 61.625 61.968 62.343 62.718 63.038 63.353 63.605 63.908 64.193 64.6 64.995 65.22 66.128 66.195 66.253 66.745 67.33 67.753 68.368 68.925 69.373 69.628 69.87 70.053 70.25 70.98 72.048 72.61 72.645 72.6 72.58 72.568 72.535 72.585 72.623 72.99 73.608 74.305 74.778 74.828 74.63 74.588 74.535 74.51 74.525 74.615 74.753 74.978 75.318 75.663 75.853 75.94 75.975 76.06 76.185 76.3 76.43 76.52 76.648 76.75 76.843 76.965 77.098 77.158 77.268 77.293 77.308 77.34 77.43 77.5 77.608 77.713 77.823 77.898 78.015 78.115 78.203 78.34 78.565 78.768 78.903 79.1 79.253 79.42 79.558 79.678 79.768 79.865 79.97 80.045 80.108 80.163 80.67 80.803 80.46 80.543 80.623 80.67 81.25 81.623 83.383 84.783 85.048 84.865 84.473 83.77 81.38 81.625 81.88 81.615 81.598 81.748 81.916 82.093 83.416 83.103 82.543 82.281 82.293 83.021 83.356 82.278 82.278 83.458 82.538 82.198 82.096 81.921 81.601 81.456 81.441 81.468 81.531 81.728 81.808 82.471 86.688 89.493 89.053 85.903 82.116 82.001 81.973 82.808 81.973 81.888 81.883 81.796 81.768 81.878 81.918 81.846 81.836 81.821 82.951 83.428 82.206 82.453 82.123 82.176 82.263 82.521 82.593 82.583 82.573 83.958 82.606 83.088 83.411 83.126 82.858 82.823 82.983 82.781 82.813 83.541 83.028 83.063 83.071 83.103 83.156 83.221 83.311 83.543 83.913 83.793 83.598 84.838 86.031 83.736 83.793 83.853 83.856 85.106 85.978 84.223 84.078 84.098 84.246 84.706 85.811 87.413 88.048 86.058 86.503 86.173 85.226 84.638 84.466 84.623 84.596 84.651 84.703 84.761 84.806 84.796 84.818 84.816 85.381 85.251 85.506 87.713 89.781 88.243 87.406 85.766 84.968 84.756 84.821 84.921 84.881 84.928 84.968 85.078 85.231 85.286 85.311 85.313 85.281 85.166 85.018 84.981 84.938 84.888 84.843 84.823 85.156 88.378 88.683 88.778 88.693 88.783 91.658 94.261 95.288 95.278 95.263 95.286 95.258 95.268
31.528 29.826 30.895 29.941 29.053 28.646 30.864 29.08 28.288 30.59 29.452 26.481 25.917 25.93 25.897 25.848 25.93 25.955 25.863 25.88 25.878 -9999 -9999 -9999 25.953 26.925 28.618 29.41 29.642 29.857 30.084 30.153 30.306 30.345 30.352 30.498 30.489 30.498 30.631 30.77 30.94 30.915 30.913 30.92 33.595 37.938 38.625 35.663 31.545 31.56 31.523 31.52 31.878 32.21 32.37 32.498 32.69 32.888 33.078 33.403 33.69 33.915 34.308 34.865 36.035 39.56 39.01 38.368 36.863 35.92 35.938 35.953 35.975 36.043 36.135 36.22 36.335 36.495 36.608 36.72 36.825 37.018 37.23 37.458 37.69 38.028 38.183 38.358 38.565 38.735 38.965 39.058 39.203 39.385 39.718 40.793 41.555 41.65 42.278 41.733 41.84 41.943 42.068 42.17 42.27 42.558 43.173 43.133 43.205 43.593 44.19 44.908 45.048 45.398 45.99 46.208 46.188 46.3 46.77 47.265 47.615 47.948 48.285 48.648 48.855 48.938 49.09 49.248 49.588 50.195 50.75 50.478 50.483 50.608 50.695 50.963 52.563 51.413 52.38 52.015 52.47 52.593 53.663 53.35 53.743 54.318 54.64 54.213 54.828 54.97 54.725 55.078 55.81 56.093 55.748 55.553 55.615 55.925 56.433 56.798 60.455 58.203 57.603 58.513 59.078 60.08 59.595 59.693 60.005 60.235 60.418 60.625 60.78 60.805 60.963 60.983 61.055 61.078 61.113 61.315 61.67 62.023 62.605 62.835 63.238 63.59 63.878 64.175 64.485 64.843 65.243 65.76 67.588 66.295 66.625 67.1 67.59 68.105 68.673 69.423 70.1 69.785 70.028 70.235 70.63 71.72 72.428 72.625 72.585 72.56 72.545 72.555 72.565 72.63 72.883 73.52 74.148 74.71 74.87 74.638 74.623 74.563 74.52 74.5 74.58 74.74 74.858 75.158 75.695 75.775 75.898 75.94 76.03 76.125 76.23 76.358 76.455 76.558 76.675 76.793 76.9 76.998 77.125 77.208 77.313 77.388 77.378 77.393 77.473 77.578 77.67 77.745 77.863 77.968 78.075 78.18 78.293 78.395 78.6 78.93 78.968 79.173 79.355 79.515 79.643 79.74 79.823 79.893 79.985 80.103 80.383 80.253 80.485 80.545 80.513 80.585 81.535 83.365 83.953 84.335 84.53 84.638 84.513 83.693 82.345 81.855 81.673 81.56 81.59 81.555 81.706 82.193 82.553 82.588 82.473 82.336 82.281 82.333 82.411 83.086 83.033 82.306 82.351 82.791 83.643 82.283 82.168 81.961 81.686 81.518 81.508 81.521 81.576 81.768 81.866 82.031 88.078 89.501 89.516 88.026 82.611 82.046 82.038 83.501 82.671 82.006 82.786 83.086 82.088 82.021 82.026 82.076 82.143 83.393 83.963 82.933 82.261 82.358 82.358 82.373 83.788 84.618 83.738 82.711 82.731 83.813 82.836 83.081 83.481 83.523 83.191 82.881 83.351 83.071 82.993 83.861 83.661 83.193 83.188 83.243 83.511 83.393 83.706 83.971 85.243 84.156 83.711 85.186 85.348 83.798 83.876 83.923 83.908 85.238 85.336 84.203 84.081 84.143 84.233 84.386 85.166 84.578 86.238 84.768 84.783 86.013 85.766 87.246 85.368 85.093 84.628 84.713 84.756 84.768 84.823 84.868 84.908 84.873 84.968 85.176 85.268 86.841 90.558 88.328 87.116 85.553 86.526 85.906 84.908 84.916 84.936 85.013 85.076 85.198 85.321 85.378 85.403 85.443 85.431 85.323 85.141 85.053 85.006 84.916 84.888 84.931 86.561 88.668 88.688 88.716 88.661 86.161 85.246 89.068 92.813 95.293 95.306 95.286 95.271 95.256
29.981 30.875 33.094 30.931 29.654 29.136 29.42 28.668 29.043 29.005 29.099 26.841 25.947 25.917 25.916 25.887 25.91 26.003 25.95 25.975 25.885 -9999 -9999 25.898 26.086 27.244 28.314 29.256 29.489 29.711 30.088 30.198 30.297 30.366 30.334 30.511 30.524 30.483 30.635 30.785 30.883 30.908 30.925 30.918 33.52 38.065 38.513 34.768 31.605 31.565 31.543 31.55 31.91 32.328 32.563 32.67 32.9 33.108 33.328 33.578 33.89 34.22 34.575 34.975 37.008 39.67 39.748 39.273 36.163 36.11 36.268 36.13 36.183 36.2 36.25 36.333 36.43 36.59 36.748 36.835 37 37.198 37.37 37.605 37.793 38.095 38.398 38.523 38.768 39.055 39.288 39.36 39.505 39.79 40.323 41.318 41.618 41.698 41.69 41.748 41.865 41.98 42.155 42.323 43.065 43.38 43.785 43.498 44.505 43.79 43.868 44.938 45.695 46.115 46.145 46.365 46.28 46.678 47.028 47.445 47.68 48.148 48.575 48.94 49.14 49.298 49.49 49.668 49.858 50.09 50.288 50.423 50.563 50.615 50.81 51.113 51.358 52.343 52.09 52.558 52.633 53.29 53.155 53.483 53.995 54.485 54.74 55.118 55.77 55.88 55.815 55.773 56.103 56.315 55.973 55.785 55.855 56.115 56.765 58.78 60.293 57.603 58.08 59.01 59.078 59.535 59.78 59.973 60.168 60.443 60.703 60.89 60.975 61.065 61.245 61.313 61.418 61.43 61.475 61.605 61.763 62.13 62.605 63.058 63.455 63.728 64.12 64.438 64.753 65.12 65.443 65.8 66.105 66.53 66.97 67.445 67.915 68.428 68.965 69.435 69.693 69.94 70.185 70.468 71.598 72.258 72.613 72.658 72.563 72.55 72.553 72.575 72.588 72.82 73.418 73.91 74.608 74.843 74.728 74.535 74.588 74.503 74.485 74.578 74.705 74.828 75.07 75.395 75.783 75.888 75.935 76.03 76.095 76.185 76.31 76.418 76.528 76.633 76.723 76.828 76.933 77.01 77.15 77.273 77.41 77.495 77.52 77.478 77.52 77.623 77.723 77.83 77.925 78.03 78.123 78.24 78.328 78.428 78.653 79.108 78.983 79.223 79.41 79.56 79.688 79.753 79.828 79.973 80.36 80.338 80.435 80.225 80.383 80.498 80.603 83.24 83.89 84.273 84.575 84.435 84.093 83.675 82.873 81.788 81.198 81.348 81.715 81.58 81.578 83.23 83.066 82.561 82.483 82.376 82.396 82.413 82.361 82.826 82.833 83.028 83.461 82.471 82.443 82.938 83.833 82.376 82.226 82.013 81.723 81.566 81.558 81.561 81.626 81.816 81.906 82.323 87.356 89.536 89.546 88.096 82.418 82.101 82.123 84.263 82.371 82.026 83.753 84.518 83.208 82.196 82.458 82.426 82.303 83.681 84.646 83.446 82.361 82.573 82.508 82.531 84.231 84.973 84.071 82.743 83.203 83.338 83.003 83.468 85.623 85.556 83.361 83.171 83.938 83.291 83.756 85.551 85.528 83.358 83.466 83.566 83.788 83.746 84.536 86.096 85.686 83.953 84.101 85.493 85.043 83.936 83.966 83.993 84.221 85.973 84.621 84.086 84.171 84.661 86.318 85.738 84.788 84.778 85.166 84.401 84.461 84.576 85.418 87.573 85.356 86.343 85.031 84.756 84.831 84.853 84.836 84.908 84.953 84.973 84.993 85.026 85.076 85.651 85.891 85.198 85.146 85.428 86.431 86.161 85.308 85.031 85.011 85.088 85.153 85.288 85.416 85.468 85.481 85.811 85.613 85.283 85.201 85.093 85.048 84.958 84.976 85.771 88.663 88.673 88.683 88.686 88.286 85.251 85.293 85.276 86.443 91.366 93.521 95.136 95.293 95.246
29.533 32.043 32.242 29.974 30.804 29.47 29.179 28.247 29.84 29.52 27.535 25.998 25.91 25.913 25.88 25.876 25.895 25.95 25.933 25.925 25.878 25.948 25.928 25.941 26.405 27.456 28.657 29.011 29.53 30.986 30.725 31 31.519 30.411 30.347 30.441 30.426 30.498 30.627 30.855 30.905 30.928 30.915 30.898 33.488 38.083 38.385 34.508 31.655 31.603 31.58 31.66 32.008 32.398 32.698 32.803 33.03 33.253 33.518 33.768 34.08 34.438 34.765 35.12 35.69 37.463 38.855 37.948 37.87 37.543 36.313 36.448 36.455 36.52 36.435 36.47 36.518 36.635 36.813 36.97 37.163 37.368 37.505 37.77 38.043 38.238 38.503 38.77 39.02 39.435 39.808 39.893 40.135 40.52 41.145 41.338 41.48 41.603 41.71 41.795 41.893 42.04 42.895 43.715 42.993 43.188 43.39 43.768 43.643 44.215 44.625 45.283 46.16 46.788 46.833 46.838 46.455 46.705 47.263 47.803 48.005 48.323 48.773 49.155 49.395 49.608 49.838 50.385 50.745 50.388 50.5 50.585 50.565 50.905 50.708 51.135 51.493 52.25 52.565 54.358 52.94 54.453 53.25 53.548 54.17 54.508 54.833 55.195 55.523 56.62 56.323 56.975 57.245 56.463 56.115 56.043 56.103 56.245 56.978 59.055 60.898 58.328 60.265 59.413 59.38 59.61 59.903 60.16 60.395 60.703 61.005 61.198 61.223 61.283 61.46 61.515 61.655 61.675 61.765 61.995 62.233 63.848 62.943 63.343 63.758 64.048 64.323 64.548 64.928 65.345 65.64 66.643 67.195 67.133 67.295 67.763 68.245 68.813 69.308 69.66 69.865 70.095 70.398 71.195 72.693 72.535 72.645 72.545 72.53 72.51 72.52 72.585 72.72 73.073 73.665 74.378 74.803 74.77 74.603 74.53 74.49 74.453 74.5 74.633 74.805 74.903 75.705 75.648 75.838 75.898 75.998 76.085 76.185 76.283 76.408 76.485 76.583 76.698 76.773 76.865 76.943 77.043 77.21 77.348 77.505 77.648 77.715 77.603 77.543 77.66 77.78 77.91 77.995 78.068 78.19 78.313 78.425 78.545 78.683 79.045 79.03 79.243 79.44 79.588 79.67 79.778 80.04 80.213 80.175 80.128 80.145 80.233 80.315 80.85 83.14 84.235 84.503 84.498 84.115 83.335 82.608 81.048 81.225 81.27 82.193 82.038 81.638 82.243 82.228 83.618 83.108 83.113 82.366 82.413 82.478 82.466 82.566 82.688 82.743 83.118 83.601 82.803 82.568 82.513 82.526 82.381 82.241 82.058 81.756 81.608 81.608 81.608 81.666 81.828 81.903 82.493 87.183 89.448 89.521 87.528 83.436 82.111 82.161 82.811 82.118 82.051 82.526 83.053 82.646 82.403 83.508 83.913 82.858 83.783 84.518 82.733 82.626 83.671 84.306 82.988 82.958 86.676 85.756 83.898 83.208 83.638 85.766 83.876 84.736 84.646 83.193 83.171 83.793 83.298 83.598 85.981 85.651 83.721 83.558 83.671 83.548 83.628 84.671 86.126 85.741 83.918 84.088 84.706 84.448 83.963 84.288 84.091 84.498 84.341 84.426 84.193 84.266 86.173 86.243 85.056 84.436 85.683 84.566 84.421 84.441 84.593 84.973 84.758 85.066 85.941 85.076 85.011 85.261 85.223 85.123 84.903 84.993 85.021 85.071 85.096 85.078 85.121 85.153 85.171 85.198 85.203 85.236 85.083 85.221 85.031 85.043 85.161 85.213 85.338 85.411 85.486 85.478 85.646 85.526 85.328 85.218 85.113 85.071 85.016 85.066 85.813 87.608 88.338 88.668 88.678 86.091 85.303 85.348 85.346 85.306 85.243 85.763 92.118 94.416 95.268
29.454 30.828 29.641 29.687 31.151 29.919 29.285 29.541 30.696 31.702 29.644 26.084 25.864 25.867 25.841 25.918 25.908 25.905 25.895 25.888 -9999 -9999 25.851 25.927 26.639 28.19 27.924 28.826 30.295 32.217 31.739 31.227 31.976 30.702 30.299 30.371 30.473 30.455 30.61 30.88 30.915 30.968 30.96 30.893 33.535 38.165 38.225 34.945 31.705 31.673 31.658 31.748 32.105 32.483 32.848 32.965 33.18 33.45 33.693 33.955 34.278 34.628 35.02 35.335 35.628 35.918 36.318 37.945 40.16 39.425 38.363 36.753 36.67 37.19 36.89 36.748 36.655 36.725 36.87 37.085 37.275 37.463 37.69 37.86 38.2 38.49 38.683 38.995 39.285 39.683 40.22 40.61 40.893 41.24 41.325 41.413 41.565 41.648 41.75 41.828 42.16 42.958 43.275 42.953 43.21 43.993 44.41 43.983 44.263 45.275 45.33 45.17 46.54 46.91 47.003 46.998 46.848 46.878 46.993 47.685 48.345 48.585 49.015 49.363 49.59 49.825 53.078 54.258 55.013 54.668 54.235 54.99 53.913 52.59 50.655 51.13 51.513 51.89 53.238 52.898 52.983 53.158 53.345 53.705 54.155 55.193 55.58 55.788 55.683 58.885 59.655 58.31 57.178 56.515 56.39 56.31 56.368 56.453 57.705 58.523 60.008 58.908 59.298 59.188 59.47 59.74 60.043 60.395 60.748 61.113 61.285 61.425 61.485 61.52 61.648 61.745 61.818 61.85 62.023 62.315 62.565 63.795 64.493 63.895 63.95 64.29 64.555 64.825 65.203 65.555 65.843 66.258 67.5 67.52 67.663 68.225 68.645 69.14 69.47 69.743 69.985 70.235 70.755 71.86 72.388 72.62 72.558 72.478 72.45 72.485 72.52 72.58 72.97 73.488 74.125 74.705 74.788 74.64 74.53 74.515 74.46 74.443 74.58 74.7 75.115 75.253 75.433 75.765 75.92 75.93 76.048 76.14 76.243 76.335 76.43 76.573 76.65 76.74 76.82 76.928 77.048 77.158 77.348 77.505 77.66 77.798 77.903 77.778 77.623 77.71 77.84 77.94 78.028 78.135 78.24 78.343 78.475 78.598 78.705 78.978 79.185 79.303 79.508 79.635 79.685 79.82 80.013 80.025 80.105 80.158 80.458 80.783 82.273 84.04 84.518 84.465 84.168 83.795 82.293 81.618 80.788 80.918 81.163 81.738 81.88 81.59 83.05 83.153 82.678 82.41 82.426 83.146 82.428 82.503 82.476 82.488 82.941 82.611 82.603 82.883 85.143 85.181 82.928 82.631 82.583 82.503 82.276 82.128 81.838 81.663 81.643 81.658 81.716 81.813 81.888 82.138 87.391 89.438 89.546 87.061 82.613 82.153 82.158 82.438 85.153 86.908 86.636 87.991 88.121 88.046 88.136 88.151 87.961 87.913 88.366 88.481 88.391 88.326 88.536 88.566 88.606 88.741 88.886 88.923 87.953 84.458 87.448 86.621 86.073 86.316 86.793 87.716 88.288 86.988 87.466 88.591 88.776 87.363 88.128 84.463 85.776 87.451 88.256 88.313 88.781 87.388 86.178 84.283 83.968 84.996 86.186 84.451 86.058 86.106 84.556 84.241 84.801 87.336 84.761 84.491 84.963 85.048 84.403 84.458 84.471 84.688 84.963 84.821 84.836 85.686 87.583 87.608 85.843 85.686 85.958 85.033 85.036 85.103 85.138 85.171 85.203 85.201 85.198 85.228 85.266 85.313 85.278 85.143 85.121 85.013 85.078 85.281 85.281 86.196 85.983 85.448 85.406 85.421 85.451 85.403 85.248 85.146 85.096 85.118 85.296 85.581 85.901 86.656 87.921 87.196 85.303 85.386 85.393 85.401 85.356 85.311 85.301 85.276 86.348 93.246
29.423 30.433 30.505 30.689 29.133 29.776 31.429 33.665 37.346 36.509 35.054 27.884 25.919 25.863 25.875 25.91 25.985 25.888 25.903 25.908 -9999 25.811 25.935 26.063 26.793 29.593 29.468 29.441 29.876 32.145 30.89 31.173 31.695 30.804 30.317 30.336 30.356 30.436 30.643 30.92 30.95 30.988 31.018 30.995 34.068 38.173 38.12 34.598 31.775 31.74 31.693 31.863 32.21 32.583 32.96 33.18 33.355 33.635 33.878 34.148 34.428 34.78 35.225 35.703 35.953 36.103 36.29 39.153 41.165 42.035 41.098 38.998 37.643 37.285 37.418 37.215 37.02 36.903 36.975 37.173 37.395 37.555 37.833 38.048 38.295 38.68 38.868 39.235 39.575 40.085 40.7 41.018 41.165 41.165 41.325 41.498 41.613 41.705 41.823 41.933 42.4 43.688 43.013 43.233 43.51 43.908 44.28 44.65 45.043 45.688 45.61 45.71 46.94 47.14 47.44 47.198 47.358 47.468 47.225 47.78 48.255 48.718 49.208 49.478 49.735 49.92 53.42 55.148 55.495 55.805 55.618 55.268 54.905 52.593 50.658 51.083 51.553 52.048 52.51 53.108 53.19 53.375 53.473 53.83 54.388 54.968 56.065 56.84 56.585 57.22 59.15 58.773 56.698 56.53 56.555 56.583 56.648 56.72 57.945 58.778 59.298 58.668 58.853 59.233 59.573 60.243 62.335 62.168 61.128 62.258 61.87 61.623 61.658 61.748 61.855 61.89 61.963 62.12 62.333 62.565 62.79 63.86 63.568 63.683 64.055 64.365 64.68 65.023 65.448 65.785 66.638 68.39 67.028 67.608 68.055 68.575 69.013 69.468 69.67 69.988 70.13 70.408 71.748 72.223 72.523 72.563 72.478 72.5 72.5 72.498 72.555 72.728 73.388 74.09 74.625 74.793 74.648 74.548 74.525 74.48 74.473 74.468 74.6 74.758 74.983 75.405 75.655 75.94 75.958 76.058 76.118 76.21 76.3 76.403 76.498 76.635 76.733 76.835 76.965 77.103 77.243 77.405 77.623 77.81 77.953 78.06 78.09 77.965 77.76 77.8 77.905 78 78.075 78.188 78.328 78.42 78.508 78.64 78.77 78.948 79.165 79.31 79.58 79.743 79.815 79.903 80.008 80.098 80.81 82.173 83.178 83.738 84.038 84.113 84.193 83.645 83.043 81.06 80.755 81.198 80.98 81.175 81.638 81.543 81.813 82.068 82.28 82.425 82.293 82.345 82.451 82.496 82.423 82.453 82.483 82.583 83.453 82.853 82.761 82.996 84.781 84.246 83.898 83.953 84.463 82.681 82.331 82.166 81.886 81.718 81.726 81.711 81.753 81.853 81.976 82.421 87.418 89.406 89.583 88.158 82.738 82.173 82.171 82.631 87.183 88.871 88.903 89.088 89.096 89.153 89.231 89.541 89.243 89.203 89.231 89.331 89.461 89.683 89.483 89.471 89.433 89.551 89.766 89.808 88.871 87.453 89.561 89.508 89.608 90.033 90.033 90.071 90.103 90.076 90.088 90.126 90.181 90.211 90.116 85.086 87.806 90.473 90.416 90.413 90.328 90.278 89.566 84.051 84.001 88.276 87.633 85.686 86.631 86.651 84.738 84.458 86.586 86.731 85.026 85.506 86.158 84.436 84.456 84.558 84.538 84.923 85.236 84.931 84.826 85.748 87.986 86.351 87.803 87.693 86.788 85.476 85.071 85.158 85.203 85.233 85.261 85.258 85.308 85.328 85.311 85.346 85.348 85.271 85.231 85.136 85.121 85.236 85.301 85.613 86.443 86.548 86.058 85.711 85.443 85.421 85.271 85.203 85.121 85.223 85.581 85.568 85.823 86.078 86.181 85.466 85.391 85.438 85.428 85.406 85.431 85.428 85.401 85.346 85.296 85.681
30.075 30.671 29.855 28.733 29.301 33.337 34.315 33.42 37.467 39.568 35.644 25.795 25.815 25.833 25.873 25.942 25.93 25.859 25.963 25.978 26.004 26.228 26.369 26.375 26.91 27.42 27.625 28.476 30.333 32.159 32.676 31.4 31.661 30.828 30.358 30.308 30.362 30.441 30.723 30.963 30.99 31.038 31.018 31.02 34.485 38.218 37.998 34.125 31.81 31.793 31.768 31.985 32.355 32.74 33.178 33.39 33.515 33.783 34.043 34.31 34.53 34.943 35.505 36.018 36.163 36.263 37.775 40.538 42.005 44.115 44.64 41.408 37.43 38.373 38.21 37.703 37.525 37.415 37.395 37.378 37.503 37.67 37.92 38.225 38.478 38.75 39.035 39.533 40.048 40.508 40.673 40.688 40.878 41.253 41.418 41.585 41.753 41.855 41.965 42.035 43.075 43.008 43.275 43.545 43.828 44.16 44.483 44.848 45.28 45.523 45.868 45.88 46.605 49.203 49.94 47.51 47.378 48.163 47.85 47.475 48.05 48.718 49.303 49.603 49.85 50.003 51.805 55.133 55.485 55.81 55.633 55.27 54.918 52.608 50.725 51.195 51.7 52.093 52.753 53.713 53.243 53.525 53.748 54.205 54.64 55.023 55.6 58.105 56.403 56.295 57.148 56.73 56.705 56.685 56.765 56.9 56.933 56.995 57.728 58.178 59.343 58.605 58.985 59.663 61.23 60.778 63.863 61.535 63.133 63.885 63.153 61.73 61.828 61.903 61.975 62.04 62.208 62.343 62.545 62.715 62.94 63.23 63.643 63.943 64.23 64.545 64.89 65.27 65.713 65.958 66.315 67.94 67.39 68.12 68.398 68.875 69.19 69.613 69.858 70.068 70.328 71.005 72.018 72.523 72.575 72.493 72.458 72.455 72.453 72.618 72.773 73.078 73.683 74.315 74.785 74.71 74.52 74.485 74.458 74.365 74.463 74.58 74.683 74.89 75.115 75.345 75.74 75.925 76.04 76.12 76.203 76.273 76.373 76.488 76.608 76.728 76.853 77.018 77.19 77.34 77.513 77.693 77.886 78.021 78.073 78.146 78.136 78.101 77.901 77.866 77.956 78.063 78.158 78.253 78.366 78.498 78.578 78.693 78.818 78.921 79.241 79.376 79.631 79.888 79.966 80.008 80.073 81.861 83.338 83.678 84.031 84.076 83.751 83.366 82.391 81.521 80.696 80.788 80.883 81.268 81.141 81.331 81.653 82.053 82.148 82.033 82.096 82.278 82.356 82.413 82.473 82.631 82.503 82.476 82.528 82.636 83.763 84.096 84.041 82.726 83.816 85.873 87.478 88.648 88.788 82.771 82.353 82.228 81.958 81.788 81.761 81.786 81.806 81.943 82.011 82.378 87.211 89.396 89.833 88.183 83.306 82.166 82.191 82.816 86.956 88.598 88.591 88.701 88.738 88.733 88.731 88.693 88.653 88.631 88.786 88.808 88.748 88.776 88.758 88.731 88.708 88.806 88.913 88.883 88.046 86.771 89.956 89.828 89.863 90.291 90.221 90.218 90.413 90.196 90.176 90.113 90.158 90.071 90.066 86.381 88.326 90.463 90.523 90.581 90.606 90.651 89.843 84.031 86.611 90.843 90.461 89.923 88.773 85.841 84.348 84.386 85.043 84.991 85.753 87.191 85.428 84.481 84.546 84.583 84.818 84.663 84.703 84.741 84.893 85.618 85.153 84.993 86.123 88.283 86.473 85.958 85.111 85.123 85.348 86.908 85.366 85.313 85.338 85.393 85.426 85.446 85.396 85.338 85.283 85.161 85.178 85.266 85.371 85.523 85.466 86.978 87.476 85.591 85.526 85.378 85.278 85.263 85.246 85.418 85.728 85.828 85.948 86.328 86.438 86.056 85.493 85.491 85.478 85.488 85.511 85.531 85.498 85.473 85.428 85.353
29.624 29.034 29.47 29.097 31.245 33.445 34.13 31.804 36.905 37.751 27.638 25.79 25.911 25.93 25.868 25.879 25.898 25.9 25.894 25.942 25.981 26.867 27.419 26.936 26.955 27.267 27.408 27.55 28.467 31.023 32.63 31.998 31.075 30.391 30.364 30.312 30.359 30.493 30.725 30.923 30.995 31.048 30.99 30.995 34.983 38.385 37.928 33.968 31.9 31.855 31.87 32.148 32.513 32.913 33.373 33.585 33.693 33.905 34.17 34.373 34.693 35.168 35.868 36.205 36.265 36.625 39.883 41.27 44.27 45.058 44.325 39.413 37.45 37.903 38.025 38.41 37.993 37.795 37.828 37.84 37.828 37.878 38.043 38.36 38.62 38.9 39.258 39.755 40.42 40.455 40.585 41.305 41.398 41.318 41.615 41.835 41.948 42.045 42.153 42.428 43.11 43.153 43.493 43.775 44.068 44.42 44.828 45.163 45.463 45.69 45.73 45.983 47.123 50.023 50.568 47.565 47.375 50.57 50.703 49.215 48.033 48.773 49.365 49.698 49.945 50.08 51.378 55.145 55.478 55.808 55.625 55.275 54.928 52.618 50.733 51.43 52.185 52.06 52.493 53.353 53.593 54.51 54.1 54.545 54.853 54.995 55.418 55.68 56.1 56.313 56.663 56.715 56.808 56.95 57.045 57.165 57.218 57.26 57.433 57.913 58.375 58.815 60.723 62.62 61.913 61.208 62.435 61.648 62.238 62.55 62.383 61.893 61.938 62.01 62.138 62.353 62.443 63.275 64.22 63.028 63.213 63.513 63.89 64.208 64.535 64.825 65.348 65.625 65.915 66.12 66.54 67.068 67.693 68.173 68.745 69.14 69.475 69.823 70.065 70.253 70.743 71.69 72.258 72.58 72.48 72.483 72.433 72.38 72.525 72.615 73.268 73.785 74.09 74.72 74.725 74.548 74.503 74.465 74.395 74.413 74.53 74.665 74.818 75.155 75.328 75.57 75.868 75.993 76.085 76.205 76.263 76.338 76.453 76.573 76.703 76.865 77.095 77.293 77.475 77.645 77.796 77.926 78.011 78.126 78.108 78.158 78.176 78.173 78.013 77.931 78.031 78.148 78.238 78.326 78.411 78.551 78.638 78.736 78.871 78.998 79.213 79.536 79.611 79.928 80.293 80.131 81.951 83.663 84.051 84.133 83.768 83.396 82.406 80.903 80.961 80.721 80.781 80.941 81.031 81.223 81.668 81.953 81.971 82.066 82.051 82.011 82.053 82.273 82.371 82.423 82.526 82.953 83.703 83.183 82.643 82.993 83.521 84.741 85.541 87.701 88.788 89.078 89.383 89.568 89.603 85.086 82.431 82.256 82.006 81.893 81.868 81.866 81.868 81.938 82.061 83.131 86.708 89.348 89.656 88.243 83.323 82.161 82.211 82.418 83.278 85.323 85.398 85.828 85.626 86.308 85.801 85.093 84.633 86.346 86.751 86.373 84.048 83.801 83.866 84.873 85.478 85.501 84.461 84.208 85.328 85.131 87.976 88.058 88.611 89.211 88.533 88.048 87.796 88.641 89.071 88.483 87.511 87.476 86.293 84.011 87.523 88.338 87.986 88.806 88.966 89.033 89.458 84.443 88.781 90.671 91.056 91.056 90.831 89.911 85.558 84.696 85.068 84.753 86.101 86.851 84.826 84.588 84.583 84.768 84.828 84.716 84.748 84.756 85.451 84.923 84.983 87.956 89.028 86.076 85.416 85.488 85.641 86.133 87.001 87.088 85.528 85.343 85.371 85.426 85.458 85.501 85.426 85.378 85.331 85.228 85.251 85.333 85.398 85.523 86.103 86.103 85.581 86.371 87.328 85.748 85.348 85.306 85.336 85.456 85.696 85.771 85.593 85.718 85.958 85.651 85.548 85.538 85.553 85.588 85.601 85.613 85.611 85.591 85.596 85.548
31.95 29.429 28.618 29.441 30.409 33.302 31.973 29.796 34.585 35.617 25.94 25.823 25.895 25.906 25.807 25.93 25.848 25.961 25.893 25.888 -9999 26.291 26.752 27.174 28.684 27.638 27.475 27.152 27.569 30.393 32.56 32.004 31.03 30.38 30.408 30.37 30.454 30.565 30.78 30.955 31.003 31.05 30.955 30.995 35.188 38.44 37.96 33.448 31.963 31.923 31.96 32.263 32.673 33.085 33.535 33.71 33.868 34.063 34.31 34.54 34.863 35.5 36.218 36.303 36.348 38.59 40.68 42.353 44.395 44.973 42.59 37.315 37.51 37.615 37.625 38.055 38.265 38.095 38.243 38.115 38.188 38.305 38.363 38.545 38.855 39.163 39.645 40.075 40.2 40.428 41.385 41.803 42.163 41.825 41.845 42.03 42.155 42.255 42.348 42.515 43.073 43.278 43.643 43.965 44.225 44.62 45 45.518 45.735 45.915 45.948 46.273 47.288 50.153 50.838 50.463 47.383 50.46 50.95 49.283 48.18 48.885 49.443 49.878 50.03 50.13 51.503 55.118 55.468 55.815 55.63 55.28 54.933 53.14 50.768 51.38 52.56 52.208 52.588 53.058 53.605 53.995 54.268 54.58 54.753 55.105 55.513 56.083 57.08 56.97 56.578 56.728 56.858 58.083 58.163 57.495 57.49 57.545 57.623 57.985 58.73 59.73 61.095 60.35 60.633 62.495 61.368 61.64 61.868 61.99 62.02 62.025 62.053 62.12 62.33 62.793 62.665 64.19 64.933 63.405 63.573 63.898 64.2 64.515 64.808 65.075 66.853 66.005 66.138 66.26 66.873 67.38 68.075 68.44 68.945 69.333 69.778 70.06 70.275 70.655 71.415 72.158 72.508 72.513 72.448 72.443 72.445 72.39 72.54 72.768 73.33 73.848 74.458 74.778 74.613 74.445 74.428 74.413 74.36 74.475 74.613 74.778 74.965 75.3 75.508 75.808 75.933 76.058 76.16 76.268 76.315 76.408 76.555 76.713 76.898 77.12 77.348 77.52 77.703 77.848 77.923 77.958 77.991 78.233 78.091 78.223 78.188 78.233 78.141 78.023 78.066 78.173 78.301 78.406 78.501 78.618 78.713 78.803 78.931 79.058 79.178 79.556 79.596 79.823 79.963 81.243 83.981 84.113 83.818 83.436 82.703 80.696 80.438 80.496 80.751 81.993 81.018 81.061 81.558 81.941 81.668 81.686 82.046 81.911 81.976 82.046 82.118 82.213 82.356 82.446 82.646 84.088 85.148 84.551 82.888 83.718 83.668 82.861 84.596 89.218 89.478 89.441 89.116 88.818 88.013 83.663 82.538 82.281 82.051 81.956 81.971 81.936 81.913 81.961 82.046 82.083 84.546 86.996 83.823 83.606 82.303 82.231 82.261 82.353 82.151 82.126 82.266 82.238 82.263 82.288 82.333 82.768 82.531 82.511 82.668 82.718 82.823 83.188 82.718 82.716 82.758 82.911 82.876 82.928 82.978 83.138 83.268 83.673 83.511 83.308 83.458 83.356 83.451 83.476 84.318 83.881 83.928 83.621 83.613 83.853 83.736 83.786 83.848 84.068 84.096 84.223 85.253 85.893 87.463 88.738 89.963 91.001 91.336 91.233 90.758 89.926 87.178 85.606 86.881 87.196 86.161 84.706 84.671 85.018 84.748 84.756 84.776 84.823 85.526 84.823 84.858 88.416 90.183 85.721 85.478 85.853 86.956 85.653 86.613 87.558 85.851 85.393 85.333 85.401 85.431 85.473 85.471 85.446 85.403 85.336 85.298 85.363 85.426 85.496 85.776 85.686 85.636 85.593 85.771 85.386 85.378 85.408 85.441 85.463 85.471 85.466 85.468 85.463 85.496 85.521 85.556 85.561 85.588 85.598 85.618 85.633 85.651 85.658 85.686 85.661
32.147 29.673 28.785 29.224 30.367 32.693 31.088 28.898 30.344 30.002 28.194 25.9 25.883 25.904 25.866 25.908 25.872 25.955 25.915 25.868 26.128 26.154 26.297 27.082 29.374 28.505 27.303 27.345 27.315 27.577 28.846 30.15 30.423 30.376 30.417 30.405 30.396 30.633 30.83 30.953 31.03 31.058 30.99 31.09 35.033 38.358 37.933 34.365 32.013 32.018 32.1 32.413 32.808 33.25 33.633 33.85 34.02 34.183 34.46 34.748 35.168 35.893 36.318 36.38 36.478 38.213 40.038 43.25 45.038 43.843 38.598 37.5 37.615 37.628 37.64 37.698 37.815 38.03 38.34 38.445 38.373 38.485 38.663 38.935 39.143 39.598 39.788 39.94 40.575 41.14 41.54 41.69 41.878 42.16 42.458 42.425 42.408 42.483 42.57 42.703 43.38 43.405 43.803 44.158 44.49 45.468 45.685 45.818 45.958 46.09 46.153 46.433 47.425 50.09 50.948 49.95 47.498 50.728 50.933 49.88 48.31 49.04 49.523 49.963 50.085 50.165 51.47 55.095 55.47 55.81 55.635 55.293 54.958 53.595 50.928 51.435 52.638 52.403 53.645 53.175 53.698 54.098 54.26 54.628 54.888 55.375 55.62 56.395 57.588 57.175 56.653 56.81 57.05 59.225 59.238 57.843 57.755 57.77 57.88 58.238 60.63 59.318 59.803 60.07 60.698 61.748 61.405 61.838 62.013 62.118 62.153 62.123 62.19 62.298 62.358 62.485 62.92 64.608 63.625 64.215 64.033 64.318 64.533 64.84 65.118 65.415 65.993 66.143 66.41 66.52 67.098 67.618 68.235 68.828 69.245 69.6 70.05 70.32 70.67 71.275 71.99 72.425 72.515 72.435 72.433 72.403 72.38 72.405 72.515 73.023 73.815 74.338 74.768 74.698 74.47 74.443 74.458 74.368 74.433 74.58 74.703 74.89 75.22 75.463 75.745 75.905 76.02 76.13 76.228 76.323 76.405 76.515 76.693 76.948 77.178 77.423 77.618 77.753 77.818 77.843 77.906 77.943 77.958 78.026 78.108 78.158 78.186 78.248 78.271 78.121 78.123 78.226 78.336 78.446 78.566 78.651 78.756 78.871 78.993 79.116 79.231 79.423 79.788 79.746 79.941 80.046 83.273 83.411 82.401 81.296 80.351 80.536 80.588 80.858 80.923 80.893 81.153 81.463 82.318 82.026 81.648 81.743 81.876 82.143 81.991 82.056 82.153 82.241 82.316 82.506 82.896 83.641 84.161 85.963 87.243 88.733 86.983 82.758 83.706 88.358 88.693 88.013 86.913 84.118 83.713 82.493 82.541 82.283 82.111 82.048 82.063 82.046 82.008 82.013 82.091 82.146 82.211 82.196 82.193 82.206 82.181 82.193 82.271 82.246 82.143 82.258 82.208 82.396 82.326 82.286 82.463 82.721 82.611 82.688 82.856 82.681 82.878 83.056 82.788 82.771 83.048 83.003 82.958 82.991 83.053 83.133 83.323 83.428 83.273 83.468 83.546 83.658 83.421 83.496 83.778 83.601 83.603 83.793 84.091 83.768 83.783 83.871 83.971 84.098 84.046 84.158 84.426 84.768 84.233 84.433 85.551 89.573 90.688 91.178 91.431 91.216 90.688 90.188 88.061 85.821 84.773 84.788 84.868 84.953 84.856 84.856 84.838 85.623 85.036 84.856 84.911 85.308 84.918 84.958 85.353 85.568 85.471 85.198 85.408 86.903 89.973 86.348 87.601 87.138 85.491 85.446 85.461 85.471 85.461 85.458 85.331 85.401 85.428 85.473 85.596 85.676 85.678 85.561 85.486 85.416 85.466 85.528 85.543 85.578 85.593 85.618 85.608 85.656 85.658 85.681 85.663 85.658 85.661 85.658 85.668 85.708 85.713 85.696 85.676 85.668
