ncols 439
nrows 32
xllcorner    429042
yllcorner    542398
cellsize     2
NODATA_value -9999
87.08 87.088 86.98 86.87 86.715 87.055 86.435 86.328 86.553 86.213 86.52 87.26 87.13 86.253 86.36 91.53 94.175 93.293 88.375 86.505 86.563 86.488 86.4 86.42 86.388 87.045 86.92 86.68 86.718 87.415 88.635 91.573 91.75 88.61 86.99 87.048 86.843 86.82 87.013 87.13 87.468 87.145 87.208 86.823 86.843 86.85 86.875 86.87 86.88 86.92 87.015 87.13 87.11 87.003 87.705 91.808 93.693 94.463 93.93 89.655 87.085 87.2 87.43 90.755 91.06 93.335 93.785 94.195 94.428 94.613 94.678 94.355 93.89 93.518 92.878 90.825 91.818 93.758 93.79 91.535 87.295 87.298 87.358 88.02 87.215 87.208 87.248 87.25 87.713 87.678 87.518 88.503 91.833 94.193 91.94 87.888 88.05 92.878 94.328 92.458 87.648 87.588 87.638 87.763 87.578 88.183 88.878 88.133 87.75 87.768 87.875 88.545 91.303 94.698 95.508 93.598 88.035 88.15 88.198 88.403 88.295 88.93 90.09 92.903 95.245 96.238 96.05 95.233 92.09 89.968 88.963 88.915 88.945 89.335 89.313 89.775 95.105 96.87 94.43 89.25 89.388 89.273 89.395 89.188 89.17 89.19 89.19 89.52 89.575 91.363 96.26 97.138 95.67 89.973 90.633 90.66 90.278 90.333 90.925 92.158 91.578 90.71 90.585 91.228 90.728 90.763 90.65 90.49 90.455 90.563 91.258 93.158 96.738 97.103 95.013 92.533 90.828 91.098 90.85 90.87 90.808 90.813 90.853 90.878 91.025 91.085 91.158 91.19 91.185 91.203 91.313 91.338 91.405 91.383 91.593 91.308 91.38 91.438 91.513 91.343 91.36 91.7 91.495 91.433 91.5 91.475 91.465 91.858 91.71 91.543 91.518 91.46 91.525 91.583 91.565 91.6 91.615 91.623 91.658 91.693 91.645 91.555 92.523 92.98 92.32 92.09 91.785 91.865 92.083 91.688 91.718 91.728 91.72 91.745 91.793 91.88 91.96 91.995 91.998 92.015 92.06 92.088 92.065 92.148 92.27 92.323 92.368 92.213 92.108 91.833 96.138 98.173 98.995 99.273 98.535 98.5 98.463 98.42 98.438 98.445 98.48 98.5 98.525 98.655 99.535 98.728 97.918 97.42 97.478 97.438 97.873 98.695 98.698 98.428 98.38 98.423 98.565 98.988 98.225 97.053 95.573 94.545 92.663 91.805 91.803 91.81 91.818 92.098 91.895 92.41 93.478 93.88 95.895 94.973 94.605 94.155 96.463 98.065 97.708 97.815 97.805 98.98 98.113 96.09 98.71 97.203 96.78 100.205 100.133 100.043 100.253 100.1 100.383 100.243 99.93 99.765 99.438 99.535 99.725 99.94 100.13 100.348 100.565 100.593 100.37 100.153 99.943 99.755 99.545 99.438 98.958 94.008 91.725 91.685 91.578 91.625 91.688 91.713 91.628 91.558 91.668 91.76 91.59 91.328 91.323 91.278 91.283 91.24 91.225 91.24 91.193 91.218 91.175 91.163 91.155 91.131 91.192 91.268 91.419 91.503 91.592 91.703 91.791 91.695 91.916 92.103 91.926 91.909 92.013 92.013 91.95 91.565 91.073 90.838 90.845 90.83 90.813 90.823 90.823 90.823 90.815 90.795 90.725 90.68 90.608 90.59 90.523 90.488 90.368 90.268 90.215 90.288 90.823 90.97 90.968 90.955 89.875 92.218 97.945 98.24 98.528 98.8 99.105 99.398 99.655 99.965 100.255 100.498 100.773 101.068 101.308 101.495 101.293 101.02 100.755 100.453 100.183 99.895 99.643 99.323 99.035 98.735 98.45 98.22 97.915 91.343 87.835 87.913 87.935 88.013 88.063 91.35 95.108 95.128 95.14 93.43 90.368 91 90.323
86.713 86.648 86.598 86.563 86.528 86.64 86.695 86.345 86.57 86.488 86.605 87.62 86.815 86.165 86.41 90.35 93.903 93.465 89.923 86.54 86.56 86.695 86.423 86.46 86.395 86.773 87.378 86.668 86.7 86.788 86.89 87.858 88.805 87.028 87.333 88.158 87.235 86.875 87.183 86.95 86.893 86.98 87.073 86.925 86.84 86.84 86.893 86.91 86.923 86.9 86.935 86.988 87.123 87.29 87.213 87.025 89.348 92.94 92.175 87.088 87.13 87.673 93.358 94.185 94.453 94.583 94.703 94.235 93.83 93.435 92.53 89.925 89.54 88.148 87.163 87.355 88.378 89.678 88.435 88.558 87.323 87.54 87.685 87.54 87.193 87.213 87.223 87.328 88.168 87.45 87.363 89.64 94.04 94.79 92.133 87.47 87.88 88.468 90.753 89.14 87.533 87.603 87.65 87.628 88.083 88.163 88.13 87.833 87.76 87.788 87.893 89.738 93.975 95.705 94.888 89.515 87.985 88.025 88.068 88.26 88.358 89.003 88.43 88.995 91.558 94.545 95.548 96.015 95.715 93.993 91.618 89.478 88.868 89.318 89.188 90.61 95.385 96.473 94.1 89.203 89.265 89.373 89.445 89.193 89.223 89.185 89.2 89.54 89.558 91.678 96.363 97.12 94.355 89.908 89.93 90.265 90.39 90.365 90.665 91.065 91.31 90.748 90.89 91.83 91.293 90.653 90.59 90.623 90.895 91.585 91.7 91.135 95.985 97.195 96.545 94.128 90.85 90.898 90.878 90.858 90.828 90.868 90.828 90.933 91.035 91.08 91.125 91.16 91.233 91.438 91.368 91.24 91.35 91.365 91.558 91.3 91.358 91.348 91.433 91.413 91.705 91.85 91.525 91.398 91.41 91.463 91.478 91.655 91.915 91.508 91.858 91.683 91.543 91.553 91.545 91.633 91.663 91.705 91.653 91.665 91.678 91.685 91.8 91.765 91.705 92.088 92.473 92.18 92.188 91.733 91.743 91.735 91.743 91.79 91.843 91.935 92.053 92.108 92.06 92.033 92.075 92.085 92.105 92.17 92.243 92.33 92.39 92.293 92.15 91.885 95.46 98.103 98.928 99.38 98.57 98.508 98.453 98.563 98.428 98.448 98.765 98.698 98.93 99.33 99.608 98.788 97.97 97.463 97.483 97.455 97.783 98.638 98.795 98.91 98.925 98.668 99.033 98.968 98.298 97.218 95.608 94.293 91.875 91.813 91.81 91.818 91.85 92.675 96.213 97.22 98.705 98.66 99.308 98.965 99.268 99.605 99.235 99.02 99.09 98.655 98.535 100.508 99.738 99.915 100.168 100.275 100.093 99.88 100.11 99.863 99.835 100.045 100.258 100.175 99.968 99.758 99.44 99.5 99.698 99.903 100.11 100.313 100.528 100.583 100.368 100.188 99.958 99.783 99.563 99.37 99.215 94.725 91.823 91.74 91.628 91.663 91.71 91.703 91.688 91.62 91.72 91.873 91.778 91.378 91.38 91.333 91.323 91.265 91.255 91.28 91.263 91.255 91.193 91.155 91.14 91.153 91.157 91.307 91.575 91.747 92.009 92.477 93.023 93.176 93.317 92.797 92.124 92.089 92.318 92.38 92.095 91.603 91.06 90.855 90.845 90.853 90.84 90.803 90.848 90.825 90.78 90.765 90.698 90.64 90.575 90.528 90.485 90.47 90.358 90.26 90.293 90.365 90.763 90.935 90.995 91.033 90.103 92.87 97.948 98.22 98.503 98.8 99.063 99.38 99.643 99.925 100.183 100.49 100.738 101.023 101.318 101.503 101.325 101.045 100.74 100.46 100.2 99.93 99.6 99.308 99.053 98.768 98.468 98.2 97.933 92.863 87.905 87.958 87.98 88.013 88.065 89.92 95.088 95.115 95.113 93 89.093 88.538 88.243
86.518 86.448 86.555 86.513 86.483 86.585 86.438 86.423 86.413 86.618 86.58 86.27 86.133 86.348 86.635 88.688 93.58 94.13 91.205 86.968 86.723 86.575 86.423 86.438 86.473 86.463 87.488 86.903 86.995 87.04 87.755 87.49 87.07 87.165 87.485 87.22 88.128 87.11 87.048 87.063 87.288 87.49 87.18 87.013 86.958 86.983 86.885 86.883 86.945 86.893 86.933 86.913 87.048 87.108 87.303 87.068 87.01 88.513 88.12 87.075 87.228 87.253 92.865 94.495 93.968 93.17 92.04 90.128 89.595 87.57 87.49 87.508 87.218 87.263 87.068 87.518 88.11 87.39 87.195 87.243 87.35 87.513 87.398 87.178 87.218 87.22 87.238 87.475 87.378 87.575 87.43 91.753 94.57 94.095 90.088 87.455 87.603 87.628 88.053 87.568 87.65 87.715 87.675 87.61 88.835 88.638 88.535 87.913 87.798 87.84 87.92 91.82 94.96 95.418 92.245 88.588 88.07 88.533 88.133 88.208 88.678 88.635 88.39 88.768 89.215 89.738 91.93 94.953 95.803 96.355 95.525 93.075 90.45 89.02 89.405 91.235 95.45 96.485 92.938 89.26 89.23 89.323 89.315 89.205 89.245 89.213 89.285 89.79 89.585 93.205 96.46 97.038 93.125 89.97 89.898 90.24 90.8 90.97 90.305 90.603 91.138 90.805 90.873 91.125 91.143 90.765 90.73 91.195 91.053 90.78 90.803 90.82 93.165 96.763 96.31 93.703 90.895 90.913 91.023 90.835 90.818 90.828 90.858 90.973 91.03 91.043 91.118 91.373 91.348 91.31 91.71 91.325 91.888 91.33 91.543 91.99 91.538 91.345 91.38 91.403 91.708 91.523 91.53 91.458 91.44 91.463 91.448 91.53 91.575 91.603 91.708 92.058 91.558 91.803 91.948 91.698 91.648 91.668 91.703 91.735 91.713 91.745 91.763 91.798 91.848 91.96 91.845 91.86 91.943 91.813 91.79 91.768 91.773 91.853 91.92 92.02 92.078 92.158 92.148 92.12 92.163 92.145 92.153 92.165 92.24 92.315 92.408 92.415 92.663 92.05 95.433 98 98.855 99.513 99.493 99.328 99.533 99.553 99.428 99.523 99.513 99.41 99.328 99.288 99.223 98.838 98.043 97.46 97.46 97.455 97.725 98.443 98.628 98.538 98.445 98.393 98.303 98.238 98.055 97.443 95.68 95.11 91.87 91.825 91.835 91.84 91.85 92.258 97.365 98.538 98.46 98.583 98.885 99.003 99.203 99.358 99.175 98.955 98.768 98.538 98.34 99.49 99.72 99.893 100.08 100.253 100.105 99.903 99.873 100.033 99.815 100.035 100.245 100.178 99.983 99.79 99.485 99.485 99.7 99.883 100.088 100.295 100.488 100.565 100.38 100.198 99.988 99.798 99.61 99.34 99.568 95.258 91.853 91.793 91.715 91.768 91.763 91.813 91.795 91.65 91.768 91.945 91.86 91.458 91.415 91.405 91.388 91.328 91.315 91.343 91.273 91.27 91.225 91.168 91.205 91.233 91.2 91.154 91.314 91.641 91.806 92.609 93.552 93.728 93.767 93.7 93.309 93.257 93.279 92.805 92.225 91.678 91.17 90.905 90.943 90.855 90.81 90.828 90.843 90.805 90.718 90.66 90.645 90.578 90.505 90.448 90.46 90.438 90.328 90.265 90.273 90.388 90.793 90.963 91.033 91.075 90.35 90.045 97.898 98.205 98.49 98.77 99.055 99.33 99.615 99.87 100.148 100.46 100.71 101.013 101.31 101.513 101.325 101.043 100.778 100.498 100.24 99.975 99.685 99.383 99.105 98.815 98.538 98.265 97.97 94.423 87.94 87.965 87.998 88.028 88.063 88.13 92.883 92.283 91.72 88.243 88.513 88.053 88.05
86.545 86.5 86.595 86.58 86.555 86.705 86.525 86.503 86.473 86.718 86.965 87.04 86.768 87.815 87.395 86.43 93.183 94.705 92.328 87.663 86.655 86.595 86.458 86.475 86.475 86.463 87.858 87.388 87.918 88.16 88.738 88.713 91.883 90.908 88.893 87.543 87.333 87.06 87.025 86.948 87.675 87.36 87.188 86.995 87 86.993 87.073 86.933 86.903 86.888 86.925 86.955 87.883 87.705 87.218 87.33 87.035 87.535 87.07 87.18 87.188 87.128 91.358 94.33 93.705 89.225 87.185 87.085 87.083 88 88.205 87.51 87.138 87.2 87.25 87.158 87.505 87.19 87.238 87.32 87.335 87.36 87.163 87.2 87.205 87.205 87.295 87.638 87.493 87.48 87.598 88.533 92.728 91.428 87.72 87.498 87.513 87.528 87.485 87.68 88.363 87.725 87.73 87.73 87.738 88.1 87.903 87.88 87.863 87.908 89.265 94.07 95.488 94.458 89.02 88.173 88.22 88.453 88.545 88.388 88.33 88.328 88.493 88.995 88.698 88.588 88.838 90.055 93.44 95.31 95.92 95.893 94.898 92.48 90.5 90.588 95.548 96.41 94.518 89.25 89.405 89.363 89.473 89.203 89.23 89.213 89.23 89.788 89.663 92.623 96.585 97.148 94.583 90.115 90.563 90.22 90.663 90.378 90.433 90.71 91.408 91.513 91.278 91.293 91.858 92.185 90.975 91.353 91.195 91.638 90.82 90.803 92.003 93.12 92.043 91.675 92.255 91.265 90.868 90.828 90.85 90.86 90.89 90.96 90.99 91.068 91.148 91.243 91.275 91.243 94.225 95.448 94.09 91.29 91.79 92.52 95.518 95.838 92.078 91.793 91.605 91.528 91.553 91.488 91.568 91.543 91.558 91.538 91.528 91.563 91.57 91.62 91.645 91.96 92.703 92.09 91.69 91.66 91.703 91.725 91.738 91.733 91.783 91.815 91.855 91.86 91.873 91.893 91.86 91.868 91.875 91.888 91.975 92.008 92.03 92.055 92.11 92.16 92.158 92.153 92.158 92.21 92.225 92.2 92.22 92.288 92.383 92.405 92.433 92.053 94.508 97.938 98.778 99.148 99.088 99.03 98.958 98.89 98.84 98.753 98.693 98.6 98.51 98.45 98.398 98.3 98.02 97.505 97.608 97.473 97.648 97.855 97.643 97.685 97.615 97.01 97.113 97.24 96.798 97.01 95.748 94.86 91.865 91.828 91.838 91.85 91.873 91.978 97.28 98.238 98.365 98.553 98.763 98.968 99.205 99.353 99.203 98.99 98.76 98.56 98.355 98.953 99.673 99.875 100.08 100.243 100.13 99.91 99.708 100.188 99.805 100.018 100.24 100.23 100.038 99.81 99.505 99.485 99.693 99.87 100.075 100.278 100.465 100.588 100.383 100.195 99.995 99.798 99.6 99.38 99.663 95.673 92.123 91.87 91.76 91.77 91.833 91.895 91.835 91.718 91.823 91.94 91.93 91.528 91.465 91.448 91.42 91.375 91.358 91.338 91.3 91.28 91.308 91.295 91.476 91.467 91.23 91.204 91.254 91.638 91.745 92.409 93.65 93.818 93.832 93.804 93.787 93.642 93.335 92.843 92.258 91.665 91.225 90.96 90.9 90.828 90.785 90.8 90.808 90.738 90.68 90.608 90.575 90.523 90.438 90.39 90.343 90.333 90.298 90.293 90.308 90.423 90.753 90.978 91.05 91.085 90.51 91.213 97.703 98.175 98.433 98.695 99.015 99.31 99.593 99.858 100.148 100.448 100.713 101.058 101.36 101.503 101.353 101.05 100.788 100.513 100.243 99.975 99.743 99.39 99.128 98.813 98.54 98.268 97.983 95.488 88.003 87.978 88.028 88.053 88.088 88.738 89.1 88.32 88.725 89.175 89.63 90.413 90.833
86.6 86.608 86.645 86.713 86.728 86.67 86.633 86.72 86.505 86.53 86.893 86.648 86.505 86.255 86.253 86.348 90.74 94.16 93.395 87.84 86.563 86.688 86.513 86.48 86.518 86.53 88.313 88.413 88.875 87.733 88.698 90.548 93.775 94.34 93.488 91.32 88.015 87.053 87.015 87.073 87.245 87.415 87.14 87.015 87.028 87.015 87.61 87.198 87.128 86.923 86.93 86.95 86.983 87.573 87.568 87.12 87.015 87.103 87.078 87.255 87.188 87.145 89.223 92.01 91.623 88.355 87.06 87.255 87.128 87.853 87.515 87.485 87.368 87.138 87.215 87.115 87.21 87.175 87.268 87.27 87.565 87.25 87.168 87.193 87.173 87.22 87.415 87.695 87.585 87.825 87.635 87.93 88.373 88.325 87.618 87.553 87.485 87.495 87.47 87.668 88.07 87.988 87.973 88.13 87.755 87.788 87.895 87.923 87.903 88.373 92.903 95.17 95.16 91.66 87.985 88.09 88.183 88.433 88.545 88.548 89.37 88.855 88.713 88.773 88.555 88.58 88.633 88.658 89.49 91.043 94.758 95.853 95.988 94.328 89.535 91.38 95.685 96.453 95.335 94.598 89.88 90.46 89.575 89.27 89.295 89.258 89.283 89.75 89.67 93.363 96.658 96.935 92.76 90.133 90.145 90.085 90.273 91.955 92.36 91.81 91.553 91.603 91.593 91.055 91.43 91.875 91.148 91.253 91.555 91.36 90.888 90.915 90.833 90.925 91.06 90.99 91.25 90.975 90.863 90.815 90.855 90.835 90.92 91.178 91.125 91.12 91.175 91.16 91.38 92.21 95.768 97.118 96.978 91.665 91.74 94.065 97.298 97.1 94.78 93.053 91.393 91.418 91.475 91.543 91.455 91.55 91.608 91.613 91.898 91.985 91.618 91.595 91.638 91.66 91.735 91.743 91.99 92.84 92.25 91.725 91.77 91.783 91.83 91.885 91.92 91.905 91.92 91.93 91.943 91.973 92.003 92.033 92.108 92.148 92.16 92.15 92.193 92.158 92.163 92.17 92.16 92.18 92.208 92.2 92.208 92.245 92.333 92.383 92.308 92.04 91.835 97.87 98.38 98.34 98.268 98.208 98.145 98.038 97.993 97.92 97.845 97.768 97.698 97.58 96.9 97.293 96.768 96.758 97.295 97.435 96.025 95.138 93.655 93.623 93.475 92.708 92.735 95.79 95.63 95.65 95.57 94.575 91.89 91.863 91.85 91.863 91.895 91.908 96.753 98.338 98.338 98.54 98.74 98.955 99.17 99.378 99.238 99.03 98.813 98.595 98.373 98.843 99.673 99.848 100.045 100.233 100.123 99.92 99.705 99.848 99.803 100.003 100.218 100.25 100.035 99.838 99.573 99.45 99.653 99.84 100.06 100.248 100.443 100.59 100.42 100.198 100.005 99.81 99.62 99.42 99.478 96.115 92.248 91.903 91.805 91.785 91.915 91.94 91.908 91.795 91.905 91.983 91.963 91.633 91.495 91.483 91.453 91.42 91.413 91.38 91.34 91.358 91.398 91.418 91.673 91.478 91.174 91.233 91.35 91.762 92.261 92.917 93.637 93.875 93.789 93.695 93.773 93.647 93.331 92.978 92.335 91.49 90.993 90.86 90.84 90.793 90.75 90.74 90.723 90.668 90.558 90.473 90.465 90.438 90.335 90.32 90.278 90.283 90.235 90.253 90.345 90.503 90.748 90.988 91.048 91.098 89.81 91.183 97.9 98.17 98.43 98.71 98.985 99.29 99.55 99.848 100.135 100.415 100.665 100.965 101.245 101.52 101.405 101.1 100.838 100.568 100.295 99.99 99.708 99.448 99.113 98.825 98.535 98.27 98.015 96.268 88.553 88 88.053 88.075 88.088 89.945 91.835 91.83 91.865 91.888 91.905 91.923 91.945
86.688 86.708 86.755 87.038 86.913 86.773 86.755 86.69 86.56 86.55 86.798 86.38 86.22 86.245 86.23 86.38 91.175 93.978 93.783 89.815 86.54 86.603 86.635 86.473 86.518 86.53 87.378 88.558 88.773 87.335 87.06 89.663 93.525 94.365 94.523 93.885 91.275 89.218 87.628 87.37 87.418 87.428 87.143 87.023 87.04 87.25 87.93 87.335 87.395 87.345 87 86.95 86.925 86.985 87.003 87.438 87.723 87 87.178 87.235 87.223 87.203 87.373 87.083 87.05 87.063 87.093 87.248 87.093 87.075 87.073 87.125 87.42 87.135 87.123 87.08 87.263 87.22 87.308 87.32 87.488 87.158 87.175 87.183 87.17 87.31 87.295 87.713 88.738 88.868 89.703 90.825 92.058 88.348 88.445 88.06 87.678 87.498 87.595 88.398 88.53 88.168 89.028 88.723 87.903 87.723 87.828 87.95 87.915 91.12 94.648 95.49 93.23 88.73 88.023 88.13 88.225 88.483 88.283 89.04 89.365 88.38 88.36 88.515 88.558 88.623 88.693 88.928 89.385 90.15 94.87 95.92 95.255 91.508 89.598 92.665 95.735 96.543 96.383 93.895 89.263 89.52 89.433 89.26 89.275 89.258 89.278 89.733 89.71 93.388 96.71 96.833 92.405 89.845 90.27 90.115 90.183 91.435 91.44 92.033 90.898 90.615 90.668 90.643 90.72 90.763 90.775 94.923 97.258 97.968 97.28 95.513 92.19 90.865 90.898 90.928 90.97 90.988 90.865 90.828 90.833 90.878 91.065 91.373 91.123 91.113 92.213 93.525 94.168 96.915 97.515 97.553 97.043 93.86 91.48 94.655 97.288 97.765 97.663 97.065 95.015 94.853 93.275 91.65 91.458 91.488 91.543 91.59 91.693 92 92.108 91.963 91.695 91.678 91.663 91.705 91.75 91.893 91.943 91.733 91.708 91.765 91.828 91.845 91.855 91.903 91.993 91.978 91.985 92.003 92.045 92.043 92.103 92.135 92.203 92.203 92.235 92.278 92.235 92.22 92.153 92.183 92.21 92.213 92.21 92.198 92.283 92.355 92.32 92.098 92.588 97.153 96.76 97.31 97.038 95.6 96.54 95.475 94.218 95.045 93.975 93.23 93.388 92.878 92.37 92.87 92.045 91.885 92.395 92.503 91.775 91.78 91.765 91.76 91.773 91.778 91.763 94.805 95.893 95.883 95.875 95.623 93.268 92.258 95.048 94.598 92.625 91.895 95.858 98.458 98.315 98.528 98.745 98.958 99.17 99.365 99.243 99.035 98.808 98.618 98.398 98.545 99.92 99.828 100.048 100.248 100.158 99.935 99.738 99.768 99.768 99.985 100.198 100.25 100.043 99.848 99.543 99.425 99.635 99.838 100.028 100.23 100.428 100.605 100.425 100.218 100.018 99.823 99.648 99.44 99.773 96.195 92.188 91.94 91.868 91.853 91.95 91.975 91.958 91.868 91.95 92.043 92.02 91.733 91.573 91.558 91.465 91.415 91.438 91.42 91.39 91.43 91.438 91.44 91.424 91.306 91.206 91.204 91.33 91.459 91.843 92.35 93.134 93.467 92.996 92.681 92.767 92.512 92.251 92.02 91.633 91.013 90.865 90.823 90.783 90.735 90.72 90.665 90.595 90.665 90.61 90.435 90.395 90.318 90.265 90.253 90.245 90.213 90.168 90.203 90.443 90.598 90.74 90.935 91.073 91.088 89.003 88.145 97.84 98.13 98.358 98.683 98.96 99.255 99.525 99.82 100.085 100.335 100.648 100.918 101.193 101.485 101.453 101.203 100.84 100.56 100.3 100.018 99.74 99.478 99.2 98.868 98.578 98.34 98.028 97.028 89.305 88.535 88.163 88.08 88.385 90.748 92.028 92.053 92.068 92.088 92.118 92.128 92.163
86.735 86.768 86.775 86.84 86.843 86.78 86.79 86.78 86.68 86.638 86.658 86.465 86.238 86.235 86.24 86.355 88.478 93.605 94.168 91.698 87.06 86.678 86.763 86.513 86.515 86.568 86.64 88.515 87.998 87.053 87.173 87.708 89.483 91.538 93.868 94.883 94.56 93.738 92.648 88.803 87.46 87.905 87.42 87.11 87.153 87.705 87.763 87.075 87.05 87.17 87.458 87.718 87.208 86.99 86.98 86.998 87 87.003 87.01 87.188 87.183 87.248 87.178 87.133 87.128 87.1 87.07 87.143 87.128 87.093 87.123 87.193 87.628 87.395 87.31 87.265 87.228 87.253 87.473 87.56 87.16 87.123 87.173 87.168 87.225 87.545 87.413 87.43 87.525 92.478 94.368 94.705 94.375 88.775 87.633 87.83 88.158 88.048 87.863 88.428 88.54 87.973 88.885 88.17 87.698 87.763 87.858 87.918 88.818 93.715 95.42 94.933 90.4 88.1 88.063 88.103 88.278 88.245 88.223 88.285 88.43 88.418 88.43 88.418 88.598 88.75 88.848 88.988 88.945 90.095 93.048 94.603 93.173 89.028 89.488 91.103 94.835 95.188 94.985 94.475 89.205 89.255 89.425 89.218 89.28 89.373 89.318 89.685 89.673 93.938 96.83 96.733 92.435 90.143 90.058 90.388 90.628 90.358 90.658 91.423 91.168 90.953 90.583 90.75 90.663 90.918 90.77 94.465 97.283 98.265 97.49 95.658 90.863 90.865 91.803 91.198 90.948 91.005 90.818 90.818 90.935 90.943 91.07 91.2 91.193 92.438 96.38 96.865 97.443 97.84 97.215 96.655 94.56 91.633 92.085 92.098 94.11 95.763 97.525 97.868 97.508 97.113 96.105 92.218 94.048 92.36 91.475 91.573 92.108 91.643 91.763 91.725 91.84 91.825 91.7 91.72 91.76 91.765 91.828 91.833 91.833 91.978 93.045 92.943 91.863 91.898 91.918 91.99 92.028 92 92.065 92.083 92.083 92.108 92.165 92.233 92.268 92.27 92.27 92.248 92.19 92.158 92.175 92.2 92.21 92.203 92.245 92.305 92.3 92.185 92.073 92.558 92.515 92.985 92.468 91.955 92.318 91.988 91.878 91.798 91.803 91.743 91.703 91.68 91.678 91.7 91.688 91.69 91.698 91.71 91.718 91.725 91.723 91.715 91.75 91.755 91.765 95.79 97.615 97.63 97.708 97.828 97.893 97.713 98.068 97.903 94.428 92.058 94.96 98.998 98.303 98.518 98.735 98.928 99.143 99.353 99.253 99.053 98.818 98.63 98.425 98.328 99.928 99.813 100.015 100.218 100.18 99.968 99.77 99.985 99.76 99.97 100.188 100.27 100.063 99.858 99.623 99.423 99.64 99.843 100.023 100.225 100.435 100.603 100.445 100.26 100.06 99.863 99.665 99.453 99.878 96.648 92.275 92.005 91.95 91.943 91.988 92.063 92.025 91.945 91.97 92.055 92.135 91.845 91.84 91.823 91.588 91.42 91.415 91.448 91.45 91.48 91.503 91.492 91.442 91.377 91.287 91.203 91.28 91.402 91.482 91.554 91.926 92.092 91.669 91.334 91.386 91.293 91.27 91.245 91.043 90.928 90.86 90.828 90.793 90.72 90.748 90.685 90.57 90.503 90.433 90.41 90.365 90.33 90.308 90.265 90.215 90.193 90.155 90.168 90.418 90.593 90.663 90.918 91.103 91.093 89.498 88.098 97.865 98.1 98.33 98.635 98.93 99.2 99.505 99.79 100.098 100.335 100.628 100.883 101.218 101.463 101.453 101.228 100.873 100.613 100.318 100.048 99.773 99.465 99.178 98.918 98.618 98.323 98.108 97.733 90.208 88.963 89.285 88.175 88.653 91.555 92.25 92.27 92.275 92.288 92.315 92.33 92.37
88.35 86.825 86.828 86.97 86.835 86.828 86.91 86.89 86.808 86.725 86.733 86.83 87.285 86.633 86.343 86.535 86.723 93.193 94.575 92.213 87.555 86.63 86.678 86.548 86.545 86.575 86.573 88.21 87.515 87.038 87.038 87.17 87.073 87.185 89.625 93.073 94.153 94.628 94.24 91.91 89.648 87.763 87.105 87.16 88.005 87.898 87.06 87.123 87.188 87.248 87.815 87.48 87.765 87.363 86.973 86.958 86.988 87.05 87.005 87.003 87.053 87.183 87.26 87.195 87.208 87.163 87.135 87.143 87.168 87.323 87.34 87.138 87.128 87.175 87.19 87.17 87.19 87.183 87.18 87.19 87.168 87.193 87.173 87.155 87.36 87.423 87.383 87.41 87.63 92.628 94.995 95.023 94.83 90.67 87.7 87.713 87.88 88.05 88.435 88.005 88.438 89.143 89.825 89.355 87.75 87.798 87.868 87.93 92.248 94.9 95.4 92.653 88.158 88.035 88.123 88.26 88.26 88.395 88.4 88.435 88.308 88.403 88.443 88.478 88.513 88.61 88.885 88.67 88.705 89.095 89.188 90.013 89.458 88.928 89.21 89.668 89.758 89.97 89.388 89.848 89.248 89.408 89.703 89.248 89.345 90.09 89.41 89.763 89.698 93.4 97.163 96.795 92.763 90.213 90.13 90.5 90.95 90.42 91.675 91.625 92.363 91.355 90.573 90.578 91.133 91.068 90.795 91.828 96.723 97.753 97.41 96.1 92.218 90.843 91.103 90.955 90.955 90.878 90.81 90.808 92.03 91.323 91.053 91.113 91.168 91.35 96.315 97.45 97.353 96.205 94.58 93.688 93.19 91.708 92.768 92.42 91.4 91.555 94.708 96.02 97.365 97.438 95.048 94.065 97.195 96.388 93.055 91.69 91.888 91.553 91.578 91.803 91.67 91.695 91.785 91.908 91.988 91.843 91.82 91.84 91.888 91.92 92.063 92.328 91.95 91.97 92.563 92.023 91.965 91.99 92.053 92.108 92.13 92.093 92.155 92.183 92.188 92.225 92.3 92.293 92.263 92.245 92.245 92.25 92.248 92.23 92.26 92.275 92.303 92.265 92.215 92.203 92.128 92.155 92.133 92.053 92 91.988 91.953 91.855 91.785 91.743 91.683 91.635 91.633 91.613 91.565 91.595 91.603 91.633 91.605 91.628 91.63 91.688 91.718 91.73 92.018 96.07 98.215 98.453 98.52 98.613 98.73 98.755 98.763 98.043 95.118 91.87 94.453 98.998 98.283 98.5 98.715 98.905 99.113 99.338 99.275 99.073 98.853 98.65 98.435 98.433 100.125 99.803 99.988 100.213 100.205 99.99 99.808 100.15 99.753 99.965 100.18 100.308 100.085 99.888 99.675 99.313 99.613 99.808 100.01 100.223 100.415 100.605 100.495 100.273 100.068 99.865 99.675 99.48 100.008 96.988 92.31 92.07 91.99 91.99 92.058 92.128 92.075 91.995 91.95 92.07 92.19 92.06 92.13 92.045 91.77 91.533 91.495 91.513 91.52 91.528 91.565 91.511 91.475 91.377 91.326 91.242 91.222 91.289 91.25 91.227 91.22 91.235 91.07 90.994 91.014 90.983 90.967 90.94 90.925 90.923 90.898 90.865 90.883 90.818 90.735 90.68 90.645 90.568 90.518 90.485 90.453 90.405 90.37 90.328 90.295 90.23 90.21 90.173 90.363 90.535 90.698 90.888 91.11 91.18 90.018 88.145 97.738 98.093 98.348 98.64 98.92 99.175 99.455 99.768 100.058 100.365 100.613 100.923 101.165 101.465 101.475 101.193 100.91 100.63 100.348 100.07 99.793 99.495 99.22 98.915 98.648 98.37 98.098 97.805 92.78 92.055 90.18 88.158 88.303 90.935 92.453 92.553 92.87 92.91 92.453 92.843 93.315
88.15 87.425 87.598 87.54 87.978 86.87 86.893 86.878 86.933 86.775 86.778 86.785 88.083 87.153 86.52 86.538 86.668 91.898 94.228 93.22 88.385 86.81 86.858 86.575 86.573 86.59 86.6 87.895 87.793 87.048 87.105 87.065 87.185 87.565 88.168 89.185 91.21 93.135 94.623 94.69 94.038 93.203 90.053 87.93 87.938 88.493 87.173 87.475 88.118 87.563 87.405 87.063 87.005 87.078 87.75 87.048 86.96 86.995 86.988 87.053 87.063 87.033 87.125 87.243 87.22 87.223 87.218 87.245 87.54 87.25 87.183 87.208 87.218 87.263 87.308 87.298 87.258 87.263 87.25 87.268 87.185 87.208 87.153 87.21 87.463 87.323 87.385 87.413 87.7 91.578 93.483 94.338 95.07 91.645 88.215 89.34 87.86 88.103 88.33 89.223 88.52 88.908 90.303 89.178 88.35 87.935 87.915 88.745 93.363 95.05 95.428 94.795 91.723 88.07 88.143 88.248 88.243 88.358 88.495 88.37 88.415 88.55 88.418 88.51 88.545 88.905 89.65 88.958 88.885 89.153 89.328 88.813 88.858 88.985 89.123 89.163 89.213 89.228 89.265 89.42 89.575 89.578 89.4 89.28 89.3 89.728 89.385 89.408 89.51 94.283 97.028 96.535 93.81 91.233 90.085 90.928 90.885 90.27 91.623 91.443 90.69 90.973 90.688 90.573 90.71 90.8 90.78 92.478 96.533 97.695 97.348 95.928 92.603 90.828 90.863 90.915 90.945 90.835 90.795 91.048 92.61 91.113 91.003 91.078 91.105 91.168 92.618 96.868 94.325 91.553 91.39 91.835 91.683 91.705 93.035 92.375 91.518 91.643 91.728 91.518 94.33 96.048 91.96 95.483 97.973 97.845 97.533 96.728 93.568 95.18 92.463 91.63 91.71 91.68 91.848 91.93 91.853 91.96 91.983 91.938 91.88 91.895 91.938 91.973 91.983 92.02 92.57 92.655 93.13 92.268 91.973 92.053 92.118 92.143 92.12 92.203 92.23 92.21 92.24 92.283 92.34 92.335 92.365 92.37 92.353 92.34 92.33 92.303 92.323 92.288 92.305 92.265 92.255 92.238 92.215 92.155 92.053 91.985 91.96 91.905 91.838 91.753 91.67 91.595 91.56 91.548 91.525 91.553 91.563 91.575 91.575 91.568 91.588 91.628 91.683 91.725 91.783 96.06 98.283 99.005 98.743 98.765 98.878 98.725 98.993 98.145 95.735 91.89 93.318 99.038 98.268 98.48 98.703 98.875 99.158 99.343 99.308 99.255 98.928 98.883 99.225 98.358 100.06 99.785 99.998 100.19 100.215 100.028 99.83 100.073 99.733 99.945 100.145 100.283 100.108 99.913 99.713 99.36 99.608 99.798 99.983 100.2 100.403 100.598 100.485 100.293 100.103 99.903 99.71 99.498 100.063 97.715 92.945 92.138 92.045 92.033 92.09 92.163 92.115 92.038 91.985 92.08 92.138 92.178 92.14 92.053 91.9 91.763 91.663 91.633 91.573 91.58 91.563 91.504 91.449 91.395 91.365 91.298 91.249 91.233 91.188 91.175 91.151 91.113 91.093 91.066 91.052 91.022 91.003 91.005 90.988 90.963 90.96 90.945 90.918 90.87 90.833 90.78 90.733 90.67 90.623 90.59 90.513 90.498 90.43 90.398 90.365 90.345 90.3 90.26 90.453 90.578 90.75 90.91 91.093 91.155 90.385 88.92 94.8 98.073 98.323 98.605 98.913 99.153 99.48 99.75 99.998 100.313 100.558 100.855 101.168 101.41 101.48 101.21 100.92 100.635 100.378 100.095 99.823 99.51 99.233 98.988 98.683 98.405 98.138 97.853 92.405 90.838 89.178 92.97 93.658 94.645 95.01 95.375 95.463 95.49 95.36 95.535 95.545
89.995 90.018 89.813 87.9 88.78 87.17 86.93 86.895 86.835 86.778 86.788 86.773 87.59 87.485 86.513 86.538 86.92 89.66 94.01 93.768 90.1 87.428 86.838 86.68 86.593 86.625 86.588 87.13 88.27 87.433 87.493 87.903 87.903 87.878 88.675 88.028 87.325 88.59 92.178 93.86 94.638 94.473 93.365 90.918 88.663 87.425 87.235 87.225 87.835 90.24 92.088 89.678 87.56 87.033 87.07 87.08 87.428 87.04 87.01 87.023 87.085 87.08 87.055 87.045 87.1 87.35 87.228 87.298 87.22 87.728 87.778 87.238 87.25 87.25 87.21 87.235 87.23 87.25 87.238 87.208 87.223 87.19 87.185 87.34 87.355 87.36 87.36 87.433 87.513 87.875 88.333 93.653 95.248 93.953 88.718 89.278 89.42 88.435 87.918 88.34 88.198 88.21 88.025 89.06 88.698 88.018 88.06 88.258 89.158 93.413 94.773 94.03 89.65 88.283 88.49 90.04 88.56 88.395 88.423 88.483 88.653 88.498 88.965 88.553 88.54 88.598 88.763 88.823 88.705 88.878 88.885 88.878 88.878 89.088 89.13 89.215 89.255 89.27 89.345 89.7 90.15 89.538 89.358 89.285 89.335 89.355 89.5 89.508 89.86 95.203 97.063 96.45 93.458 90.325 89.933 90.01 90.15 90.223 92.76 91.69 91.493 91.073 90.683 91.025 90.61 90.7 90.783 92.978 96.62 97.733 97.303 95.648 92.115 90.793 90.84 90.898 90.973 90.825 90.835 90.82 91.215 91.238 91.098 93.625 93 91.32 91.245 92.018 91.23 91.295 91.375 91.723 91.83 91.82 92.163 91.858 91.595 92.308 92.075 91.38 91.375 91.383 92.03 96.748 97.52 97.845 98.23 98.19 97.83 97.448 97.133 96.328 94.435 91.698 91.883 91.793 91.808 91.818 91.875 91.905 92.41 92.298 91.988 91.983 91.998 92.01 92.05 92.1 92.493 92.588 92.038 92.038 92.055 92.055 92.138 92.153 92.27 92.27 92.253 92.293 92.215 92.278 92.333 92.368 92.35 92.39 92.408 92.408 92.42 92.425 92.415 92.36 92.61 92.498 92.27 92.165 92.085 92.03 91.945 91.94 91.863 91.793 91.71 91.675 91.59 91.595 91.613 91.57 91.588 91.605 91.563 91.57 91.603 91.603 91.67 91.725 91.82 95.013 98.19 98.975 98.575 98.475 98.44 98.453 99.035 98.21 96.265 91.883 92.983 98.583 98.383 99.175 98.955 98.67 98.98 98.618 98.015 97.883 97.643 96.473 96.008 96.67 98.845 99.77 99.98 100.168 100.23 100.04 99.86 99.953 99.715 99.905 100.12 100.275 100.118 99.918 99.72 99.393 99.568 99.795 99.998 100.183 100.39 100.588 100.53 100.323 100.125 99.93 99.735 99.53 99.518 98.235 93.263 92.2 92.125 92.103 92.168 92.205 92.238 92.078 92.043 92.09 92.095 92.07 92.015 91.968 91.953 91.91 91.783 91.73 91.675 91.645 91.562 91.539 91.5 91.456 91.414 91.359 91.305 91.278 91.234 91.213 91.198 91.177 91.159 91.124 91.087 91.058 91.053 91.023 91.025 91.013 90.995 91.005 90.96 90.938 90.905 90.853 90.82 90.765 90.725 90.76 90.79 90.695 90.593 90.553 90.53 90.518 90.643 90.57 90.555 90.63 90.76 90.94 91.113 91.145 90.7 88.12 93.743 98.023 98.288 98.548 98.835 99.125 99.42 99.703 99.97 100.28 100.58 100.838 101.25 101.44 101.49 101.248 100.935 100.683 100.42 100.138 99.833 99.558 99.278 99.005 98.74 98.425 98.163 97.885 93.953 88.113 88.28 95.545 95.59 95.613 95.645 95.658 95.665 95.69 95.72 95.738 95.77
90.025 90.03 89.688 88.323 88.45 87.818 87.113 87.05 86.985 86.875 86.8 86.808 87.48 87.193 86.565 86.603 86.723 87.97 93.59 94.193 90.993 87.065 86.785 86.825 86.608 86.628 86.63 86.625 87.823 87.058 87.028 89.505 89.798 88.835 87.335 87.325 87.463 87.395 87.865 90.873 92.545 94.153 95.07 94.493 93.47 91.533 87.945 87.555 88.995 93.633 94.51 94.055 93.175 88.973 87.035 87.033 87.138 87.833 87.585 87.165 87.048 87.08 87.09 87.103 87.043 87.105 87.208 87.248 87.623 87.995 87.31 87.218 87.175 87.193 87.138 87.16 87.18 87.165 87.183 87.21 87.248 87.235 87.225 87.27 87.708 87.65 87.563 87.475 87.635 88.36 88.64 92.928 95.203 94.153 89.63 88.108 88.135 87.873 87.778 87.878 88.31 88.173 88.485 90.59 89.905 88.148 88.085 88.108 88.043 88.295 91.208 91.13 88.175 88.253 89.75 94.08 89.185 88.47 88.473 88.54 88.443 88.45 88.525 88.505 88.84 88.735 88.648 88.723 88.778 88.785 88.82 88.935 89.028 89.158 89.228 89.205 89.235 89.263 89.325 89.435 89.48 89.395 89.32 89.28 89.463 90.32 89.93 89.81 89.84 94.703 96.895 96.308 91.628 89.76 89.82 89.905 89.995 90.128 92.675 92.403 92.59 92.473 91.83 92.285 91.733 90.975 91.005 91.755 93.993 93.143 93.85 92.828 91.33 90.833 90.875 91.058 90.843 90.795 90.828 90.79 90.943 91.155 92.015 95.728 97.028 95.923 92.318 91.268 91.275 91.478 91.418 91.948 91.898 91.865 91.91 91.51 91.713 92.215 92.215 91.47 91.448 91.545 91.448 92.038 93.08 94.895 96.31 97.368 97.85 98.07 97.99 97.748 97.42 96.298 93.045 91.87 93.918 91.853 91.778 91.855 91.995 92.068 92.08 92.15 92.223 92.115 92.088 92.11 92.138 92.185 92.123 92.108 92.103 92.11 92.105 92.148 92.2 92.255 92.225 92.275 92.255 92.288 92.283 92.313 92.3 92.388 92.44 92.458 92.458 92.435 92.43 92.435 92.653 92.44 92.3 92.223 92.163 92.14 92.073 92.01 91.948 91.875 91.828 91.725 91.705 91.715 91.72 91.695 91.698 91.668 91.61 91.61 91.605 91.62 91.633 91.718 91.81 94.65 98.125 98.893 98.615 98.465 98.443 98.423 99.13 98.253 96.643 92.183 92.85 96.355 95.608 94.788 96.283 94.205 93.36 94.863 93.053 92.568 93.593 91.975 91.9 93.183 96.295 99.748 99.963 100.153 100.248 100.043 99.845 100.053 99.78 99.905 100.098 100.28 100.148 99.93 99.723 99.38 99.555 99.758 99.978 100.168 100.373 100.588 100.545 100.345 100.145 99.945 99.748 99.545 99.658 98.42 93.563 92.28 92.198 92.135 92.218 92.298 92.295 92.175 92.123 92.178 92.153 92.105 92.038 91.97 92.16 92.005 91.82 91.77 91.743 91.7 91.655 91.595 91.542 91.498 91.461 91.428 91.396 91.366 91.323 91.305 91.284 91.244 91.26 91.23 91.232 91.197 91.17 91.178 91.15 91.11 91.078 91.08 91.003 90.97 91.013 90.96 90.943 90.935 90.955 90.985 91.068 91.005 90.86 90.733 90.783 90.838 90.928 90.928 90.903 90.828 90.825 90.963 91.15 91.198 91.04 88.383 93.673 98.01 98.258 98.568 98.85 99.12 99.405 99.705 100.005 100.265 100.543 100.815 101.098 101.393 101.518 101.275 101.013 100.755 100.438 100.16 99.895 99.588 99.29 98.99 98.715 98.445 98.188 97.908 94.48 88.315 88.255 93.928 95.805 95.833 95.848 95.863 95.885 95.905 95.923 95.963 95.96
90.058 90.043 89.673 88.138 87.42 87.03 87.02 87.195 87.263 86.998 86.93 86.865 86.918 86.728 86.583 86.613 86.783 86.928 91.695 94.47 92.77 87.495 86.865 86.928 86.643 86.648 86.648 86.638 86.775 86.853 86.92 91.378 92.71 92.38 89.148 86.965 87.488 87.243 87.133 87.163 87.465 91.488 93.59 94.45 94.645 93.963 91.138 87.48 88.713 91.405 93.655 94.183 92.688 87.643 87.025 86.98 86.975 87.143 88.495 87.623 87.15 87.083 87.095 87.093 87.105 87.123 87.138 87.238 87.323 87.223 87.188 87.128 87.155 87.133 87.175 87.185 87.18 87.145 87.153 87.218 87.22 87.24 87.348 87.308 87.283 87.905 88.395 88.555 88.66 88.928 88.408 91.588 94.798 94.815 90.963 88.083 87.82 87.958 87.828 87.84 88.07 88.083 88.64 90.093 89.72 88.7 88.083 88.158 88.21 88.17 88.273 88.08 88.173 88.563 93.203 95.365 94.235 90.56 88.753 88.55 88.413 88.495 89.508 88.805 88.888 89.065 89.025 88.708 88.77 88.823 88.853 88.9 88.933 89.298 89.188 89.195 89.208 89.253 89.31 89.483 89.393 89.31 89.28 89.303 89.39 89.843 89.865 89.61 89.705 94.603 94.733 95.583 90.108 89.693 89.768 89.85 90.025 90.61 92.708 92.075 91.888 91.238 90.565 90.67 90.84 91.625 95.225 94.91 95.47 94.253 91.64 90.908 90.98 90.903 91.068 90.955 90.77 90.81 90.758 90.81 91.01 91.115 92.17 96.353 97.503 96.848 92.16 91.275 91.7 92.498 91.568 91.573 92.24 91.745 92.018 91.48 92.125 92.083 91.505 91.57 91.568 91.688 91.548 91.465 91.42 91.438 91.763 92.608 93.918 95.795 97.188 97.828 98.033 98.07 97.71 96.105 97.043 95.128 91.948 92.76 91.875 92.003 92.083 92.145 92.363 92.603 92.378 92.185 92.16 92.183 92.193 92.223 92.26 92.255 92.228 92.183 92.213 92.208 92.21 92.283 92.303 92.375 92.395 92.353 92.343 92.343 92.375 92.403 92.455 92.475 92.493 92.518 92.513 92.465 92.375 92.318 92.328 92.3 92.188 92.105 92.02 91.965 91.92 91.853 91.838 91.855 91.783 91.775 91.76 91.735 91.713 91.68 91.685 91.688 91.655 91.7 91.775 93.835 98.038 98.838 98.545 98.463 98.425 98.423 99.135 98.38 96.99 92.505 92.133 92.148 91.97 91.963 91.963 92.105 91.983 91.955 91.923 91.933 91.933 91.908 91.888 91.9 96.195 98.99 99.945 100.14 100.255 100.068 99.883 99.958 99.745 99.888 100.09 100.275 100.175 99.95 99.763 99.388 99.528 99.745 99.948 100.143 100.345 100.558 100.57 100.365 100.165 99.963 99.76 99.578 99.383 99.135 93.948 92.335 92.26 92.183 92.255 92.318 92.31 92.245 92.2 92.223 92.228 92.175 92.113 92.048 92.038 91.97 91.888 91.938 91.81 91.745 91.736 91.682 91.616 91.655 91.648 91.63 91.611 91.627 91.615 91.667 91.671 91.683 91.691 91.667 91.673 91.568 91.425 91.39 91.305 91.24 91.228 91.21 91.178 91.23 91.253 91.253 91.46 91.415 91.248 91.35 91.44 91.37 91.058 90.993 90.993 91.14 91.25 91.115 91.03 90.99 90.97 91.04 91.188 91.308 91.255 88.693 92.808 97.99 98.278 98.548 98.803 99.09 99.375 99.663 99.963 100.218 100.533 100.77 101.068 101.338 101.533 101.303 101 100.693 100.425 100.158 99.858 99.615 99.288 99.008 98.755 98.46 98.22 97.915 91.458 88.42 88.205 92.26 96.013 96.025 96.063 96.083 96.1 96.12 96.145 96.163 96.175
90.08 90.078 90.16 89.723 88.173 86.943 87.043 87.173 87.185 87.218 87.055 86.89 86.903 86.838 86.65 87.12 86.81 86.73 91.435 94.263 93.368 90.325 86.665 86.83 86.688 86.638 86.668 86.66 87.043 86.843 86.903 92.14 94.083 93.79 89.098 86.978 87.043 87.583 87.195 87.2 87.225 89.445 91.048 92.218 93.7 93.823 89.488 87.303 87.263 87.218 90.16 92.145 88.03 87.043 87.01 86.95 87.01 87.373 87.63 87.578 87.533 87.273 87.053 87.073 87.11 87.15 87.148 87.205 87.215 87.153 87.14 87.123 87.178 87.15 87.285 87.423 87.415 87.39 87.28 87.21 87.225 87.24 87.333 87.333 87.328 87.97 88.118 87.685 87.96 88.363 88.065 89.738 94.405 95.038 91.465 87.875 88.058 88.348 88.135 88.04 88 88.393 89.733 90.263 89.38 88.375 88.325 88.413 88.31 88.228 88.255 88.218 88.29 89.923 94.113 95.48 95.903 95.49 94.535 91.023 88.45 89.393 90.688 89.53 89.118 88.673 88.803 88.75 88.818 88.8 88.855 88.93 88.968 88.99 89.045 89.365 89.195 89.305 89.405 90.425 89.325 89.295 89.255 89.31 89.325 89.333 89.603 89.868 90.083 91.083 89.77 91.125 90.38 90.49 90.678 90.61 90.833 91.16 92.348 91.733 92.073 91.205 90.635 90.733 90.778 92.683 96.655 97.773 97.333 95.698 92.398 91.583 91.398 91.503 91.568 90.863 90.763 90.82 90.808 90.848 91.305 91.275 91.903 96.55 97.433 95.045 91.368 91.465 91.5 91.94 91.915 91.855 91.498 91.6 91.618 91.465 91.713 91.82 91.59 91.833 91.945 91.62 91.588 91.523 91.528 91.523 91.54 91.548 92.605 92.113 93.043 95.945 97.115 97.683 97.95 98.115 97.925 95.95 94.183 97.388 96.618 92.23 92.07 92.095 92.093 92.14 92.14 92.198 92.25 92.365 92.285 92.23 92.26 92.27 92.293 92.308 92.303 92.223 92.233 92.23 92.268 92.293 92.32 92.343 92.323 92.385 92.398 92.393 92.43 92.453 92.52 92.5 92.493 92.445 92.415 92.42 92.59 92.955 92.3 92.163 92.095 92.085 92.028 91.99 91.968 91.933 91.903 91.875 91.85 91.86 91.808 91.733 91.75 91.715 91.678 91.715 91.803 92.538 97.993 98.795 98.62 98.478 98.445 98.435 98.883 98.44 97.343 92.968 92.493 92.075 92.04 92.048 92.025 92.053 92.033 92.008 91.995 91.97 91.958 91.933 91.925 91.915 97.88 99.725 99.925 100.123 100.258 100.1 99.89 99.77 100.073 99.848 100.06 100.263 100.175 99.978 99.78 99.443 99.535 99.735 99.94 100.13 100.335 100.538 100.59 100.37 100.18 99.983 99.768 99.585 99.358 99.413 94.535 92.403 92.338 92.188 92.32 92.365 92.37 92.3 92.223 92.283 92.26 92.243 92.263 92.59 92.643 92.378 93.38 92.945 92.108 91.845 91.82 91.846 92.034 92.112 92.165 92.212 92.25 92.282 92.355 92.411 92.432 92.402 92.206 92.126 92.116 92.003 91.843 91.61 91.498 91.53 91.513 91.513 91.353 91.238 91.505 91.65 91.733 91.873 91.545 91.713 91.665 91.52 91.18 91.128 91.058 91.06 91.18 91.065 91.13 91.045 91.125 91.13 91.23 91.33 91.278 89.023 94.12 97.98 98.253 98.478 98.785 99.063 99.313 99.648 99.925 100.21 100.478 100.745 101.03 101.31 101.533 101.45 101.15 100.748 100.468 100.185 99.918 99.643 99.338 99.055 98.768 98.495 98.195 97.96 94.13 89.31 89.09 92.433 96.223 96.26 96.278 96.288 96.295 96.323 96.35 96.37 96.388
90.053 90.075 90.1 89.98 88.118 87.07 87.203 87.303 87.163 87.255 87.095 87.143 86.95 86.97 86.77 86.658 86.63 86.705 89.743 94 93.76 90.645 87.053 86.78 86.868 86.668 86.723 86.728 86.76 86.983 86.868 91.193 93.9 94.175 91.005 87.028 87.163 88.205 87.468 87.423 87.883 89.29 87.375 87.565 89.705 91.32 87.278 87.26 87.13 87.125 87.13 87.74 87.35 87.31 87.108 87.195 87.445 87.715 87.4 87.41 87.41 87.37 87.38 87.21 87.115 87.163 87.18 87.23 87.193 87.163 87.143 87.308 87.423 87.208 87.303 87.503 87.488 87.498 87.445 87.378 87.223 87.233 87.333 87.35 87.383 87.35 87.433 87.533 88.113 87.98 88.128 88.573 94.035 95.14 92.798 88.548 88.525 87.945 87.903 87.843 88.018 88.235 89.503 90.5 88.625 88.523 88.345 88.39 88.52 88.603 88.288 88.28 88.243 88.388 89.288 92.893 94.998 95.845 95.928 95.195 92.675 89.733 89.558 90.65 89.118 88.645 88.715 88.758 88.963 89.168 88.875 88.925 89.015 89.018 89.03 89.1 89.21 89.218 89.595 89.875 89.273 89.285 89.298 89.33 89.368 89.343 89.435 90.243 90.57 91.403 95.803 95.458 93.538 90.08 91.695 89.918 89.993 90.198 91.98 91.64 92.39 91.03 90.668 90.735 90.84 92.665 96.705 97.745 97.323 95.32 91.953 90.84 90.875 90.89 91.015 90.845 90.775 90.79 90.81 90.938 91.018 91.065 93.583 97.413 97.24 93.865 91.823 91.4 91.46 91.428 91.79 91.345 91.338 91.338 91.363 91.383 91.673 91.545 91.63 91.868 91.723 91.763 91.588 91.54 91.56 91.708 91.568 91.698 93.743 92.288 91.713 91.705 92.35 93.653 95.355 96.728 97.515 94.503 95.043 98.248 98.06 97.68 95.783 92.72 94.203 92.11 92.21 92.193 92.29 92.633 92.82 92.54 92.3 92.275 92.265 92.323 92.348 92.355 92.34 92.29 92.295 92.29 92.308 92.328 92.335 92.375 92.438 92.423 92.458 92.43 92.42 92.465 92.465 92.48 92.46 92.433 92.56 92.878 92.345 92.225 92.195 92.18 92.123 92.128 92.035 92.015 92.025 91.968 92.003 91.97 91.895 91.835 91.858 91.8 91.768 91.788 91.82 92.665 97.938 98.718 98.668 98.473 98.438 98.445 98.823 98.49 97.608 93.428 91.935 92.048 92.118 92.103 92.108 92.105 92.078 92.068 92.053 92.028 91.99 91.95 91.928 91.9 96.275 99.078 99.888 100.098 100.253 100.11 99.913 99.645 100.205 99.86 100.055 100.265 100.193 100.003 99.795 99.51 99.513 99.698 99.913 100.123 100.315 100.513 100.61 100.393 100.2 99.978 99.775 99.605 99.4 99.473 95.21 92.448 92.403 92.298 92.403 92.43 92.42 92.37 92.315 92.325 92.358 92.61 93.788 95.295 94.768 93.708 94.968 93.63 92.4 91.806 91.792 91.946 92.393 92.378 92.4 92.591 92.592 92.577 92.674 92.74 92.54 92.41 92.233 92.291 92.28 92.098 91.898 91.76 91.693 91.66 91.655 91.625 91.308 91.225 91.445 91.835 91.968 92.038 91.608 91.71 91.995 91.678 91.248 91.193 91.103 91.063 91.005 91.315 91.51 91.125 91.178 91.198 91.303 91.335 91.345 89.618 92.888 97.925 98.205 98.493 98.795 99.035 99.313 99.608 99.928 100.198 100.468 100.745 101.038 101.278 101.545 101.35 101.07 100.768 100.49 100.215 99.935 99.633 99.393 99.095 98.795 98.5 98.228 98.01 94.563 88.12 89.718 94.64 96.435 96.468 96.485 96.605 96.52 96.53 96.555 96.578 96.6
90.058 90.038 90.03 90.065 88.645 86.928 87.125 87.318 87.253 87.235 87.158 87.258 86.98 87.173 86.793 86.685 86.688 86.81 88.503 93.595 94.155 90.933 86.79 87.235 87.713 86.715 86.78 86.803 86.768 86.97 86.88 88.153 93.508 94.383 91.823 87.653 87.865 87.835 88.29 88.375 89.015 88.18 87.693 87.313 87.248 87.448 88.445 88.865 87.248 87.145 87.118 87.29 87.5 88.338 88.453 87.71 87.563 87.36 87.375 87.383 87.365 87.348 87.36 87.518 87.188 87.203 87.215 87.22 87.205 87.16 87.34 87.468 87.478 87.283 87.298 87.538 87.603 87.578 87.51 87.43 87.41 87.26 87.335 87.38 87.425 87.38 87.718 87.778 87.833 87.75 87.798 88.163 92.028 95.458 94.293 89.055 87.813 87.833 87.853 87.985 90.013 90.265 90.33 89.27 88.608 88.458 88.38 88.493 88.66 88.78 88.358 88.213 88.123 88.178 88.265 88.393 91.365 93.965 95.228 95.79 95.713 94.92 91.69 89.34 91.36 90.24 88.735 88.785 89.015 89.123 88.98 89.298 88.98 89.023 89.098 89.085 89.108 89.118 89.2 89.203 89.23 89.263 89.328 89.355 89.943 89.803 89.583 89.858 89.783 92.38 96.363 96.933 93.685 91.09 95.03 89.91 89.963 90.003 91.345 91.608 90.645 90.795 90.715 90.833 90.98 93.628 97.19 98.11 97.28 95.695 91.593 90.86 90.885 90.925 90.925 90.795 90.753 90.778 90.813 91.195 90.968 93.32 95.6 97.48 96.6 92.105 91.44 91.625 91.563 91.543 91.458 91.323 91.35 91.363 91.375 91.393 91.54 91.875 91.608 91.64 92.578 92.588 91.885 91.58 91.573 91.693 91.628 91.63 92.388 91.868 91.65 91.733 91.718 91.7 91.728 91.893 92.883 92.385 97.645 98.098 98.443 98.603 98.46 97.97 97.595 96.938 95.198 93.578 92.295 92.353 92.26 92.263 92.295 92.303 92.3 92.348 92.358 92.35 92.353 92.398 92.388 92.423 92.373 92.363 92.385 92.368 92.418 92.378 92.47 92.48 92.448 92.488 92.493 92.498 92.503 92.468 92.503 92.6 92.728 92.6 92.503 92.368 92.263 92.195 92.18 92.153 92.105 92.073 92.06 92.018 91.99 92.09 92.013 91.95 92.005 91.983 91.903 92.818 97.483 98.665 98.77 98.46 98.445 98.443 98.828 98.558 97.713 93.653 91.923 92.063 92.185 92.165 92.175 92.145 92.118 92.14 92.103 92.06 92.023 91.98 91.935 91.908 95.455 98.79 99.903 100.1 100.268 100.155 99.928 99.668 99.93 99.838 100.035 100.26 100.225 100.015 99.81 99.525 99.488 99.688 99.895 100.1 100.28 100.498 100.623 100.418 100.195 100.015 99.8 99.613 99.423 99.748 95.663 92.503 92.465 92.375 92.433 92.49 92.49 92.438 92.353 92.373 92.583 93.515 95.553 96.48 95.835 94.76 95.143 94.618 92.688 91.811 91.751 91.753 91.764 91.791 91.791 92.04 92.09 92.128 92.119 92.076 92.197 92.193 92.195 92.196 92.145 92.04 91.905 91.888 91.815 91.753 91.778 91.715 91.465 91.345 91.245 91.528 91.555 91.413 91.303 91.373 91.563 91.423 91.23 91.225 91.158 91.08 91.018 91.515 91.773 91.198 91.25 91.233 91.318 91.373 91.38 89.47 92.398 97.895 98.198 98.483 98.743 99.028 99.29 99.565 99.868 100.178 100.413 100.688 100.983 101.283 101.515 101.41 101.06 100.763 100.503 100.215 99.943 99.645 99.39 99.14 98.813 98.573 98.27 98.02 95.503 88.138 90.418 95.533 96.638 96.665 96.683 96.753 96.72 96.738 96.758 96.775 96.793
90.025 90.028 90.018 90.025 87.995 86.953 87.205 87.398 87.405 87.64 87.513 87.545 87.055 87.185 87.473 87.378 86.715 86.768 88.185 93.215 94.625 92.235 87.358 86.935 87.955 86.845 86.79 86.773 86.733 87.175 87.093 87.115 92.978 94.578 93.375 88.223 87.163 87.343 87.508 87.763 88.453 88.53 88.325 87.238 87.27 88.713 88.195 88.705 87.675 88.165 88.455 88.575 87.828 87.683 87.393 87.403 87.42 87.448 87.453 87.438 87.405 87.378 87.36 87.483 87.2 87.208 87.245 87.198 87.2 87.223 87.48 87.533 87.57 87.45 87.493 87.64 87.683 87.683 87.65 87.573 87.543 87.378 87.33 87.393 87.468 87.438 87.433 87.833 87.563 87.59 88.143 88.58 91.315 94.838 94.735 89.92 87.783 87.878 87.898 88.018 90.043 90.353 90.063 88.423 88.555 88.405 88.403 88.41 89.043 89.6 88.33 88.133 88.115 88.145 88.17 88.16 88.603 89.22 92.105 94.725 95.53 96.02 95.485 94.615 94.788 94.868 92.23 88.933 89.045 89.05 88.99 89.178 89.235 89.135 89.075 89.255 89.195 89.188 89.19 89.243 89.255 89.303 89.32 89.368 89.868 89.568 89.583 89.638 89.728 91.635 96.473 96.97 93.795 89.815 89.968 89.898 89.893 89.88 91.41 91.273 90.445 90.593 90.695 90.75 91.25 96.435 97.59 98.295 97.235 94.79 90.92 90.848 90.87 90.915 90.88 90.755 90.76 90.775 90.845 91.213 90.935 95 97.013 97.478 95.46 91.178 91.278 92.373 91.84 91.478 91.37 91.378 91.398 91.4 91.4 91.408 91.395 91.673 91.868 91.863 92.105 92.293 91.763 91.61 91.563 91.65 91.625 92.705 92.733 91.713 91.703 91.72 91.71 91.703 91.695 91.713 91.733 91.798 93.36 95.065 96.505 97.668 98.145 98.413 98.433 98.283 97.91 97.41 94.873 93.22 92.23 93.223 92.2 92.24 92.283 92.348 92.455 92.875 92.645 92.42 92.433 92.448 92.458 92.455 92.483 92.468 92.413 92.398 92.45 92.465 92.458 92.433 92.48 92.528 92.528 92.493 92.503 92.513 92.575 92.585 92.665 92.75 92.703 92.61 92.473 92.37 92.235 92.158 92.175 92.135 92.1 92.51 92.29 92.398 92.313 92.193 92.008 93.108 97.818 98.593 99.038 98.605 98.58 98.84 98.928 98.608 97.81 94.145 91.935 92.173 92.258 92.248 92.27 92.245 92.215 92.183 92.135 92.098 92.063 92 91.958 91.925 95.323 98.335 99.868 100.08 100.253 100.155 99.943 99.708 99.883 99.833 100.023 100.225 100.23 100.028 99.825 99.558 99.485 99.673 99.883 100.08 100.273 100.463 100.623 100.448 100.233 100.038 99.838 99.625 99.438 99.708 95.888 92.578 92.54 92.45 92.465 92.518 92.59 92.513 92.425 92.533 92.735 93.6 95.718 96.38 96.185 95.55 94.838 93.808 92.797 91.884 91.717 91.695 91.713 91.706 91.722 91.908 92.049 92.059 92.089 92.074 92.148 92.184 92.186 92.252 92.19 92.158 92.135 92.153 92.065 91.903 91.83 91.81 91.8 91.658 91.47 91.248 91.16 91.173 91.133 91.24 91.158 91.14 91.185 91.198 91.155 91.108 91.065 91.473 91.84 91.258 91.273 91.258 91.3 91.358 91.388 88.68 90.363 97.9 98.153 98.418 98.703 98.988 99.278 99.583 99.91 100.188 100.395 100.675 101.01 101.403 101.493 101.39 101.148 101.31 101.06 100.273 99.985 99.673 99.425 99.18 98.875 98.578 98.303 98.02 96.435 88.303 90.185 93.69 96.845 96.865 96.888 96.955 96.923 96.943 96.963 96.98 96.995
89.75 89.99 89.993 89.94 88.445 86.995 87.225 87.36 87.558 87.995 87.785 87.808 87.435 87.07 88.025 88.48 87.238 87.305 87.36 91.733 94.21 93.005 89.508 86.718 87.285 86.87 86.745 86.775 86.75 87.32 87.153 86.825 91.005 94.208 93.76 89.875 86.9 86.97 87.225 88.748 87.793 89.3 88.728 87.22 88.348 88.963 89.803 89.878 87.84 87.82 87.508 87.433 87.39 87.418 87.445 87.485 87.515 87.503 87.465 87.493 87.493 87.403 87.385 87.585 87.21 87.233 87.24 87.233 87.165 87.335 87.5 87.608 87.625 87.678 87.735 87.753 87.76 87.75 87.728 87.665 87.62 87.488 87.355 87.4 87.485 87.498 87.45 87.513 88.35 88.7 88.323 88.8 91.123 94.488 95.088 92.24 88.148 87.845 87.883 88.158 88.985 88.928 89.023 88.65 88.498 88.45 88.428 88.598 89.233 88.758 88.373 88.213 88.13 88.203 88.17 88.368 88.795 88.428 88.545 89.745 93.705 95.003 95.665 95.795 95.705 95.685 93.138 89.908 91.98 89.17 89.038 89.068 89.203 89.178 89.12 89.495 90.393 89.525 89.213 89.27 89.28 89.34 89.345 89.428 89.435 89.355 90.073 89.878 89.948 92.525 96.573 97.1 93.395 91.758 93.688 91.178 90.855 90.81 91.55 91.483 90.468 90.74 90.653 91.23 92.57 96.09 97.645 98.22 97.195 95.383 91.538 90.835 90.853 90.88 90.818 90.735 90.78 90.77 90.875 90.953 91 95.335 96.753 96.903 94.178 91.533 91.58 92.095 92.093 91.41 91.383 91.388 91.4 91.373 91.4 91.425 91.403 91.405 91.62 92.078 91.963 91.95 91.848 91.525 91.845 91.908 91.693 91.738 92.108 91.75 91.735 91.7 91.793 91.73 91.738 91.768 91.913 91.815 91.82 91.85 92.023 92.96 94.15 95.988 97.23 98.183 98.39 98.398 98.245 97.323 95.183 97.258 94.92 92.238 92.303 92.308 92.37 92.345 92.535 92.598 92.52 92.475 92.473 92.478 92.49 92.52 92.478 92.473 92.45 92.465 92.443 92.48 92.483 92.548 92.49 92.553 92.49 92.585 92.553 92.555 92.63 92.67 92.678 92.7 92.745 92.885 92.838 92.678 92.47 92.36 92.22 92.56 92.595 92.45 92.26 92.175 92.148 92.598 97.713 98.458 98.843 98.79 98.655 98.728 98.64 98.498 97.888 94.79 92.1 92.36 92.353 92.365 92.345 92.32 92.275 92.24 92.195 92.15 92.113 92.058 91.975 91.915 94.858 99.725 99.833 100.048 100.258 100.168 99.97 99.77 99.848 99.793 100.005 100.215 100.243 100.05 99.835 99.55 99.45 99.663 99.86 100.06 100.255 100.47 100.635 100.46 100.27 100.055 99.86 99.663 99.465 99.495 96.14 92.76 92.573 92.483 92.485 92.593 92.623 92.595 92.483 92.6 92.74 93.035 94.823 95.698 95.803 95.643 95.318 93.203 92.918 91.987 91.723 91.712 91.723 91.694 91.662 91.832 92.022 92.064 92.179 92.195 92.232 92.391 92.526 92.473 92.293 92.315 92.738 92.855 92.783 92.298 91.89 92.023 92.143 91.99 91.803 91.38 91.283 91.203 91.173 91.273 91.238 91.158 91.25 91.205 91.16 91.093 91.053 91.398 91.868 91.375 91.295 91.32 91.343 91.375 91.393 89.095 88.42 97.855 98.145 98.413 98.698 98.998 99.263 99.665 100.03 100.265 100.393 100.67 100.975 101.255 101.468 101.398 101.145 100.878 100.63 100.345 100.403 99.823 99.46 99.188 98.9 98.62 98.31 98.04 97.4 90.91 91.555 93.655 97.058 97.058 97.083 97.5 97.243 97.138 97.15 97.17 97.185
88.46 89.993 90.003 90.013 88.445 86.993 87.243 87.443 87.673 88.103 88.023 87.523 87.65 87.095 87.905 88.145 87.373 86.918 86.898 90.52 94.003 93.808 89.98 87.005 87.233 87.53 86.768 86.785 86.75 86.913 86.76 86.763 90.465 93.908 94.125 91.288 87.03 86.9 87.103 88.775 87.51 87.883 89.865 90.023 89.218 88.693 88.06 87.388 87.393 87.43 87.453 87.465 87.463 87.488 87.503 87.51 87.505 87.488 87.48 87.483 87.455 87.395 87.408 87.378 87.193 87.23 87.243 87.213 87.168 87.423 87.538 87.64 87.715 87.755 87.805 87.83 87.813 87.803 87.778 87.728 87.693 87.61 87.338 87.423 87.478 87.508 87.47 87.618 87.813 87.65 87.678 87.69 88.873 93.87 95.215 93.128 88.288 88.42 88.193 88.523 88.988 88.933 88.788 88.678 88.53 88.433 88.795 88.748 88.763 88.45 88.38 88.3 88.26 88.28 88.258 89.13 88.503 88.46 88.463 88.52 89.63 90.175 94.103 95.298 95.915 94.443 91.535 92.763 95.703 93.65 91.515 89.608 89.203 89.168 89.128 89.213 89.478 89.375 89.253 89.255 89.3 89.33 89.38 89.45 89.393 89.38 89.578 89.635 89.66 92.663 96.69 96.92 92.853 91.943 93.658 93.138 93.92 94.063 93.908 91.935 90.485 90.598 90.675 91.935 93.608 96.488 97.655 98.238 97.163 94.86 91.05 90.873 90.905 90.893 90.74 90.725 90.725 90.765 91.14 91.035 91.075 91.28 92.21 93.485 92.055 91.823 91.69 91.53 91.488 91.505 92.03 91.878 91.388 91.388 91.42 91.453 91.46 91.445 91.468 91.48 91.48 91.573 91.743 91.663 92.343 91.99 91.725 91.76 91.8 91.76 91.765 91.718 91.71 91.745 91.805 91.82 91.845 93.133 91.92 91.858 91.958 92.02 91.998 92.035 92.523 93.495 96.268 97.913 98.408 98.498 98.5 98.095 96.9 92.448 93.375 93.89 92.37 92.885 92.605 92.665 92.52 92.978 92.918 92.53 92.515 92.5 92.525 92.55 92.545 92.535 92.495 92.488 92.49 92.5 92.508 92.578 92.51 92.565 92.598 92.578 92.565 92.623 92.585 92.62 92.678 92.74 92.823 92.823 93 93.058 92.825 92.595 92.665 92.45 92.283 92.275 92.2 92.365 97.12 98.125 98.095 98.01 97.938 97.898 97.765 97.465 97.53 95.273 92.785 92.428 92.44 92.425 92.423 92.4 92.335 92.308 92.255 92.175 92.125 92.058 92.005 91.943 92.2 96.915 99.825 100.035 100.25 100.19 99.993 99.805 99.635 99.778 99.985 100.193 100.268 100.085 99.858 99.588 99.42 99.628 99.838 100.058 100.265 100.448 100.63 100.493 100.278 100.07 99.875 99.675 99.488 99.7 96.675 92.728 92.628 92.54 92.555 92.665 92.658 92.635 92.565 92.625 92.703 92.795 93.733 94.433 94.133 95.415 95.478 93.482 93.05 92.177 91.766 91.737 91.721 91.698 91.669 92.018 92.712 92.903 93.136 93.181 93.188 93.163 93.109 92.955 92.588 92.743 93.323 93.328 92.815 92.268 92 92.185 92.588 92.598 92.375 91.928 91.415 91.46 91.298 91.315 91.355 91.298 91.323 91.243 91.168 91.103 91.053 91.293 91.655 91.313 91.283 91.415 91.4 91.38 91.425 89.63 88.048 97.83 98.098 98.383 98.68 99.018 99.333 99.528 99.82 100.09 100.525 101.095 101.113 101.603 101.468 101.465 101.165 100.863 100.603 100.323 100.2 99.76 99.445 99.193 98.93 98.638 98.368 98.065 97.785 91.118 89.853 91.528 97.255 97.265 97.273 97.328 97.328 97.35 97.35 97.365 97.385
88.245 90.003 89.983 89.985 88.955 87.008 87.265 87.465 87.695 88.173 88.128 87.63 87.915 87.125 87.27 88.193 87.585 86.933 86.883 90.375 93.543 93.693 91.353 87.533 86.818 86.963 86.8 86.813 86.775 86.893 86.878 86.765 87.683 93.515 94.338 91.653 87.645 87.128 87.96 88.285 87.493 88.23 89.488 90.218 88.99 87.43 87.365 87.408 87.453 87.46 87.458 87.478 87.463 87.48 87.485 87.505 87.488 87.475 87.45 87.4 87.395 87.38 87.435 87.318 87.213 87.27 87.278 87.21 87.193 87.49 87.583 87.705 87.745 87.823 87.85 87.833 87.85 87.825 87.833 87.808 87.77 87.653 87.403 87.453 87.518 87.54 87.493 87.585 87.853 87.71 87.85 87.855 87.908 93.37 95.225 93.743 88.128 88.013 88.015 88.13 88.82 88.473 88.385 88.13 88.648 88.683 89.35 88.748 88.553 88.585 88.738 88.433 88.393 88.37 88.585 89.235 89.21 88.498 88.505 88.608 88.803 88.553 89.418 92.755 94.633 92.423 90.288 95.005 96.263 96.42 95.75 92.623 90.94 89.153 89.17 89.23 89.298 89.39 89.293 89.263 89.288 89.345 89.353 89.408 89.395 89.38 89.495 89.56 89.658 93.178 96.75 96.745 91.785 89.725 89.825 90.545 90.535 90.728 91.273 91.57 90.513 90.61 90.698 91.228 92.538 95.078 95.453 96.248 95.938 93.03 91.158 90.938 90.85 90.828 90.69 90.728 90.72 90.795 91.14 91.023 91.155 91.395 91.345 91.403 91.443 91.57 91.895 91.41 91.838 91.52 91.865 91.938 91.38 91.4 91.393 91.41 91.448 91.45 91.483 91.48 91.498 91.503 91.493 91.55 91.643 91.773 91.65 91.893 91.723 91.773 91.788 91.788 91.723 91.818 91.838 91.863 91.858 93.375 92.303 91.838 91.988 91.968 91.965 92.05 92.053 92.083 92.513 93.78 95.695 96.958 97.963 98.073 95.803 93.028 97.255 97.633 95.435 92.368 92.59 92.383 92.418 92.418 92.493 92.678 92.795 92.75 92.595 92.54 92.508 92.57 92.56 92.57 92.57 92.535 92.535 92.503 92.528 92.525 92.545 92.58 92.605 92.618 92.615 92.6 92.588 92.66 92.703 92.743 92.778 92.858 92.863 92.798 92.655 92.63 92.56 92.455 92.188 91.818 95.608 96.053 96.363 95.285 94.17 95.47 94.475 93.155 94.945 93.305 92.525 92.488 92.528 92.525 92.515 92.478 92.425 92.375 92.32 92.215 92.168 92.08 92.025 91.935 93.26 98.888 99.95 100.103 100.52 100.395 99.678 100.53 100.06 99.765 99.965 100.178 100.285 100.1 99.893 99.66 99.385 99.62 99.818 100.015 100.238 100.423 100.628 100.5 100.295 100.095 99.905 99.7 99.485 99.713 97.25 92.938 92.683 92.643 92.605 92.705 92.723 92.663 92.63 92.645 92.755 92.81 94.213 95.498 94.345 94.045 94.673 93.503 93.148 92.395 91.793 91.751 91.742 91.724 91.761 92.369 93.473 94.138 94.6 94.7 94.455 93.797 93.301 93.105 92.798 93.203 93.57 93.5 92.58 92.318 92.04 92.17 92.555 93.09 93.083 93.33 92.318 91.75 91.823 91.48 91.583 91.445 91.328 91.265 91.168 91.095 91.065 91.093 91.088 91.213 91.375 91.495 91.523 91.505 91.545 90.293 88.043 96.483 98.078 98.385 98.623 98.945 99.383 99.493 99.763 100.055 100.363 100.613 100.88 101.165 101.443 101.48 101.318 100.935 100.615 100.345 100.085 99.823 99.505 99.25 98.953 98.665 98.388 98.12 97.83 91.938 89.455 89.505 97.473 97.458 97.483 97.493 97.52 97.535 97.548 97.58 97.583
88.345 90.005 89.99 90.005 89.258 87.045 87.323 87.503 87.678 88.088 88.158 87.943 87.783 87.183 87.185 87.43 87.368 87.005 86.955 88.765 90.025 89.728 87.955 87.055 87.113 87.075 86.828 86.848 86.943 87.17 86.948 86.805 86.85 91.703 94.485 92.12 87.815 86.97 87.888 88.088 87.508 89.495 89.645 90.125 89.07 87.46 87.385 87.443 87.468 87.468 87.475 87.465 87.483 87.473 87.465 87.46 87.415 87.428 87.433 87.383 87.343 87.325 87.353 87.398 87.228 87.27 87.275 87.203 87.173 87.46 87.608 87.705 87.765 87.823 87.863 87.865 87.845 87.83 87.875 87.865 87.788 87.673 87.368 87.468 87.53 87.565 87.498 88.003 88.068 87.843 87.785 87.748 87.78 90.773 94.95 94.678 90.585 87.96 87.98 88.495 88.48 88.285 88.08 88.073 88.245 89.453 89.333 89.453 88.525 88.495 88.703 88.725 89.203 88.515 89.715 88.928 88.828 88.813 88.57 88.693 88.72 88.755 88.775 89.48 90.205 89.675 89.528 91.818 94.163 95.883 96.7 96.24 94.56 91.813 89.923 89.178 89.52 89.575 89.835 89.408 89.33 89.35 89.363 89.403 89.415 89.383 89.663 89.578 89.63 92.898 96.818 96.65 91.59 89.873 89.803 89.928 90.013 90.068 90.183 90.54 90.52 90.63 90.763 90.748 92.063 90.978 90.798 90.808 90.943 90.923 91.55 91.118 90.843 90.743 90.688 90.733 90.748 90.928 90.888 90.948 91.043 92.06 92.288 94.865 95.398 92.61 91.315 91.258 91.85 91.865 91.743 91.725 91.493 91.403 91.433 91.498 91.433 91.493 91.495 91.51 91.555 91.538 91.533 91.565 91.555 91.528 91.56 91.625 92.4 92.568 92.318 91.758 91.695 91.825 91.865 92.043 91.908 92.315 91.94 91.8 91.973 91.903 91.963 92.058 92.145 92.108 92.095 92.643 92.42 92.17 93.138 94.438 92.868 94.488 98.333 98.435 97.28 94.883 92.53 92.39 92.42 92.453 92.465 92.613 92.448 92.778 93.893 93 92.515 92.53 92.515 92.528 92.553 92.583 92.623 92.61 92.623 92.56 92.563 92.553 92.53 92.615 92.63 92.638 92.635 92.653 92.645 92.685 92.688 92.75 92.783 92.82 92.87 92.85 92.785 92.683 92.45 92.273 92.348 92.34 92.903 92.525 92.393 92.46 92.478 92.323 93.18 92.76 92.57 92.575 92.595 92.578 92.58 92.553 92.498 92.435 92.365 92.29 92.18 92.095 92.043 91.965 92.175 96.743 98.868 96.41 98.548 98.643 94.413 96.975 100.19 99.74 99.948 100.148 100.295 100.11 99.9 99.685 99.34 99.613 99.808 99.995 100.215 100.408 100.623 100.528 100.325 100.113 99.918 99.72 99.515 99.803 97.948 93.645 92.788 92.713 92.703 92.72 92.76 92.728 92.703 92.693 92.818 92.88 95.295 96.7 95.128 94.478 93.448 93.183 92.976 92.41 91.874 91.8 91.802 91.818 92.029 92.884 94.114 95.238 96.001 95.916 95.09 94.243 93.774 93.313 93.19 93.698 93.87 93.478 92.458 92.205 92.05 92.598 92.848 93.143 93.403 92.985 92.665 92.008 92.013 91.775 91.84 91.583 91.475 91.26 91.128 91.078 91.045 91.25 91.558 91.45 91.348 91.56 91.605 91.628 91.643 90.743 88.03 94.313 98.063 98.33 98.6 98.895 99.19 99.48 99.755 100.018 100.323 100.61 100.873 101.158 101.423 101.48 101.24 100.955 100.658 100.378 100.078 99.798 99.528 99.238 98.948 98.69 98.403 98.145 97.338 89.365 89.453 88.433 97.68 97.673 97.675 97.703 97.733 97.74 97.753 97.77 97.793
88.75 90.04 90.028 90.03 89.145 87.07 87.31 87.53 87.703 87.925 88.058 87.92 87.73 87.32 87.185 87.578 88.058 87.373 87.17 87.093 87.525 89.708 90.073 88.348 86.815 86.933 86.988 86.848 87.018 87.778 87.103 86.87 86.85 90.505 94.2 93.485 88.983 86.913 86.945 86.92 87.015 89.108 88.63 88.045 87.483 87.408 87.41 87.44 87.453 87.43 87.433 87.42 87.453 87.42 87.455 87.415 87.375 87.378 87.375 87.385 87.288 87.463 87.425 87.285 87.245 87.278 87.308 87.248 87.2 87.375 87.59 87.655 87.723 87.808 87.84 87.85 87.823 87.825 87.865 87.84 87.753 87.64 87.438 87.48 87.59 87.583 87.49 87.998 87.74 87.703 87.758 87.665 90.648 93.8 94.718 94.955 91.213 88.233 88.505 88.453 88.2 88.135 88.093 88.133 88.518 89.898 89.588 88.88 89.99 89.403 88.808 89.168 88.845 88.888 90.353 90.605 89.005 88.82 89.39 89.09 88.733 88.788 88.818 88.823 88.868 89.035 89.383 89.315 90.123 93.025 94.725 96.108 96.518 95.96 93.945 89.283 89.575 89.575 89.64 89.66 89.458 89.393 89.378 89.405 89.418 89.42 89.578 89.595 89.873 93.898 96.988 96.633 92.02 90.363 90.028 90.005 90.068 90.115 90.258 90.488 90.588 90.788 90.89 90.898 91.575 90.76 90.755 90.75 90.768 91.178 91.673 91.443 90.888 90.73 90.705 90.72 90.738 91.295 90.965 90.985 91.065 91.188 94.688 97.19 97.375 95.133 91.333 91.25 92.18 91.928 91.513 91.405 91.533 92.29 92.46 91.958 91.488 91.553 91.575 91.508 91.538 91.57 91.548 91.575 91.613 91.553 91.565 91.59 91.625 91.713 91.72 91.715 91.658 91.745 92.07 91.963 91.9 91.85 91.788 91.765 91.815 91.873 92.005 92.108 92.093 92.098 92.105 92.85 92.225 92.153 92.468 92.118 92.11 93.983 96.83 98.413 98.75 98.34 95.845 96.52 93.155 92.413 92.37 92.44 92.548 93.535 92.965 92.405 92.455 92.618 92.548 93.048 92.803 92.57 92.53 92.573 92.558 92.583 92.63 92.608 92.598 92.585 92.635 92.618 92.663 92.705 92.673 92.678 92.688 92.71 92.728 92.77 92.798 92.825 92.913 92.913 92.8 92.745 92.768 92.795 92.793 92.81 92.84 92.713 92.67 92.543 93.688 92.67 92.628 92.635 92.653 92.658 92.655 92.643 92.573 92.5 92.423 92.35 92.233 92.14 92.055 91.97 91.978 92.105 92.9 91.92 93.515 94.138 91.935 93.32 100.075 99.728 99.938 100.143 100.3 100.123 99.923 99.708 99.34 99.595 99.79 99.975 100.188 100.385 100.595 100.533 100.32 100.128 99.928 99.735 99.52 99.93 97.98 93.73 92.845 92.768 92.78 92.815 92.8 92.81 92.75 92.755 92.893 93.08 94.338 95.448 94.408 94.223 93.523 92.9 92.564 92.225 92.045 91.975 91.967 92.052 92.668 93.642 94.823 96.086 96.649 96.161 95.354 94.501 93.995 93.073 93.58 93.838 93.825 93.065 92.35 92.163 92.12 92.745 93.17 93.198 93.623 93.118 92.033 92.698 92.325 92.19 91.99 91.79 91.573 91.5 91.478 91.173 91.093 91.383 91.745 91.563 91.355 91.618 91.74 91.763 91.755 91.275 88.025 93.8 98.033 98.325 98.583 98.88 99.155 99.453 99.723 100.018 100.285 100.588 100.85 101.105 101.395 101.483 101.22 100.925 100.658 100.363 100.093 99.823 99.53 99.243 98.98 98.693 98.425 98.18 97.42 89.918 90.25 88.658 97.908 97.89 97.893 97.895 97.923 97.933 97.955 97.983 98
90.138 90.075 90.108 90.138 89.975 89.083 87.333 87.488 87.688 87.8 87.908 88.04 87.718 87.643 87.205 87.548 87.705 87.143 87.025 86.92 89.408 93.448 93.623 90.395 86.84 86.885 87.058 86.863 86.938 87.238 86.95 86.92 86.925 90.465 93.905 94.14 90.89 86.923 86.965 86.928 88.085 89.463 89.018 88.278 87.463 87.423 87.398 87.425 87.433 87.378 87.415 87.378 87.38 87.373 87.385 87.368 87.34 87.345 87.328 87.29 87.278 87.285 87.263 87.26 87.218 87.248 87.298 87.27 87.218 87.258 87.478 87.6 87.693 87.758 87.783 87.795 87.753 87.78 87.795 87.773 87.725 87.535 87.478 87.538 87.595 87.55 87.593 87.803 87.82 88.388 88.213 87.755 90.583 94.695 95.213 94.923 92.715 88.225 89.015 88.34 88.15 88.143 88.153 88.185 88.538 88.503 88.478 89.38 92.363 91.26 88.918 88.42 88.423 88.485 89.008 89.595 89.803 89.035 89.748 88.91 88.763 88.805 88.865 88.845 88.88 89 89.025 89.058 89.198 89.728 90.413 93.655 95.585 95.755 92.333 89.505 89.528 89.545 89.583 89.608 89.81 89.445 89.383 89.408 89.355 89.488 89.838 89.595 91.895 95.733 97.035 96.465 90.723 89.943 90.353 90.03 90.093 90.138 90.238 90.345 90.59 90.695 90.75 90.703 92.17 91.163 90.74 90.74 91.455 91.3 90.935 90.818 90.93 90.72 90.725 90.728 90.788 90.9 90.92 91.085 91.403 91.368 92.788 96.408 97.628 97.283 94.02 91.313 91.3 91.375 91.61 91.458 92.223 92.713 91.735 91.673 91.655 91.888 91.658 91.53 91.513 91.583 91.595 91.578 91.61 91.61 91.633 91.65 91.66 91.678 91.693 91.68 91.72 91.755 91.83 92.128 91.995 91.86 91.773 91.958 93.078 91.868 92.045 92.213 92.088 92.67 93.695 92.6 92.19 92.41 93.525 92.635 92.175 92.243 92.613 95.893 98.088 98.69 98.565 98.105 97.605 94.813 92.97 92.378 92.61 94.15 93.068 92.88 92.44 92.663 92.53 92.52 93.065 93.193 92.593 92.553 92.508 92.54 92.588 92.6 92.605 92.6 92.635 92.603 92.65 92.653 92.715 92.683 92.71 92.723 92.743 92.76 92.745 92.73 92.818 92.843 92.868 92.898 92.885 92.91 92.885 92.86 92.835 92.798 92.748 92.97 93.328 92.758 92.703 92.7 92.708 92.725 92.72 92.72 92.67 92.563 92.513 92.415 92.325 92.245 92.15 92.053 92.018 91.96 91.945 91.968 91.948 91.938 91.913 93.773 99.345 99.715 99.91 100.118 100.323 100.148 99.943 99.74 99.323 99.658 99.765 100.005 100.18 100.368 100.57 100.535 100.325 100.118 99.923 99.74 99.533 99.488 98.213 93.55 92.883 92.858 92.78 92.853 92.885 92.878 92.805 92.795 92.938 93.225 93.313 93.668 94.465 94.525 92.881 92.463 92.241 92.198 92.161 92.155 92.144 92.306 93.423 94.633 95.482 96.27 96.565 96.208 95.367 94.518 93.633 92.843 93.525 93.72 93.305 92.598 92.285 92.105 92.018 92.23 92.77 93.05 93.033 93.165 92.668 92.978 92.33 92.295 92.125 91.96 91.658 91.613 91.725 91.293 91.16 91.32 91.758 91.625 91.398 91.728 91.863 91.88 91.88 91.73 88.393 92.948 98.013 98.283 98.543 98.835 99.138 99.413 99.678 99.973 100.233 100.525 100.815 101.12 101.388 101.483 101.228 100.963 100.698 100.418 100.143 99.868 99.608 99.363 99.008 98.708 98.48 98.198 97.908 90.758 90.56 88.813 96.363 98.088 98.11 98.11 98.135 98.133 98.163 98.178 98.208
90.143 90.628 90.83 90.823 90.263 90.145 88.928 87.473 87.595 87.675 87.758 87.943 87.678 87.658 87.248 87.203 87.538 87.22 87.11 86.938 87.368 93.428 94.098 91.32 86.983 87.013 86.918 86.895 86.9 86.925 87.098 86.985 86.953 89.553 93.518 94.46 92.268 87.995 87.038 87.19 88.418 87.725 89.023 90.025 87.478 87.403 87.395 87.388 87.385 87.333 87.335 87.34 87.353 87.323 87.328 87.31 87.258 87.215 87.225 87.265 87.238 87.225 87.263 87.265 87.253 87.223 87.305 87.285 87.253 87.23 87.31 87.578 87.648 87.693 87.718 87.73 87.735 87.745 87.758 87.718 87.558 87.473 87.525 87.548 87.59 87.583 87.578 87.763 87.878 88.358 87.813 87.815 89.868 94.085 93.165 92.295 90.77 88.19 88.363 88.218 88.155 88.168 88.218 88.583 91.038 90.56 88.605 89.73 91.935 90.148 88.445 88.425 88.435 88.52 90.005 91.045 89.815 89.398 88.925 88.918 88.905 88.875 88.87 88.945 88.925 88.983 89.025 89.023 89.125 89.743 89.185 89.833 92.655 93.988 89.64 89.545 89.48 89.498 89.56 89.593 89.588 89.523 89.39 89.43 89.405 89.495 89.66 89.615 92.265 96.41 97.158 96.373 90.82 89.81 89.953 90.003 90.033 90.09 90.215 90.368 90.618 90.738 90.773 93.008 95.423 95.928 95.913 93.67 91.165 90.935 90.868 90.875 90.77 90.723 90.733 90.695 90.845 90.878 90.96 91.175 91.44 91.515 91.23 93.028 96.795 97.663 97.148 93.97 92.825 91.258 91.733 91.518 91.613 93.61 92.07 91.568 91.758 93.308 92.42 91.585 91.563 91.588 91.643 91.68 91.71 91.673 91.66 91.678 91.67 91.72 91.738 91.7 91.71 91.738 91.753 91.82 92.108 91.975 91.815 91.98 92.615 91.88 91.995 92.048 92.09 92.418 97.013 92.373 92.193 92.535 92.493 92.278 92.228 92.203 92.475 92.553 94.168 96.415 98.318 98.738 98.453 97.878 96.79 92.47 92.653 92.925 92.435 92.628 92.4 92.43 92.435 92.438 93.763 95.438 92.65 92.815 92.783 92.78 92.595 92.525 92.555 92.6 92.655 92.633 92.668 92.673 92.675 92.683 92.698 92.705 92.783 92.763 92.775 92.795 92.77 92.81 92.82 92.858 92.875 92.993 93.058 93.083 92.898 92.863 92.813 92.78 92.773 92.793 92.795 93.083 93.37 93.125 92.828 92.948 92.748 92.663 92.585 92.5 92.415 92.348 92.275 92.148 92.095 92.063 92.043 92.035 91.983 91.958 91.93 93.2 99.373 99.66 99.9 100.468 100.39 100.193 100.765 100.038 99.4 100.67 100.445 100.003 100.168 100.35 100.555 100.538 100.32 100.118 99.923 99.738 99.533 99.288 98.838 93.98 92.948 92.903 92.778 92.87 92.94 92.938 92.89 92.843 92.968 93.338 93.74 94.08 94.848 94.553 92.948 92.322 92.234 92.238 92.186 92.202 92.219 92.504 93.826 95.016 95.726 96.256 96.308 96.118 95.21 94.063 93.003 92.615 93.23 93.37 92.653 92.333 92.175 92.078 92.003 92.075 92.298 92.56 92.47 92.548 92.495 92.658 92.185 92.145 91.88 92.018 91.778 91.705 91.603 91.31 91.17 91.143 91.308 91.39 91.395 91.693 91.883 91.898 91.933 91.945 88.875 91.458 97.98 98.26 98.538 98.808 99.105 99.408 99.675 99.96 100.25 100.573 100.858 101.145 101.37 101.523 101.505 101.423 100.72 100.458 100.168 99.91 99.743 99.52 99.038 98.745 98.48 98.22 97.918 91.4 88.19 88.283 93.948 98.315 98.315 98.338 98.35 98.335 98.365 98.403 98.435
90.753 91.465 91.668 91.643 91.038 90.415 89.165 88.835 87.588 87.705 87.788 88.015 87.883 87.92 87.345 87.273 87.48 87.305 87.235 87.083 86.91 92.16 94.18 92.653 87.823 87.108 87.13 86.923 86.933 87.293 87.593 87.025 86.985 87.003 93.158 94.513 93.028 88.035 86.978 87.98 88.05 86.893 88 90.42 87.773 87.395 87.383 87.338 87.325 87.278 87.25 87.298 87.265 87.238 87.238 87.258 87.213 87.205 87.253 87.263 87.283 87.353 87.555 87.5 87.535 87.248 87.26 87.305 87.288 87.268 87.223 87.325 87.578 87.628 87.65 87.688 87.7 87.698 87.685 87.56 87.468 87.515 87.525 87.543 87.568 87.565 87.553 87.585 87.67 87.853 87.873 87.995 88.21 88.535 88.615 87.835 88.005 88.93 91.313 88.803 88.24 88.188 88.708 90.048 94.705 95.78 94.788 91.908 89.99 89.528 88.878 88.46 88.538 90.828 91.028 91 88.818 88.648 88.885 89.205 89.09 89.13 89.248 89.295 88.928 88.985 89.043 89.063 89.72 89.233 89.18 89.193 89.173 89.36 90.62 92.635 91.125 90.51 90.67 89.553 89.553 89.58 89.385 89.46 89.403 89.478 89.685 89.665 93.283 96.558 97.588 96.298 91.218 89.865 89.935 89.993 90.003 90.098 90.235 90.408 90.665 90.79 90.793 92.833 96.843 97.888 97.415 95.65 90.848 90.765 90.84 90.895 90.768 90.753 90.768 90.738 90.873 90.885 90.913 91.358 91.168 91.27 91.448 91.545 94.108 97.183 97.655 97.025 93.613 92.785 92.428 91.483 91.49 91.62 91.825 91.575 91.588 91.825 92.47 91.605 91.583 91.628 91.705 91.763 91.808 91.785 91.695 91.695 91.693 91.715 91.738 91.765 91.745 91.763 91.785 91.77 91.878 91.845 91.868 91.878 91.995 92.025 91.99 92.01 92.03 92.663 93.995 92.473 92.655 93.643 94.233 92.378 92.238 92.168 92.308 92.365 92.288 92.318 94.923 97.345 98.55 98.623 98.138 95.98 93.788 92.66 92.34 92.375 92.498 92.38 92.403 92.428 92.408 92.893 92.325 92.388 92.533 92.688 92.64 92.693 92.588 92.595 92.6 92.598 92.665 92.75 92.698 92.73 92.68 92.72 92.74 92.733 92.778 92.813 92.85 92.855 92.865 92.863 92.853 92.93 92.9 92.958 92.905 92.87 92.88 92.868 92.863 92.843 92.828 92.833 92.853 92.903 93.823 95.265 93.793 92.748 92.655 92.59 92.503 92.418 92.343 92.263 92.175 92.143 92.138 92.085 92.03 92.008 91.978 91.998 98.668 99.385 101.14 99.688 98.545 98.235 99.273 98.388 96.715 96.568 100.115 100.083 100.15 100.355 100.528 100.58 100.343 100.14 99.94 99.758 99.573 99.335 99.55 94.68 92.988 92.963 92.888 92.95 93.02 93.013 92.9 92.878 93.05 93.258 94.773 94.703 93.973 94.778 93.001 92.37 92.313 92.295 92.264 92.273 92.284 92.542 93.516 94.671 95.505 95.686 95.114 94.719 94.083 93.108 92.71 92.678 92.788 92.853 92.593 92.255 92.198 92.1 91.995 92.035 92.39 92.768 92.755 92.713 92.663 92.978 92.518 92.34 91.73 91.548 91.455 91.39 91.473 91.503 91.295 91.183 91.125 91.188 91.398 91.693 91.86 91.913 91.968 92.033 89.35 90.093 97.953 98.263 98.528 99.1 99.155 99.393 99.673 99.958 100.255 100.81 100.85 101.023 101.32 101.503 101.31 101.025 100.735 100.463 100.173 99.905 99.623 99.32 99.05 98.758 98.49 98.203 97.93 92.988 88.463 88.313 93.403 98.483 98.48 98.438 98.438 98.443 98.413 98.383 98.378
91.073 91.705 92.633 92.235 91.275 90.13 88.85 88.008 87.585 87.743 87.863 88.085 88.063 87.748 87.543 87.283 87.475 87.413 87.28 87.205 87.458 91.7 94.23 92.695 87.46 86.88 87.148 86.97 86.953 87.018 87.863 87.21 86.985 87.095 90.96 94.228 93.18 88.705 86.978 86.945 86.895 86.893 87.568 90.513 88.925 87.333 87.328 87.285 87.275 87.243 87.203 87.235 87.24 87.238 87.24 87.263 87.253 87.268 87.325 87.353 87.383 87.37 87.4 87.42 87.45 87.368 87.243 87.315 87.34 87.295 87.265 87.278 87.315 87.445 87.503 87.53 87.508 87.533 87.46 87.45 87.498 87.558 87.59 87.543 87.545 87.548 87.57 87.563 87.583 87.748 87.98 87.823 87.798 87.815 87.885 87.858 88.18 90.803 95.303 94.978 90.685 88.788 88.833 90.71 95.32 96.175 96.355 95.578 93.458 89.273 88.613 88.578 89.61 92.078 89.438 89.265 88.58 88.615 89.153 89.778 89.983 89.428 89.365 89.43 89.035 89.078 89.163 89.18 89.508 89.218 89.208 89.255 89.28 89.625 91.638 96.063 96.383 96.295 94.958 89.683 89.553 89.51 89.408 89.423 89.413 89.523 89.74 89.74 92.688 96.545 97.345 96.195 89.875 89.86 89.955 89.998 90.03 90.12 91.715 92.015 91.06 91.688 91.023 94.523 96.913 98 97.365 96.21 92.228 90.788 90.843 90.865 90.773 90.75 90.78 90.79 90.84 90.925 90.923 90.975 91.215 91.21 91.448 91.103 91.4 94.975 97.318 96.963 94.658 91.87 92.278 91.323 91.348 91.67 91.778 91.405 91.383 91.46 91.578 91.57 91.608 91.65 92.093 92.628 93.685 92.173 91.818 91.918 92.213 91.795 91.74 91.753 91.775 91.818 91.795 91.813 91.825 91.825 91.888 91.878 91.94 91.913 91.95 92.063 92.87 92.83 93.393 92.24 92.14 92.67 92.403 92.21 92.17 92.113 92.423 92.36 92.273 92.575 92.313 93.403 95.88 98.055 98.733 98.843 97.868 96.708 96.173 92.788 92.405 92.39 92.38 92.38 92.373 92.278 92.238 92.303 92.488 92.473 92.37 92.433 92.48 92.49 92.488 92.498 92.583 92.593 92.64 92.715 92.775 92.753 92.78 92.753 92.78 92.828 92.81 92.853 92.895 92.88 92.885 92.983 92.935 92.973 92.945 92.958 92.99 92.973 92.958 92.925 92.918 92.915 92.918 92.915 92.935 93.145 93.515 93.2 93.5 92.873 92.658 92.51 92.45 92.378 92.263 92.23 92.173 92.138 92.088 92.043 91.968 92.405 95.075 94.855 96.718 94.628 92.928 93.06 92.1 93.113 92.473 91.875 97.698 100.213 100.14 100.335 100.515 100.625 100.375 100.178 99.983 99.775 99.6 99.36 100.925 98.7 93.458 93.01 92.95 92.988 93.038 93.058 93.023 92.97 93.148 93.435 94.585 94.338 95.18 95.05 93.332 92.564 92.456 92.467 92.393 92.371 92.326 92.366 92.896 93.929 94.864 94.658 93.887 93.515 93.487 92.993 92.908 92.908 92.87 92.693 92.408 92.198 92.15 92.09 91.968 92.093 92.623 92.708 92.518 92.563 92.338 92.743 92.245 92.618 92.088 91.525 91.545 91.888 92.263 91.965 91.333 91.233 91.188 91.25 91.425 91.663 91.9 91.953 92.013 91.453 88.168 92.633 97.925 98.198 98.468 98.78 99.053 99.33 99.623 99.893 100.183 100.45 100.725 100.998 101.275 101.498 101.388 101.168 100.758 100.483 100.225 99.915 99.66 99.363 99.115 98.793 98.523 98.213 97.96 94.668 88.783 88.48 93.068 98.333 98.293 98.265 98.24 98.215 98.2 98.185 98.168
91.043 91.658 92.765 92.283 91.288 90.363 88.045 87.543 87.578 87.715 87.858 88.155 88.17 87.81 87.518 87.265 87.32 88.17 88.64 90.575 88.293 90.683 93.84 93.773 90.538 86.92 86.99 87.1 86.963 86.968 87 87.09 86.94 86.873 88.905 93.948 94.185 90.733 87.28 87.288 86.933 86.928 87.118 88.753 89.155 87.268 87.23 87.223 87.235 87.235 87.235 87.268 87.245 87.238 87.29 87.273 87.268 87.283 87.355 87.423 87.453 87.46 87.498 87.51 87.465 87.5 87.315 87.23 87.343 87.3 87.298 87.318 87.31 87.303 87.325 87.375 87.41 87.383 87.44 87.485 87.515 87.553 87.585 87.595 87.603 87.543 87.583 87.588 87.598 87.628 87.685 87.855 87.815 87.888 88.04 88.125 89.078 92.698 95.57 96.055 95.46 91.688 88.49 88.645 92.25 94.548 95.673 96.21 96.063 95.158 92.875 89.098 90.945 89.63 88.765 88.698 88.578 88.968 88.768 88.935 89.405 89.838 90.04 89.69 89.46 89.53 89.333 89.445 89.285 89.268 89.215 89.27 89.62 89.915 92.558 96.395 96.97 96.665 94.248 89.548 89.585 89.518 89.41 89.448 89.405 89.493 89.668 89.913 92.96 95.983 97.173 95.635 89.795 89.875 89.935 89.995 89.998 90.12 91.375 92.2 90.903 91.178 90.978 93.263 96.938 97.925 97.36 95.993 91.55 90.848 90.868 90.813 90.748 90.788 90.818 90.83 90.833 90.93 90.965 90.988 91.055 91.43 91.158 91.005 91.023 91.848 95.398 93.335 91.145 92.313 96.62 94.72 92.678 91.903 91.428 91.338 91.4 91.963 91.755 91.545 91.613 91.663 91.94 93.263 92.198 92.538 92.348 91.813 92.005 92.18 92.298 91.875 91.853 91.788 91.8 91.815 91.823 91.865 91.883 91.893 91.938 91.93 91.933 92.06 92.195 92.328 92.648 92.083 92.095 92.51 92.198 92.168 92.115 92.133 92.63 92.29 92.785 94.293 92.828 92.273 92.258 93.835 96.988 98.52 98.673 98.323 97.86 95.66 94.158 93.493 92.42 92.368 92.478 92.27 92.348 92.315 92.598 92.308 92.293 92.308 92.318 92.363 92.39 92.448 92.923 93.5 93.013 92.845 92.655 92.718 92.795 92.825 92.82 92.81 92.818 92.853 92.86 92.87 92.915 92.93 93 93.025 93 93.045 93.04 93.053 93.073 93.025 93.025 93.03 93.01 93.02 93.013 93.128 93.208 93.385 93.34 93.483 93.345 93.205 92.923 93.075 92.858 92.358 92.413 92.253 92.16 92.095 92.045 92.013 91.98 92.008 92.018 92.008 92.005 91.983 91.988 91.97 91.935 91.905 95.26 100.36 100.118 100.323 100.528 100.665 100.475 100.22 100.218 99.993 99.695 99.415 99.438 99.823 94.27 93.068 92.985 93.065 93.083 93.095 93.073 93.01 93.123 93.505 94.655 94.945 94.5 94.468 94.198 92.979 92.804 92.754 92.68 92.604 92.488 92.45 92.846 93.65 94.074 93.764 93.28 93.678 94.082 93.563 93.29 93.173 93.148 92.983 92.465 92.235 92.203 92.12 92.013 92.06 92.555 92.905 92.85 92.94 92.69 92.648 92.448 92.165 92.328 91.833 91.678 92.18 92.778 92.2 91.448 91.315 91.528 91.688 91.415 91.655 91.875 91.978 92.02 91.888 88.515 92.7 97.925 98.163 98.433 98.715 99.035 99.3 99.593 99.865 100.17 100.44 100.718 100.988 101.27 101.535 101.4 101.128 100.895 100.538 100.23 99.963 99.675 99.408 99.133 98.795 98.56 98.268 97.988 95.65 89.38 90.05 95.92 98.12 98.083 98.063 98.033 98.018 98.008 97.973 97.965
91.038 91.628 92.795 92.333 91.33 90.365 88.038 87.57 87.6 87.758 87.895 88.253 88.315 87.793 87.663 87.32 87.383 87.658 87.738 87.973 87.058 87.285 93.433 94.125 90.968 87.04 86.933 87.118 86.978 86.988 86.993 87.118 87.305 86.9 88.845 93.5 93.773 90.64 87.045 86.97 87.19 87.493 87.495 88.028 88.153 87.18 87.223 87.248 87.243 87.248 87.27 87.273 87.273 87.29 87.293 87.32 87.313 87.323 87.405 87.468 87.49 87.483 87.483 87.485 87.488 87.485 87.41 87.355 87.283 87.288 87.325 87.333 87.343 87.345 87.383 87.385 87.423 87.455 87.483 87.525 87.558 87.535 87.49 87.553 87.873 87.668 87.603 87.59 87.628 87.688 87.718 87.72 87.773 87.983 88.055 88.19 88.155 89.258 91.998 95.098 95.143 91.193 88.448 88.378 88.558 89.595 91.663 95.168 95.985 96.423 95.863 94.188 89.165 88.738 88.738 88.695 88.728 89.083 88.755 88.768 88.83 89.173 89.613 90.245 90.288 90.55 90.045 89.598 89.325 89.265 89.253 89.428 90.648 90.6 93.428 96.713 96.675 95.575 91.338 89.665 89.695 89.56 89.428 89.455 89.413 89.775 89.64 89.853 90.6 95.835 97.183 95.413 89.805 89.948 89.86 89.973 89.91 89.988 91.488 92.633 91.088 90.875 90.898 93.805 96.958 97.96 97.258 95.003 90.728 90.878 90.905 90.81 90.753 90.803 90.848 90.86 90.88 90.918 90.988 91.013 91.008 91.125 91.603 91.12 91.063 91.123 91.328 91.253 91.27 93.963 97.56 97.868 97.538 96.718 94.57 93.083 91.515 91.678 91.58 91.59 91.6 91.985 92.335 91.953 91.843 93.698 92.195 91.823 91.845 92.258 93.113 91.948 91.978 91.943 91.873 91.853 91.833 91.803 91.84 91.898 91.925 91.92 91.94 92.073 92.355 92.06 92.078 92.078 92.11 92.355 92.175 92.163 92.128 92.493 92.293 92.368 93.855 94.203 92.523 92.313 92.3 92.273 93.843 96.463 97.92 98.495 97.063 93.875 97.67 97.298 94.658 92.713 92.91 92.423 92.665 92.66 92.315 92.265 92.27 92.275 92.395 92.335 92.37 92.395 92.528 92.978 93.088 94.2 93.135 93.008 92.895 92.745 92.705 92.713 92.813 93.318 94.248 93.73 92.988 92.965 92.98 92.993 92.988 93.083 93.16 93.11 93.11 93.118 93.108 93.095 93.11 93.118 93.125 93.123 93.195 93.268 93.343 93.485 93.625 93.665 93.595 93.393 93.523 93.16 93.13 92.445 92.22 92.19 92.138 92.11 92.1 92.09 92.083 92.093 92.08 92.075 92.058 91.998 91.945 91.933 96.93 99.92 100.488 100.808 100.075 100.46 100.36 99.52 99.7 99.45 100.545 100.903 98.74 99.335 94.56 93.158 93.075 93.115 93.178 93.19 93.115 93.04 93.173 93.76 94.53 94.548 93.656 94.797 94.672 93.476 93.314 93.147 93.066 92.954 92.837 92.742 92.982 93.472 93.708 93.472 93.601 93.907 94.133 93.893 93.683 93.47 93.48 93.245 92.523 92.225 92.22 92.095 92.063 92.105 92.285 92.945 93.185 93.125 93.098 92.863 92.758 92.503 92.453 92.053 91.715 92.305 93.083 92.43 91.5 91.353 91.795 92.158 91.533 91.655 91.915 92.053 92.09 92.065 88.895 90.765 97.88 98.188 98.433 98.725 98.998 99.283 99.565 99.858 100.135 100.42 100.69 100.948 101.265 101.505 101.388 101.113 100.81 100.538 100.245 99.968 99.703 99.425 99.155 98.823 98.545 98.303 98.023 97.51 96.488 96.493 97.55 97.91 97.868 97.85 97.838 97.81 97.803 97.76 97.75
91.01 91.568 92.598 92.33 91.355 90.523 87.978 87.543 87.62 87.84 87.928 88.313 88.408 87.97 87.733 87.343 87.338 87.6 87.875 87.068 87.24 88.048 92.953 93.605 92.02 86.805 86.938 87.023 87.023 87.053 87.023 87.068 87.238 86.953 87.545 90.92 89.995 88.858 87.758 87.798 88.435 88.11 90.073 90.423 89.88 87.41 87.213 87.225 87.203 87.198 87.248 87.275 87.268 87.278 87.283 87.283 87.315 87.338 87.403 87.478 87.465 87.455 87.453 87.478 87.475 87.48 87.443 87.418 87.255 87.278 87.305 87.343 87.41 87.405 87.438 87.423 87.438 87.475 87.515 87.523 87.53 87.503 87.538 87.718 87.688 87.785 87.738 87.655 87.643 87.688 87.725 87.73 87.773 87.798 88.045 88.195 88.085 88.313 88.293 91.118 91.913 89.275 89.975 88.383 88.383 88.618 89.493 90.418 94.205 95.435 96.098 96.12 95.518 93.44 90.29 88.75 88.875 88.783 88.765 88.82 88.868 88.9 90.103 90.453 89.4 90.478 90.215 90.043 89.525 90.588 89.353 89.865 89.91 89.978 92.75 96.6 96.533 92.078 89.85 89.658 89.715 89.615 89.59 89.485 89.423 89.603 89.655 89.653 90.638 95.91 97.16 95.715 89.973 89.805 89.8 89.798 89.835 89.92 91.488 92.463 91.093 90.72 91.708 91.568 92.143 94.093 92.918 92.273 90.743 90.863 90.878 90.773 90.785 90.858 90.835 90.888 90.925 90.893 90.953 91 91.03 91.065 91.3 91.413 91.163 91.16 91.15 91.183 91.338 93.41 96.713 97.28 97.678 98.185 97.79 97.473 97.015 92.423 91.595 91.628 91.623 91.775 91.768 91.715 92.403 93.91 91.93 91.828 91.848 91.855 91.845 91.873 92.055 92.193 91.928 92.155 92.103 91.955 91.838 91.845 91.885 91.895 91.938 91.958 92.013 92.045 92.02 92.053 92.39 92.243 92.165 92.165 92.195 92.583 92.293 92.313 92.86 93.09 92.32 92.69 92.698 92.878 95.363 93.54 93.603 97.025 94.465 94.855 98.285 98.493 98.18 97.01 95.23 95.803 94.593 93.065 92.223 92.193 92.23 92.293 92.278 92.273 92.323 92.355 92.41 92.435 92.455 94.145 92.698 92.628 92.953 93.105 92.893 92.94 92.715 92.838 93.435 94.13 93.208 94.223 93.785 93.035 93.108 93.045 93.06 93.128 93.12 93.163 93.158 93.165 93.21 93.213 93.168 93.18 93.2 93.26 93.295 93.378 93.443 93.543 93.72 93.755 93.743 93.663 93.558 93.495 92.725 92.273 92.233 92.208 92.268 92.243 92.42 92.225 92.185 92.43 92.095 92.108 93.465 92.793 94.528 97.898 97.08 97.385 97.243 96.49 97.843 96.565 94.715 93.983 95.183 96.923 94.643 94.493 93.485 93.22 93.108 93.155 93.215 93.258 93.188 93.113 93.21 93.465 94.35 93.74 93.935 94.426 93.864 93.692 93.605 93.447 93.502 93.435 93.307 93.114 93.179 93.462 93.642 93.874 94.181 94.429 94.735 94.458 94.155 93.955 93.853 93.48 92.648 92.293 92.255 92.175 92.123 92.128 92.413 93.258 93.73 93.598 93.655 93.273 92.368 92.285 92.068 91.815 91.663 92.533 93.235 92.438 91.55 91.41 91.725 92.26 91.75 91.62 91.985 92.115 92.153 92.128 89.325 88.068 97.855 98.118 98.393 98.69 98.973 99.233 99.533 99.83 100.12 100.373 100.658 100.95 101.253 101.495 101.408 101.115 100.838 100.553 100.293 100.025 99.743 99.45 99.18 98.885 98.588 98.323 98.06 97.678 96.688 96.7 97.31 97.695 97.673 97.65 97.643 97.63 97.595 97.578 97.555
91.013 91.393 91.733 91.645 91.12 90.25 87.898 87.505 87.635 87.918 88.148 88.33 88.473 88.125 87.765 87.433 87.328 87.573 87.223 87.218 87.815 87.033 88.913 89.358 86.988 87.198 87.253 87.288 87.035 87.043 87.048 87.068 87.6 87.945 87.968 88.148 87.805 88.125 88.365 88.725 88.488 89.34 89.095 88.833 89.955 87.935 87.218 87.218 87.193 87.208 87.253 87.273 87.27 87.265 87.253 87.285 87.318 87.36 87.4 87.435 87.453 87.423 87.44 87.458 87.47 87.478 87.498 87.233 87.243 87.283 87.29 87.38 87.328 87.368 87.415 87.435 87.435 87.458 87.473 87.448 87.465 87.775 88.118 87.715 87.705 87.82 87.88 87.888 87.79 87.723 87.72 87.755 87.815 87.83 87.84 87.88 88.065 88.34 88.233 88.283 88.335 88.543 88.575 88.388 88.453 88.535 88.565 88.645 89.443 90.68 94.113 95.895 96.61 96.115 95.248 90.845 89.498 89.513 88.785 88.835 88.89 89.023 91.01 89.31 89.118 89.13 89.918 90.32 90.38 91.728 90.035 91.168 90.528 89.723 93.888 96.693 96.453 91.548 89.943 90.398 89.965 89.685 90.54 89.488 89.415 89.615 89.588 89.643 90.613 96 97.18 95.82 90.253 89.775 89.78 89.783 89.928 90.163 90.665 90.858 91.12 90.653 91.135 90.895 91.34 91.018 90.888 90.848 90.978 90.835 90.928 90.75 90.78 90.805 90.828 90.905 90.93 90.953 90.943 91.008 91.005 90.975 91.07 91.233 91.393 91.555 91.73 91.385 91.423 91.745 93.133 92.983 94.56 96.073 97.263 97.62 96.31 91.93 91.59 91.63 91.663 92.308 91.885 91.74 91.778 92.6 91.878 91.848 92.068 92.288 91.843 91.885 92.695 92.258 91.938 91.97 92.353 92.225 92.03 91.843 91.848 91.88 91.91 91.94 91.93 91.985 92.018 92.078 92.225 92.213 92.133 92.16 92.525 92.445 92.328 92.293 92.305 92.338 92.363 93.27 93.155 93.55 94.553 93.593 92.39 93.01 93.065 95.073 97.395 98.195 98.485 98.538 98.358 98.11 97.708 94.673 96.218 95.368 94.27 92.745 92.325 93.343 93.55 92.51 92.29 92.728 92.425 93.608 92.465 92.438 92.505 92.555 92.785 93.41 94.38 93.038 92.808 92.798 92.85 93.198 93.343 93.29 94.118 93.553 93.205 93.358 93.173 93.133 93.143 93.178 93.16 93.22 93.188 93.278 93.273 93.245 93.298 93.285 93.335 93.378 93.403 93.428 93.533 93.6 93.718 93.615 93.54 94.28 94.085 93.473 93.693 92.948 93.633 93.978 93.745 93.165 92.525 93.38 92.875 93.47 91.988 92.993 92.503 91.95 92.528 92.21 91.94 92.16 92.08 93.023 92.528 92.913 93.318 93.435 93.31 93.295 93.178 93.13 93.265 93.305 93.228 93.098 93.22 93.483 93.928 93.878 93.641 94.844 93.768 93.717 93.648 93.615 93.789 93.802 93.837 93.632 93.653 93.762 94.143 94.516 94.806 94.925 95.12 95.003 94.665 94.388 94.083 93.498 92.58 92.368 92.328 92.288 92.228 92.203 92.308 93.105 93.71 93.493 93.413 93.078 92.458 92.26 91.938 91.795 91.748 92.523 93.233 92.535 91.578 91.463 91.735 92.26 91.865 91.585 91.898 92.12 92.185 92.158 90.038 88.068 97.848 98.125 98.393 98.648 98.943 99.235 99.495 99.808 100.098 100.36 100.643 100.988 101.338 101.485 101.438 101.145 100.88 100.608 100.32 100.033 99.743 99.475 99.183 98.893 98.633 98.35 98.068 97.775 96.965 96.898 97.208 97.505 97.453 97.445 97.433 97.418 97.41 97.38 97.348
90.74 90.445 90.87 90.825 90.358 89.155 87.873 87.518 87.775 88.308 88.578 88.333 88.43 88.2 88.153 87.8 87.308 87.575 87.37 87.453 88.093 87.398 87.285 87.498 87.288 87.258 87.248 87.21 87.08 87.07 87.09 87.088 87.158 87.96 88.27 89.46 90.49 89.528 91.955 88.935 87.723 87.355 87.085 88.428 89.158 88.44 87.173 87.203 87.205 87.24 87.268 87.27 87.27 87.258 87.263 87.295 87.335 87.368 87.408 87.428 87.43 87.42 87.448 87.48 87.523 87.498 87.468 87.27 87.28 87.283 87.25 87.345 87.425 87.425 87.403 87.403 87.44 87.45 87.46 87.6 87.958 87.635 88.015 88.058 87.8 87.898 87.945 87.96 87.928 87.898 87.865 87.78 87.81 87.855 87.865 87.87 87.898 87.928 88.168 88.175 88.333 88.373 88.348 88.355 88.468 88.495 88.573 88.525 88.523 88.865 93.26 94.868 96.108 96.665 96.635 95.868 94.11 91.838 89.753 88.873 89.228 89.013 89.458 89.035 89.075 89.22 90.083 90.665 90.11 90.81 90.203 91.498 91.118 89.873 94.325 96.728 96.365 90.77 90.57 90.473 90.003 89.718 90.155 89.478 89.435 89.688 90.423 90.548 91.233 96.023 97.253 95.21 90.225 89.79 89.805 89.805 90.125 90.65 90.52 90.958 90.853 90.648 93.123 93.46 93.48 93.193 91.478 91.115 91.555 91.023 90.788 90.738 90.795 90.815 90.845 90.935 90.943 90.948 90.955 91.035 91.03 90.995 91.05 91.058 91.105 91.19 91.35 91.478 91.45 91.345 91.343 91.35 91.443 91.478 93.33 95.458 94.915 91.625 91.613 91.603 91.823 97.945 96.743 94.765 92.73 91.853 91.753 91.798 92.44 91.85 91.81 91.85 92.188 91.963 91.903 91.885 91.873 92.07 92.373 92.1 91.863 91.853 91.91 91.928 91.93 91.965 92.02 92.073 92.07 92.42 92.56 92.34 92.64 92.373 92.293 92.295 92.44 92.4 92.54 93.03 92.48 92.495 92.995 92.985 92.9 93.558 92.81 92.375 92.878 95.595 96.26 96.97 97.993 98.445 97.713 94.028 97.748 98.013 97.81 97.755 96.615 96.528 97.455 97.2 96.105 95.133 93.345 92.38 93.05 94.07 92.998 92.658 92.888 93.148 94.285 93.215 93.335 93.52 93.39 92.933 92.89 92.858 93.105 93.045 93.485 94.045 93.473 93.118 93.155 93.17 93.183 93.183 93.19 93.273 93.29 93.28 93.345 93.35 93.34 93.355 93.333 93.353 93.375 93.425 93.498 93.518 93.535 93.655 93.663 93.573 93.608 93.583 93.835 93.853 93.703 93.558 93.55 93.64 93.548 92.375 92.113 92.028 92.005 91.99 91.98 91.973 91.96 92.125 92.995 92.965 92.973 93.195 93.553 93.588 93.41 93.348 93.22 93.238 93.37 93.395 93.33 93.188 93.225 93.423 93.583 93.58 93.606 93.715 93.641 93.659 93.656 93.676 93.725 93.883 93.994 93.99 93.976 94.107 94.567 94.948 95.213 95.39 95.488 95.398 95.11 94.753 94.228 93.218 92.568 92.423 92.405 92.39 92.353 92.28 92.375 92.81 93.358 93.385 93.133 93.055 92.59 92.015 91.87 91.863 91.775 92.263 92.733 92.348 91.68 91.573 91.755 92.293 91.973 91.648 91.838 92.115 92.19 92.24 90.79 88.073 96.823 98.075 98.37 98.658 98.928 99.225 99.488 99.77 100.058 100.343 100.61 100.925 101.17 101.438 101.42 101.165 100.868 100.628 100.338 100.075 99.788 99.49 99.19 98.933 98.648 98.355 98.075 97.818 97.218 97.145 97.205 97.298 97.25 97.245 97.223 97.218 97.208 97.18 97.168
90.903 88.85 89.883 89.848 89.173 87.813 87.598 87.548 87.843 87.965 88.078 88.14 88.203 88.138 87.738 87.935 87.315 87.373 87.483 87.443 87.395 87.23 87.263 87.235 87.215 87.173 87.205 87.173 87.128 87.08 87.125 87.118 87.283 88.87 88.833 89.39 93.848 94.44 92.865 89.508 88.593 87.87 87.345 87.88 89.113 89.583 87.205 87.183 87.215 87.26 87.293 87.288 87.27 87.268 87.255 87.31 87.333 87.373 87.385 87.413 87.43 87.455 87.5 87.508 87.508 87.403 87.31 87.288 87.285 87.255 87.383 87.475 87.475 87.76 88.433 87.658 87.75 87.76 88.418 87.8 87.728 87.675 87.778 88.22 87.905 87.935 88.005 88.005 88.005 88.008 88.033 87.955 87.885 87.87 87.888 87.918 87.92 87.948 87.935 88.053 88.225 88.3 88.223 88.368 88.505 88.513 88.54 88.52 88.515 89.203 90.808 91.358 93.85 95.595 96.493 97.013 96.393 95.585 92.983 89.635 89.358 88.958 88.975 89.055 89.09 89.353 89.473 89.66 89.815 91.253 90.033 90.108 90.135 90.303 93.95 96.938 96.383 91.665 90.705 90.925 90.585 89.943 89.45 89.47 89.425 89.698 89.803 90.225 91.215 96.178 97.3 94.458 90.345 89.843 89.975 89.895 90.095 90.163 90.443 90.808 90.673 91.155 95.99 97.425 98.203 97.273 94.878 90.938 90.81 90.885 90.968 91.155 90.815 90.848 90.848 90.88 90.913 90.935 90.988 91.048 91.055 91.038 91.048 91.07 91.085 91.543 92.053 91.473 91.393 91.588 91.738 91.493 91.435 91.448 91.465 91.73 91.765 91.595 91.6 91.648 94.123 98.443 98.273 98.168 97.82 97.335 95.425 92.69 91.81 91.795 91.778 91.77 91.83 91.815 91.838 92.015 91.883 91.96 92.833 92.115 91.973 91.858 91.905 91.93 91.933 91.973 91.988 92.035 92.073 92.4 92.248 93 93.468 93.523 92.538 92.743 92.39 93.165 93.905 92.52 92.435 92.503 93.248 93.105 93.858 93.883 93.2 92.408 92.62 94.623 93.84 92.463 93.298 96.125 96.298 93.313 97.755 98.36 98.51 98.748 98.6 98.543 98.33 98.325 98.295 98.16 98.065 97.42 97.01 97.683 97.535 94.775 93.56 93.408 92.7 92.683 92.983 93.333 93.805 94.035 93.303 93.1 93.105 92.925 92.96 93.05 93.075 93.118 93.228 93.23 93.238 93.22 93.2 93.268 93.208 93.288 93.303 93.33 93.338 93.41 93.37 93.388 93.425 93.408 93.448 93.46 93.458 93.52 93.56 93.64 93.65 93.665 93.79 93.933 93.84 93.96 93.883 93.755 93.723 93.463 93.255 93.095 92.665 92.378 92.09 92.72 93.153 93.415 93.458 93.475 93.333 93.603 93.71 93.563 93.453 93.348 93.288 93.333 93.493 93.485 93.373 93.28 93.325 93.468 93.553 93.627 93.615 93.671 93.669 93.654 93.651 93.644 93.685 93.797 93.899 94.073 93.964 94.219 94.963 95.355 95.564 95.683 95.695 95.478 95.193 94.825 94.198 93.093 92.653 92.528 92.465 92.408 92.37 92.383 92.435 92.555 92.625 92.72 92.715 92.843 92.478 91.958 91.93 91.933 91.823 91.85 92.195 92.31 91.868 91.635 91.718 92.388 92.09 91.66 91.855 92.105 92.268 92.325 91.268 88.083 93.768 98.063 98.328 98.615 98.913 99.185 99.46 99.773 100.03 100.308 100.58 100.865 101.133 101.423 101.433 101.178 100.893 100.62 100.363 100.075 99.805 99.513 99.213 98.975 98.683 98.393 98.128 97.81 97.368 97.233 97.12 97.098 97.06 97.053 97.03 97.02 97.01 96.998 96.96
90.823 88.383 88.033 88.028 87.533 87.705 87.818 87.578 87.605 87.68 87.745 87.82 87.908 87.66 87.648 88.368 87.23 87.2 87.205 87.26 87.22 87.185 87.185 87.138 87.175 87.205 87.208 87.193 87.203 87.113 87.155 87.138 87.18 88.658 89.1 89.23 93.29 95.108 93.753 89.493 88.198 89.08 87.773 88.008 89.603 90.685 88.4 87.268 87.28 87.325 87.325 87.298 87.275 87.25 87.225 87.39 87.348 87.56 87.47 87.368 87.403 87.463 87.51 87.55 87.613 87.408 87.308 87.323 87.295 87.303 87.533 87.423 87.485 87.74 89.36 87.768 87.593 87.733 89.143 87.968 87.805 87.785 87.8 88.628 88.005 88.05 89.713 90.195 88.218 88.083 88.068 88.043 88.133 88.08 87.955 87.92 87.95 87.995 87.985 88.015 88.038 88.238 88.255 88.445 88.465 88.61 88.668 88.535 88.565 89.848 89.288 89.323 89.333 92.875 94.368 95.845 96.48 96.688 95.97 94.525 92.49 89.9 88.96 89.01 89.44 89.293 89.32 89.318 89.53 89.65 89.425 89.46 89.475 89.52 94.43 96.858 96.18 90.218 90.528 89.963 91.355 89.8 89.455 89.448 89.428 89.98 89.633 89.633 91.408 96.253 97.095 93.723 89.785 89.77 89.85 89.938 90.025 90.115 91.08 91.18 90.925 90.848 95.898 97.498 98.23 97.21 95.005 91.193 90.833 90.888 91.09 91.965 90.79 90.828 90.833 90.908 90.928 91.058 91.108 91.13 91.118 91.06 91.025 91.065 91.105 91.203 91.453 91.343 91.178 91.21 91.255 91.383 91.47 91.458 91.703 91.93 91.588 91.563 91.598 91.64 93.085 95.6 97.023 97.893 98.21 98.283 98.055 97.2 95.673 93.488 91.89 91.815 91.833 91.785 91.778 91.933 92.038 91.933 92.05 91.918 91.948 91.95 91.948 91.965 91.975 91.995 92.018 92.06 92.053 92.083 92.103 92.128 92.233 92.59 92.758 92.933 92.413 93.25 92.848 92.39 92.418 92.453 92.48 92.76 92.918 93.093 93.3 93.478 92.6 92.7 92.295 92.323 92.305 92.24 93.185 92.558 94.64 95.273 96.593 97.473 97.793 97.965 97.935 97.96 98.24 98.43 98.54 98.783 98.48 98.47 97.543 94.68 96.373 96.728 96.505 94.003 92.943 92.81 93.505 93.575 92.705 92.858 92.95 92.92 92.978 92.938 93.02 93.038 93.07 93.138 93.213 93.24 93.253 93.21 93.23 93.275 93.283 93.273 93.305 93.335 93.385 93.415 93.425 93.438 93.503 93.503 93.503 93.508 93.52 93.543 93.585 93.59 93.655 93.695 93.7 93.79 93.848 93.848 93.833 93.783 93.748 93.675 93.638 93.595 93.52 93.883 93.85 93.745 93.763 93.785 93.61 93.82 93.713 93.513 93.458 93.383 93.375 93.313 93.53 93.513 93.43 93.343 93.358 93.528 93.623 93.646 93.653 93.672 93.711 93.7 93.651 93.652 93.678 93.728 93.811 94.06 93.923 94.159 94.775 95.245 95.458 95.458 95.433 95.238 94.848 94.56 93.988 93.038 92.695 92.605 92.468 92.45 92.395 92.425 92.463 92.555 92.413 92.303 92.258 92.225 92.093 91.99 92.028 92.038 92.225 92.54 92.74 92.708 92.018 91.703 91.73 92.333 92.17 91.653 91.823 92.198 92.298 92.413 91.785 88.128 93.708 98.028 98.318 98.558 98.848 99.138 99.44 99.735 100.025 100.3 100.575 100.835 101.13 101.39 101.473 101.213 100.933 100.658 100.418 100.098 99.825 99.563 99.27 99.023 98.72 98.38 98.128 97.865 97.12 96.93 96.913 96.89 96.863 96.848 96.83 96.813 96.808 96.8 96.77
