ncols 451
nrows 31
xllcorner    429004
yllcorner    540666
cellsize     2
NODATA_value -9999
49.628 46.438 46.088 45.863 45.861 45.868 45.778 46.043 47.702 51.983 51.921 54.213 58.991 56.066 53.498 48.861 50.281 48.076 53.671 52.426 55.321 53.216 48.378 48.418 48.513 53.343 56.188 57.156 55.883 51.232 49.776 48.838 48.471 48.928 48.84 48.563 48.906 48.636 49.454 52.801 57.633 58.431 58.726 57.742 52.394 49.688 50.993 51.618 49.803 49.826 50.568 50.754 57.633 53.132 57.261 55.161 51.135 50.638 54.381 60.412 61.457 62.191 60.238 50.575 51.931 51.128 56.595 62.283 68.652 69.491 68.628 53.847 50.493 50.511 50.44 50.411 50.421 50.534 50.548 52.736 50.828 51.723 52.973 55.561 58.501 58.589 58.453 59.071 59.181 58.566 59.088 59.661 59.025 59.176 59.656 54.013 52.126 52.153 52.206 52.226 52.248 52.876 54.716 54.693 54.738 63.905 62.675 58.238 60.026 52.558 51.784 53.998 58.757 55.412 51.263 51.315 51.318 51.338 51.441 51.493 51.558 52.573 52.327 52.233 53.233 57.678 58.811 58.141 57.873 56.431 55.717 55.949 56.888 55.923 54.19 54.166 54.113 56.061 57.633 59.194 59.426 57.515 54.463 54.248 54.482 54.638 54.998 55.363 55.741 55.818 55.921 55.98 56.311 58.071 59.741 61.566 59.11 59.073 59.335 59.729 60.113 60.479 61.011 61.756 64.313 64.578 63.801 63.492 64.128 64.573 64.958 65.123 65.138 65.153 65.236 65.201 65.279 65.374 65.468 65.613 65.494 65.333 65.273 64.97 64.778 64.496 64.322 63.885 63.871 63.841 63.531 63.308 63.348 63.598 63.766 64.137 63.949 63.766 63.85 64.365 66.013 66.424 64.71 63.833 64.145 64.293 64.66 64.885 65.312 65.775 66.072 66.369 66.637 66.939 67.18 67.381 67.664 68.095 68.433 68.728 69.232 69.473 69.824 70.002 70.231 70.521 70.817 70.931 71.05 71.191 71.333 72.183 73.388 72.059 72.144 72.325 72.393 -9999 -9999 -9999 -9999 -9999 -9999 -9999 -9999 -9999 -9999 -9999 -9999 -9999 -9999 -9999 -9999 -9999 -9999 -9999 -9999 -9999 -9999 -9999 -9999 -9999 -9999 -9999 -9999 -9999 -9999 -9999 -9999 -9999 -9999 -9999 -9999 -9999 -9999 -9999 -9999 -9999 -9999 -9999 -9999 -9999 -9999 -9999 -9999 -9999 -9999 -9999 -9999 -9999 -9999 -9999 -9999 -9999 -9999 -9999 -9999 -9999 -9999 -9999 -9999 -9999 -9999 -9999 -9999 -9999 -9999 -9999 -9999 -9999 -9999 -9999 -9999 -9999 -9999 -9999 -9999 -9999 -9999 -9999 -9999 -9999 -9999 -9999 -9999 -9999 -9999 -9999 -9999 -9999 -9999 -9999 -9999 -9999 91.394 91.279 90.917 90.902 90.667 90.512 90.339 90.517 90.347 90.139 90.372 90.084 90.129 91.109 90.149 90.022 90.102 90.247 90.034 90.032 90.042 89.989 89.979 89.959 89.934 89.907 89.892 89.852 89.819 89.757 89.712 89.664 89.602 89.589 89.557 89.512 89.482 89.404 89.307 89.317 89.379 89.457 89.732 89.172 89.149 89.177 90.134 93.724 94.384 95.034 94.709 94.017 93.629 94.382 95.187 95.944 95.549 94.732 94.312 94.829 94.932 95.004 95.042 95.142 95.137 95.142 95.177 95.159 95.209 95.262 93.632 91.964 91.004 88.847 88.739 88.689 88.697 88.679 88.694 89.257 88.724 88.739 90.867 91.332 89.722 88.512 88.414 88.214 88.012 87.817 87.604 87.512 87.349 88.302 87.399 86.982 86.767 86.622 86.477 86.364 86.237 86.092 85.989 85.839 85.774 85.647 85.534 85.464 85.502 85.422 85.267 85.087 84.929 84.724 84.492 84.249 83.977
48.526 48.128 49.551 49.038 46.111 48.161 46.923 48.148 49.593 53.662 51.285 49.166 53.106 53.951 54.418 48.569 48.076 48.146 48.216 49.998 50.648 48.391 48.451 48.506 48.553 53.226 56.675 57.043 55.906 52.293 49.229 48.776 48.523 48.588 48.609 48.608 48.631 48.688 50.086 51.121 57.171 58.351 58.296 57.928 50.476 49.781 50.113 50.094 52.672 54.337 52.577 50.422 50.657 50.021 50.133 50.448 50.247 50.304 53.401 59.269 60.721 60.736 56.85 50.776 53.966 57.816 59.782 65.026 70.543 70.703 68.223 61.535 50.533 50.576 50.54 50.567 50.551 50.538 50.738 50.936 51.225 50.998 51.206 52.688 59.406 59.503 59.478 59.373 59.248 59.359 59.338 59.246 59.236 59.276 59.171 55.613 52.636 52.146 52.173 52.211 52.253 52.223 52.843 53.508 54.676 56.808 61.796 59.394 55.521 54.093 53.508 56.783 60.126 56.506 51.266 51.346 51.383 51.421 51.458 51.496 51.523 51.861 52.543 52.044 53.713 58.123 58.565 59.506 59.051 58.866 57.987 57.438 57.468 58.497 57.283 55.102 53.928 55.324 58.388 59.643 59.668 58.76 54.056 53.951 54.358 54.499 54.713 54.911 55.353 55.001 55.022 55.906 55.921 56.481 58.186 61.143 60.099 58.851 59.153 59.542 59.933 60.316 60.726 61.343 62.246 63.063 63.718 63.3 63.8 64.297 64.645 64.808 64.843 64.893 64.894 64.851 64.825 64.995 64.954 64.992 64.877 64.688 64.391 64.38 64.19 63.888 63.576 63.417 63.343 63.248 63.097 62.855 62.761 63.068 64.435 63.723 63.429 63.26 63.248 63.227 64.2 64.772 64.01 63.48 63.826 64.078 64.302 64.703 65.188 65.784 65.911 66.157 66.533 66.783 66.96 67.204 67.526 67.991 68.322 68.653 69.104 69.389 69.669 69.851 70.069 70.301 70.549 70.766 70.944 71.141 71.26 71.542 72.739 71.838 72.052 72.146 72.153 -9999 -9999 -9999 -9999 -9999 -9999 -9999 -9999 -9999 -9999 -9999 -9999 -9999 -9999 -9999 -9999 -9999 -9999 -9999 -9999 -9999 -9999 -9999 -9999 -9999 -9999 -9999 -9999 -9999 -9999 -9999 -9999 -9999 -9999 -9999 -9999 -9999 -9999 -9999 -9999 -9999 -9999 -9999 -9999 -9999 -9999 -9999 -9999 -9999 -9999 -9999 -9999 -9999 -9999 -9999 -9999 -9999 -9999 -9999 -9999 -9999 -9999 -9999 -9999 -9999 -9999 -9999 -9999 -9999 -9999 -9999 -9999 -9999 -9999 -9999 -9999 -9999 -9999 -9999 -9999 -9999 -9999 -9999 -9999 -9999 -9999 -9999 -9999 -9999 -9999 -9999 -9999 -9999 -9999 -9999 -9999 -9999 90.422 90.412 90.419 90.537 90.424 90.564 90.759 90.917 90.959 91.029 91.167 91.214 91.117 90.714 90.979 90.179 90.192 90.227 90.189 90.192 90.144 90.049 90.034 89.999 89.959 89.902 89.879 89.869 89.817 89.749 89.717 89.699 89.729 89.664 89.682 89.687 89.639 89.584 89.619 89.677 89.794 89.477 89.332 89.269 89.209 89.252 91.279 93.664 94.332 94.977 94.754 94.087 93.552 94.287 95.124 95.874 95.614 94.772 94.287 95.272 95.224 95.239 95.222 95.169 95.147 95.159 95.134 95.129 95.067 95.009 93.539 92.004 90.989 88.787 88.764 88.712 91.742 95.112 94.439 91.294 90.929 90.834 91.444 91.399 88.694 88.434 88.304 88.132 88.099 88.017 87.587 87.522 87.447 88.067 87.374 87.012 86.779 86.599 86.459 86.339 86.194 86.052 85.964 85.864 85.787 85.659 85.504 85.414 85.397 85.357 85.222 85.057 84.874 84.662 84.412 84.149 83.872
50.872 49.216 49.911 48.353 45.941 46.862 46.004 48.807 50.684 55.936 54.109 53.957 53.173 52.883 54.486 48.818 48.133 48.218 48.268 48.331 48.353 48.418 48.453 48.536 50.569 54.918 56.429 57.191 55.421 49.252 48.497 48.481 48.531 48.561 48.557 48.566 48.626 53.067 50.01 57.863 58.738 57.898 57.806 54.156 50.309 49.797 49.809 52.826 55.546 54.556 55.833 55.326 51.422 50.633 50.226 50.394 51.751 50.538 50.312 52.233 55.755 54.596 54.069 54.702 62.894 62.758 55.839 52.574 65.968 70.658 63.476 51.766 51.736 52.328 50.926 50.94 53.688 51.218 50.893 53.637 53.915 51.668 51.411 52.268 58.726 58.796 58.861 58.746 58.613 58.744 58.681 58.578 58.481 58.631 58.536 55.848 53.524 52.211 52.203 52.208 52.203 52.246 52.282 52.317 53.498 53.303 52.791 52.693 53.729 53.296 55.286 55.68 60.706 59.411 51.291 51.296 51.382 51.428 51.493 51.499 51.553 52.286 52.428 51.768 51.938 53.141 55.228 58.186 58.503 58.753 59.008 58.276 60.258 59.759 59.041 56.357 52.82 56.022 58.691 59.801 59.489 56.471 53.761 53.808 54.268 54.353 54.411 54.406 54.15 56.743 58.515 57.667 55.323 56.131 57.601 60.659 60.266 58.631 58.968 59.329 59.79 60.131 60.475 60.859 63.501 65.104 63.298 63.041 63.436 63.98 64.337 64.557 64.643 64.598 64.589 64.499 65.346 66.359 65.658 66.628 65.179 64.141 63.856 63.702 63.576 63.306 63.013 62.955 62.732 62.548 62.519 62.376 62.243 62.263 63.361 62.723 62.81 62.713 62.641 62.613 62.774 62.74 62.905 63.189 63.595 64.023 64.15 64.484 64.895 65.436 65.813 66.192 66.522 66.973 66.811 67.117 67.386 67.849 68.3 68.681 69.02 69.342 69.502 69.766 69.97 70.132 70.358 70.667 70.824 71.001 71.194 71.376 71.571 71.736 72.026 72.076 72.079 -9999 -9999 -9999 -9999 -9999 -9999 -9999 -9999 -9999 -9999 -9999 -9999 -9999 -9999 -9999 -9999 -9999 -9999 -9999 -9999 -9999 -9999 -9999 -9999 -9999 -9999 -9999 -9999 -9999 -9999 -9999 -9999 -9999 -9999 -9999 -9999 -9999 -9999 -9999 -9999 -9999 -9999 -9999 -9999 -9999 -9999 -9999 -9999 -9999 -9999 -9999 -9999 -9999 -9999 -9999 -9999 -9999 -9999 -9999 -9999 -9999 -9999 -9999 -9999 -9999 -9999 -9999 -9999 -9999 -9999 -9999 -9999 -9999 -9999 -9999 -9999 -9999 -9999 -9999 -9999 -9999 -9999 -9999 -9999 -9999 -9999 -9999 -9999 -9999 -9999 -9999 -9999 -9999 -9999 -9999 -9999 -9999 90.464 90.494 90.437 90.444 90.429 90.394 90.387 90.379 90.347 90.364 90.332 90.337 90.352 90.354 90.337 90.269 90.212 90.219 90.259 90.224 90.187 90.162 90.137 90.124 90.119 90.009 90.007 89.914 89.844 89.842 89.782 89.694 89.722 89.799 89.867 89.829 89.702 89.722 89.767 89.754 89.744 89.529 89.297 89.234 89.237 89.234 90.389 93.634 94.277 94.957 94.807 94.149 93.497 94.184 95.032 95.807 95.667 94.847 94.089 94.677 94.632 94.529 94.507 94.424 94.292 94.167 94.119 94.047 93.944 93.839 90.817 89.662 89.259 88.799 88.812 88.829 92.549 95.244 94.707 93.599 92.904 92.327 92.119 92.674 90.009 88.562 88.259 88.244 88.089 87.939 87.544 87.487 87.342 87.357 87.074 86.934 86.744 86.579 86.419 86.277 86.149 86.022 85.904 85.799 85.712 85.594 85.417 85.329 85.277 85.202 85.077 84.894 84.734 84.517 84.289 84.069 83.877
52.478 48.294 49.769 48.278 45.996 46.005 46.188 48.168 47.275 55.726 51.986 57.088 57.961 57.071 54.856 50.361 48.146 48.228 48.298 48.345 48.406 48.418 48.466 48.547 50.135 53.918 56.832 56.758 55.403 49.393 48.503 48.496 48.538 48.548 48.568 49.095 56.678 57.041 56.461 54.598 56.558 57.911 58.658 55.298 50.463 50.039 54.513 65.906 58.291 52.526 57.846 61.988 55.541 52.715 51.796 51.673 52.567 54.222 51.405 50.644 50.521 50.511 51.358 53.478 61.434 63.757 65.525 53.534 66.054 69.509 59.005 52.405 53.755 52.906 53.238 54.086 52.287 53.584 53.122 57.816 57.908 54.371 53.269 52.851 58.156 58.086 58.203 58.091 57.973 58.158 58.043 57.958 57.891 57.993 57.903 57.465 53.254 52.293 52.203 52.408 53.013 52.691 52.321 52.353 52.368 52.388 52.413 52.528 52.983 55.041 56.578 58.723 59.393 55.611 51.466 51.861 51.376 51.462 51.513 51.573 51.601 51.631 51.681 51.707 51.728 51.871 52.247 52.463 54.916 55.698 58.276 59.308 59.598 59.944 60.213 58.071 53.52 58.652 58.981 59.698 59.004 59.011 57.256 53.728 54.141 54.224 54.221 54.083 54.651 56.898 57.137 55.196 55.042 55.803 56.071 57.931 60.513 58.672 58.883 59.216 59.614 59.996 60.381 60.76 63.363 66.903 64.928 63.056 63.204 63.688 63.966 64.23 64.266 64.156 64.351 67.978 68.903 68.995 69.637 68.345 66.733 63.336 63.366 63.193 62.818 62.658 62.448 62.339 62.261 62.076 61.928 61.923 61.904 61.818 62.027 62.165 62.113 62.172 62.086 62.123 62.26 62.335 62.551 62.865 63.421 63.673 64.056 64.393 64.812 65.317 65.841 66.169 66.506 66.753 66.827 67.051 67.376 67.797 68.284 68.662 68.958 69.178 69.471 69.703 69.961 70.192 70.326 70.595 70.777 70.942 71.184 71.44 71.602 71.768 71.869 72.021 72.012 -9999 -9999 -9999 -9999 -9999 -9999 -9999 -9999 -9999 -9999 -9999 -9999 -9999 -9999 -9999 -9999 -9999 -9999 -9999 -9999 -9999 -9999 -9999 -9999 -9999 -9999 -9999 -9999 -9999 -9999 -9999 -9999 -9999 -9999 -9999 -9999 -9999 -9999 -9999 -9999 -9999 -9999 -9999 -9999 -9999 -9999 -9999 -9999 -9999 -9999 -9999 -9999 -9999 -9999 -9999 -9999 -9999 -9999 -9999 -9999 -9999 -9999 -9999 -9999 -9999 -9999 -9999 -9999 -9999 -9999 -9999 -9999 -9999 -9999 -9999 -9999 -9999 -9999 -9999 -9999 -9999 -9999 -9999 -9999 -9999 -9999 -9999 -9999 -9999 -9999 -9999 -9999 -9999 -9999 -9999 -9999 -9999 90.264 90.232 90.242 90.309 90.314 90.359 90.379 90.412 90.349 90.384 90.412 90.409 90.537 90.427 90.427 90.387 90.339 90.312 90.292 90.187 90.124 90.074 89.992 89.977 89.904 89.829 89.822 89.757 89.734 89.689 89.647 89.579 89.549 89.759 90.464 90.089 89.702 89.682 89.777 89.834 89.677 89.412 89.217 89.229 89.262 89.254 89.692 93.507 94.242 94.914 94.864 94.217 93.634 94.134 94.959 95.777 95.727 94.929 94.097 93.629 93.607 93.567 93.504 93.497 93.482 93.457 93.429 93.359 93.304 93.287 91.114 88.897 88.839 88.799 88.817 89.587 93.789 95.257 94.599 93.509 92.834 92.227 92.034 92.594 90.622 89.607 88.949 88.097 88.009 87.662 87.519 87.434 87.357 87.212 87.029 86.829 86.717 86.559 86.447 86.307 86.102 85.989 85.864 85.734 85.677 85.552 85.412 85.309 85.239 85.167 85.087 84.907 84.747 84.547 84.359 84.134 83.892
49.781 48.653 48.578 46.832 46.071 46.107 46.929 49.283 49.787 51.171 53.478 55.411 51.766 52.668 50.483 48.856 48.093 48.218 48.303 48.376 48.443 48.493 48.491 48.592 49.246 51.956 55.238 57.588 55.536 49.541 48.511 48.518 48.551 48.568 48.579 48.615 55.948 55.966 55.928 58.051 55.99 58.546 57.606 54.177 51.328 51.008 62.636 68.703 62.278 59.965 63.555 63.647 56.003 52.236 51.292 50.353 51.898 54.298 54.398 50.974 50.566 50.606 50.704 52.063 60.886 64.008 66.563 65.86 68.734 69.221 59.033 55.61 54.804 55.436 56.66 53.501 52.879 53.661 53.368 52.661 52.636 51.546 51.531 52.502 55.631 54.841 56.231 56.106 54.801 53.943 56.318 55.933 55.078 57.068 55.594 53.906 52.176 53.653 52.843 52.49 53.363 52.927 52.488 52.816 54.156 52.744 52.478 52.531 53.083 54.968 54.976 57.096 58.058 55.998 53.178 55.333 58.995 53.231 51.501 51.566 51.653 51.698 51.741 51.726 51.738 51.806 52.011 52.123 52.161 52.447 54.607 56.908 58.441 58.706 59.641 56.445 56.731 59.706 59.486 59.652 58.936 59.036 58.54 58.113 54.336 54.083 54.116 56.718 58.518 59.591 56.856 54.133 55.433 55.678 55.733 55.822 58.726 58.496 58.738 59.053 59.459 59.858 60.203 60.574 60.966 64.021 65.435 64.043 62.708 63.047 63.463 63.536 64.211 64.284 66.821 70.312 70.567 71.486 70.494 70.176 66.658 62.703 63.12 63.786 62.009 62.044 62.001 61.871 61.87 61.734 61.666 61.661 61.603 61.523 61.648 61.709 61.658 61.772 61.862 61.707 61.788 62.049 62.383 62.589 62.977 63.446 63.746 64.262 64.756 65.237 65.874 66.183 66.502 66.732 66.897 67.131 67.402 67.811 68.228 68.591 68.847 69.087 69.328 69.595 69.886 70.079 70.309 70.619 70.831 71.046 71.237 71.478 71.638 71.828 72.058 72.088 72.148 -9999 -9999 -9999 -9999 -9999 -9999 -9999 -9999 -9999 -9999 -9999 -9999 -9999 -9999 -9999 -9999 -9999 -9999 -9999 -9999 -9999 -9999 -9999 -9999 -9999 -9999 -9999 -9999 -9999 -9999 -9999 -9999 -9999 -9999 -9999 -9999 -9999 -9999 -9999 -9999 -9999 -9999 -9999 -9999 -9999 -9999 -9999 -9999 -9999 -9999 -9999 -9999 -9999 -9999 -9999 -9999 -9999 -9999 -9999 -9999 -9999 -9999 -9999 -9999 -9999 -9999 -9999 -9999 -9999 -9999 -9999 -9999 -9999 -9999 -9999 -9999 -9999 -9999 -9999 -9999 -9999 -9999 -9999 -9999 -9999 -9999 -9999 -9999 -9999 -9999 -9999 -9999 -9999 -9999 -9999 -9999 -9999 -9999 90.282 90.294 90.257 90.257 90.267 90.267 90.217 90.214 90.212 90.199 90.219 90.247 90.242 90.247 90.164 90.177 90.117 90.119 90.077 90.042 89.974 89.959 89.917 89.924 89.894 89.879 89.832 89.817 89.799 89.732 89.654 89.547 89.742 89.949 89.927 89.847 89.764 89.912 90.224 89.819 89.489 89.289 89.309 89.342 89.477 89.724 93.282 94.192 94.862 94.952 94.259 93.599 94.084 94.894 95.714 95.762 94.982 94.154 93.284 93.247 93.194 93.167 93.182 93.137 93.099 93.069 93.022 93.039 92.987 91.779 88.907 88.867 88.869 88.859 89.639 93.917 95.234 94.497 93.459 92.789 92.182 91.962 92.542 91.229 90.737 89.239 88.142 88.014 88.329 87.562 87.432 87.334 87.142 86.994 86.812 86.682 86.564 86.582 86.339 86.117 85.999 85.904 85.762 85.672 85.567 85.477 85.389 85.289 85.247 85.137 84.989 84.817 84.617 84.417 84.169 83.917
48.104 46.463 46.136 46.106 46.108 46.128 47.198 50.716 49.831 49.778 49.001 47.403 47.523 47.741 49.059 48.08 48.068 48.128 48.228 48.351 48.422 48.511 48.538 49.801 50.119 50.173 49.216 48.486 53.645 50.373 48.578 48.987 48.498 48.608 48.629 48.704 48.771 51.383 54.026 55.833 55.089 56.869 57.776 55.069 53.693 50.537 58.763 65.391 59.971 62.281 66.204 63.436 50.301 51.145 55.678 50.988 51.997 56.636 54.818 50.491 50.561 50.588 50.558 51.037 60.852 65.843 65.488 66.341 63.936 62.527 56.158 54.95 53.789 51.848 52.173 52.668 52.075 51.416 51.381 51.376 51.403 51.616 52.011 53.257 52.676 52.741 52.866 53.541 52.351 52.381 52.151 52.651 53.316 56.256 54.788 56.246 57.646 57.636 59.933 58.708 57.629 53.406 53.371 52.396 52.928 53.818 52.721 52.566 52.608 53.228 54.391 55.163 55.193 55.168 56.126 56.247 53.506 52.669 56.445 55.02 51.631 51.709 51.759 51.764 51.818 51.851 52.76 52.505 52.111 52.249 52.478 52.586 53.791 55.499 56.236 55.067 56.296 60.074 60.411 60.328 59.819 59.268 59.871 60.166 54.284 53.991 54.415 57.903 60.138 59.881 58.801 54.761 55.051 55.563 55.651 58.531 57.601 59.07 58.506 58.901 59.235 59.661 59.978 60.333 60.656 62.133 67.078 64.843 62.756 64.075 65.529 66.501 67.94 69.495 70.322 70.918 70.704 71.413 70.991 70.068 66.818 62.327 62.118 62.499 61.535 61.487 61.576 61.443 61.361 61.374 61.379 61.283 61.297 61.302 61.291 61.293 61.212 61.121 61.403 61.34 61.438 61.592 61.934 62.266 62.731 63.123 63.638 64.156 64.729 65.132 65.733 66.053 66.451 66.675 66.949 67.193 67.488 67.748 68.126 68.563 68.828 69.063 69.317 69.512 69.745 70.032 70.317 70.588 70.805 71.056 71.29 71.492 71.685 71.949 72.18 72.326 72.28 -9999 -9999 -9999 -9999 -9999 -9999 -9999 -9999 -9999 -9999 -9999 -9999 -9999 -9999 -9999 -9999 -9999 -9999 -9999 -9999 -9999 -9999 -9999 -9999 -9999 -9999 -9999 -9999 -9999 -9999 -9999 -9999 -9999 -9999 -9999 -9999 -9999 -9999 -9999 -9999 -9999 -9999 -9999 -9999 -9999 -9999 -9999 -9999 -9999 -9999 -9999 -9999 -9999 -9999 -9999 -9999 -9999 -9999 -9999 -9999 -9999 -9999 -9999 -9999 -9999 -9999 -9999 -9999 -9999 -9999 -9999 -9999 -9999 -9999 -9999 -9999 -9999 -9999 -9999 -9999 -9999 -9999 -9999 -9999 -9999 -9999 -9999 -9999 -9999 -9999 -9999 -9999 -9999 -9999 -9999 -9999 -9999 -9999 90.237 90.292 90.309 90.294 90.279 90.282 90.279 90.314 90.294 90.307 90.347 90.374 90.352 90.332 90.292 90.267 90.259 90.207 90.137 90.114 90.099 90.044 90.044 90.012 89.964 89.937 89.874 89.832 89.794 89.774 89.724 89.607 89.729 89.827 89.972 89.959 89.892 89.807 90.149 90.029 89.592 89.394 89.287 89.309 89.637 90.337 93.469 94.124 94.839 94.977 94.332 93.647 93.964 94.852 95.664 95.842 95.059 94.249 93.062 92.877 92.889 92.839 92.812 92.797 92.737 92.734 92.202 92.399 92.202 91.227 88.997 88.917 88.909 88.907 89.572 94.352 95.244 94.354 93.724 92.704 92.047 91.934 92.237 90.444 89.509 89.224 88.214 88.047 88.167 87.574 87.344 87.299 87.119 86.974 86.819 86.657 86.542 86.512 86.304 86.174 86.049 85.917 85.792 85.689 85.592 85.487 85.379 85.267 85.214 85.154 84.992 84.782 84.572 84.344 84.072 83.837
45.583 45.976 46.068 46.083 46.158 47.064 48.851 50.6 48.898 48.87 50.321 49.361 49.826 48.593 47.943 48.012 48.053 48.116 48.186 48.269 48.368 48.398 48.498 48.876 52.468 52.234 54.711 60.836 60.464 57.418 55.95 58.973 56.132 53.981 50.25 50.931 48.853 48.908 49.699 52.501 53.883 53.021 55.386 51.316 49.946 52.958 55.206 55.408 54.011 59.287 67.585 66.951 61.526 56.119 50.306 50.971 52.27 54.331 53.698 50.422 51.2 50.504 50.592 50.596 60.17 64.328 66.645 67.868 67.153 64.406 64.668 57.259 53.791 52.226 51.106 51.476 51.316 51.346 51.331 51.386 51.394 51.508 52.989 53.719 52.173 52.213 53.141 52.135 52.138 52.181 52.22 52.255 52.293 52.273 53.019 54.288 58.431 59.023 59.723 58.764 58.133 53.422 52.376 52.373 52.458 53.578 53.881 52.624 52.581 52.631 52.668 53.328 55.173 55.163 55.963 56.876 56.833 60.997 61.728 60.075 51.593 51.696 51.746 51.771 51.841 51.919 51.864 51.878 52.476 52.949 52.353 52.503 52.483 52.591 52.556 53.233 57.016 59.01 59.746 59.888 60.161 60.252 60.291 59.582 53.853 53.993 54.348 56.841 59.384 60.371 60.333 56.053 54.634 55.526 55.608 55.988 57.017 58.453 58.456 58.801 59.078 59.412 59.756 60.038 60.472 61.743 64.903 64.347 65.043 66.991 67.867 71.562 70.762 70.799 71.408 69.671 68.056 63.892 69.733 69.518 67.789 62.168 61.788 61.18 61.011 60.983 61.092 61.1 60.946 60.98 60.992 60.813 60.843 60.87 60.853 60.728 60.8 60.597 60.924 60.955 60.79 61.216 61.583 62.162 62.542 63.001 63.548 64.004 64.479 65.057 65.56 65.901 66.278 66.61 66.866 67.106 67.443 67.703 68.052 68.344 68.762 69.097 69.321 69.566 69.783 70.047 70.292 70.496 70.702 71.107 71.346 71.556 71.758 71.992 72.237 72.324 72.32 -9999 -9999 -9999 -9999 -9999 -9999 -9999 -9999 -9999 -9999 -9999 -9999 -9999 -9999 -9999 -9999 -9999 -9999 -9999 -9999 -9999 -9999 -9999 -9999 -9999 -9999 -9999 -9999 -9999 -9999 -9999 -9999 -9999 -9999 -9999 -9999 -9999 -9999 -9999 -9999 -9999 -9999 -9999 -9999 -9999 -9999 -9999 -9999 -9999 -9999 -9999 -9999 -9999 -9999 -9999 -9999 -9999 -9999 -9999 -9999 -9999 -9999 -9999 -9999 -9999 -9999 -9999 -9999 -9999 -9999 -9999 -9999 -9999 -9999 -9999 -9999 -9999 -9999 -9999 -9999 -9999 -9999 -9999 -9999 -9999 -9999 -9999 -9999 -9999 -9999 -9999 -9999 -9999 -9999 -9999 -9999 -9999 -9999 90.277 90.302 90.337 90.319 90.312 90.332 90.337 90.357 90.324 90.374 90.377 90.372 90.384 90.387 90.329 90.319 90.307 90.247 90.219 90.192 90.149 90.119 90.042 90.039 89.954 89.922 89.872 89.847 89.864 89.794 89.774 89.719 89.699 89.912 90.629 90.142 89.947 89.834 89.979 90.297 89.797 89.409 89.314 89.312 89.422 89.892 93.117 94.074 94.739 94.972 94.364 93.687 93.839 94.762 95.604 95.882 94.229 94.307 92.052 91.139 90.612 90.172 90.329 90.689 90.852 90.004 89.642 90.229 89.252 89.169 89.047 88.977 88.947 88.914 89.802 94.274 95.222 94.332 94.944 93.232 92.007 91.887 92.329 90.322 89.414 88.779 88.292 88.069 87.787 87.517 87.449 87.302 87.132 86.964 86.807 86.627 86.504 86.394 86.232 86.177 86.144 85.902 85.757 85.609 85.504 85.377 85.267 85.119 85.012 84.942 84.812 84.637 84.379 84.164 83.937 83.687
45.631 46.308 46.091 47.098 46.978 46.118 49.471 49.798 49.874 50.408 54.339 53.909 51.059 47.698 47.872 47.947 47.996 48.051 49.045 48.243 48.348 48.381 48.403 53.643 54.183 60.251 61.518 61.378 61.301 62.796 60.561 63.062 62.744 58.769 56.691 57.949 48.936 49.001 49.166 49.638 50.623 51.588 52.031 53.198 51.156 51.588 54.403 53.479 53.588 60.204 64.996 62.423 58.631 56.965 55.097 54.928 52.554 56.368 60.881 50.476 60.588 61.851 54.557 50.568 51.328 62.973 68.241 70.193 68.928 67.568 63.824 58.593 53.863 50.806 50.851 54.751 55.784 52.023 51.278 51.314 51.365 54.004 57.314 54.966 52.123 52.153 53.138 52.208 52.271 52.266 52.265 52.3 52.348 52.341 52.488 56.121 58.264 58.878 59.498 58.818 58.121 56.096 54.408 52.411 53.048 54.316 54.571 52.658 52.633 52.643 52.683 52.732 53.376 55.123 55.173 55.198 60.226 62.018 61.761 59.406 53.8 51.733 51.708 51.818 51.871 51.911 51.941 51.961 51.951 52.478 52.203 52.288 52.371 52.527 52.473 53.838 54.133 53.931 56.111 57.511 58.938 59.665 59.921 58.549 53.733 54.597 57.401 61.212 60.517 61.068 61.468 58.976 54.173 55.349 55.503 55.601 55.761 59.198 58.487 58.613 58.881 59.229 59.531 59.798 60.261 63.091 64.186 66.498 68.159 69.276 69.981 70.888 69.648 66.883 66.123 66.115 62.077 62.047 67.743 70.131 70.481 64.749 60.806 60.72 60.651 60.645 60.672 60.805 60.738 60.648 60.594 60.436 60.431 60.493 60.388 60.226 60.281 60.281 60.431 60.371 60.4 61.006 62.023 62.14 62.466 62.903 63.523 63.913 64.413 65.02 65.487 65.711 66.099 66.443 66.774 67.121 67.384 67.616 67.963 68.262 68.571 69.091 69.355 69.6 69.901 70.1 70.295 70.568 70.798 71.105 71.331 71.534 71.835 72.037 72.286 72.342 72.353 -9999 -9999 -9999 -9999 -9999 -9999 -9999 -9999 -9999 -9999 -9999 -9999 -9999 -9999 -9999 -9999 -9999 -9999 -9999 -9999 -9999 -9999 -9999 -9999 -9999 -9999 -9999 -9999 -9999 -9999 -9999 -9999 -9999 -9999 -9999 -9999 -9999 -9999 -9999 -9999 -9999 -9999 -9999 -9999 -9999 -9999 -9999 -9999 -9999 -9999 -9999 -9999 -9999 -9999 -9999 -9999 -9999 -9999 -9999 -9999 -9999 -9999 -9999 -9999 -9999 -9999 -9999 -9999 -9999 -9999 -9999 -9999 -9999 -9999 -9999 -9999 -9999 -9999 -9999 -9999 -9999 -9999 -9999 -9999 -9999 -9999 -9999 -9999 -9999 -9999 -9999 -9999 -9999 -9999 -9999 -9999 -9999 -9999 90.269 90.279 90.282 90.262 90.309 90.342 90.329 90.352 90.364 90.377 90.404 90.409 90.414 90.424 90.372 90.362 90.307 90.279 90.227 90.212 90.159 90.124 90.082 90.034 90.017 89.927 89.894 89.869 89.884 89.844 89.854 89.832 89.734 89.909 89.997 90.094 89.954 89.927 89.909 90.139 89.679 89.442 89.372 89.387 89.452 89.792 92.439 94.029 94.694 95.067 94.417 93.732 93.902 94.699 95.507 95.914 95.174 94.389 90.147 89.444 89.442 89.327 89.299 89.789 90.339 90.107 89.457 89.359 89.242 89.144 89.062 88.999 88.972 88.904 90.037 94.724 95.259 94.339 94.364 93.007 91.809 91.909 92.047 90.227 89.229 88.347 88.219 88.637 88.632 87.617 87.464 87.294 87.177 86.954 86.794 86.612 86.467 86.264 86.124 86.034 85.944 85.767 85.644 85.529 85.399 85.249 85.124 84.999 84.839 84.772 84.647 84.474 84.284 84.114 83.964 83.717
45.613 45.988 46.076 49.165 49.331 47.465 49.286 49.657 47.568 49.367 51.101 47.421 48.726 47.733 50.843 50.356 51.953 51.456 50.161 50.683 48.301 48.676 48.446 52.723 61.731 63.823 63.461 64.455 63.614 61.864 62.026 64.034 64.28 65.253 58.199 58.704 56.191 49.686 49.228 49.328 49.811 50.591 52.256 51.268 52.029 51.383 53.111 51.827 50.598 55.841 59.108 58.542 53.736 56.087 57.218 56.736 56.962 64.636 64.445 57.803 65.868 68.911 70.486 67.48 53.5 54.633 69.918 70.497 69.071 65.378 61.832 54.248 53.823 51.096 50.913 52.881 56.756 52.816 51.206 51.58 51.193 53.861 56.648 56.297 56.004 55.862 56.475 52.146 52.251 52.251 52.307 52.328 52.406 52.361 52.39 55.825 58.297 58.883 59.726 59.276 58.264 56.738 55.163 53.608 54.331 55.855 55.164 53.526 52.729 52.687 52.716 52.703 52.735 52.914 54.596 55.189 56.081 59.971 60.441 58.321 54.023 51.921 51.813 51.777 51.863 51.866 51.971 51.961 51.973 52.008 52.126 52.256 52.263 52.39 52.41 52.871 54.354 54.246 53.561 53.468 53.501 54.513 56.283 55.956 53.663 55.414 60.071 61.275 61.325 61.126 60.623 59.42 54.497 54.665 55.511 55.531 55.75 57.373 58.115 58.433 58.646 58.909 59.264 59.531 59.783 61.907 65.135 67.333 68.701 69.792 66.928 66.813 67.658 61.128 64.183 65.744 62.807 60.94 63.028 69.643 70.368 68.381 61.363 60.338 60.334 60.31 60.273 60.388 60.44 60.323 60.251 60.102 60.178 60.108 59.954 60.002 59.811 59.832 59.848 59.818 60.099 62.135 63.785 62.152 62.402 62.831 63.375 63.843 64.275 64.667 65.131 65.559 65.937 66.467 66.752 67.055 67.363 67.652 67.995 68.302 68.566 69.032 69.267 69.486 69.86 70.078 70.319 70.611 70.878 71.182 71.426 71.561 71.94 72.14 72.35 72.405 72.42 -9999 -9999 -9999 -9999 -9999 -9999 -9999 -9999 -9999 -9999 -9999 -9999 -9999 -9999 -9999 -9999 -9999 -9999 -9999 -9999 -9999 -9999 -9999 -9999 -9999 -9999 -9999 -9999 -9999 -9999 -9999 -9999 -9999 -9999 -9999 -9999 -9999 -9999 -9999 -9999 -9999 -9999 -9999 -9999 -9999 -9999 -9999 -9999 -9999 -9999 -9999 -9999 -9999 -9999 -9999 -9999 -9999 -9999 -9999 -9999 -9999 -9999 -9999 -9999 -9999 -9999 -9999 -9999 -9999 -9999 -9999 -9999 -9999 -9999 -9999 -9999 -9999 -9999 -9999 -9999 -9999 -9999 -9999 -9999 -9999 -9999 -9999 -9999 -9999 -9999 -9999 -9999 -9999 -9999 -9999 -9999 -9999 -9999 90.244 90.269 90.279 90.274 90.302 90.304 90.319 90.324 90.409 90.434 90.429 90.467 90.484 90.484 90.474 90.417 90.402 90.279 90.252 90.229 90.159 90.137 90.069 90.034 90.009 89.992 89.927 89.902 89.922 89.872 89.872 89.884 89.819 90.032 90.169 90.077 90.114 90.064 90.062 89.962 89.877 89.482 89.399 89.422 89.724 89.624 92.552 93.969 94.629 95.042 94.467 93.792 93.804 94.624 95.439 95.957 95.237 94.427 90.462 89.507 89.574 90.582 90.989 89.774 90.232 89.694 89.472 89.319 89.212 89.079 89.069 89.027 88.967 88.927 91.119 94.852 95.119 94.017 93.174 92.559 91.962 92.142 92.124 89.989 88.894 88.462 88.314 88.304 88.237 87.439 87.367 87.314 87.182 87.012 86.802 86.674 86.507 86.292 86.079 85.979 85.894 85.737 85.639 85.524 85.399 85.314 85.182 85.029 84.902 84.759 84.627 84.487 84.319 84.147 84.017 83.789
46.308 46.421 46.178 47.619 48.432 48.636 48.965 49.69 47.438 47.507 47.621 48.473 47.763 47.826 48.698 49.441 48.031 49.788 51.039 51.158 48.446 48.728 49.058 55.458 62.098 62.304 64.121 64.521 63.488 57.001 62.251 63.387 63.928 63.964 66.616 58.333 55.506 52.203 49.607 51.854 50.297 50.318 50.703 51.124 52.186 51.202 51.523 50.982 50.177 51.036 54.441 53.488 52.743 55.334 56.962 56.738 61.138 60.997 66.134 66.378 66.663 69.739 70.658 69.244 54.633 50.903 69.626 69.941 68.395 62.828 53.378 53.906 53.728 51.633 50.841 51.993 53.851 52.022 53.983 52.136 52.663 53.652 56.641 60.626 64.818 67.105 66.518 58.358 52.236 52.268 52.306 52.393 52.383 52.375 52.65 53.27 58.148 58.749 60.316 59.178 58.081 52.659 52.651 52.406 52.336 53.631 55.581 53.271 52.746 52.696 52.713 52.736 52.733 52.756 52.768 53.231 52.988 54.286 55.313 52.909 53.701 52.923 51.921 51.794 51.836 51.906 51.95 52.018 52.048 51.996 52.062 52.136 52.181 52.259 52.383 52.596 52.763 53.075 53.203 53.333 53.516 54.338 54.883 53.756 53.92 54.543 59.653 60.716 61.319 60.543 57.101 55.588 54.161 54.419 55.478 55.991 55.731 56.589 58.281 58.282 58.521 58.726 58.99 59.599 60.61 61.899 66.086 66.694 65.791 64.628 61.526 62.476 63.755 61.091 61.528 62.753 61.503 60.456 60.764 65.351 68.733 68.601 64.748 60.016 60.045 60.047 60.033 59.995 60.053 60.092 59.953 59.873 59.81 59.753 59.692 59.637 59.409 59.258 59.456 59.749 62.436 65.424 67.787 65.687 65.974 66.146 63.259 63.906 64.223 64.548 65.087 65.553 65.891 66.341 66.688 67.064 67.445 67.724 68.066 68.353 68.583 68.975 69.273 69.489 69.746 70.038 70.249 70.524 70.897 71.119 71.467 71.663 71.991 72.226 72.46 72.515 72.52 -9999 -9999 -9999 -9999 -9999 -9999 -9999 -9999 -9999 -9999 -9999 -9999 -9999 -9999 -9999 -9999 -9999 -9999 -9999 -9999 -9999 -9999 -9999 -9999 -9999 -9999 -9999 -9999 -9999 -9999 -9999 -9999 -9999 -9999 -9999 -9999 -9999 -9999 -9999 -9999 -9999 -9999 -9999 -9999 -9999 -9999 -9999 -9999 -9999 -9999 -9999 -9999 -9999 -9999 -9999 -9999 -9999 -9999 -9999 -9999 -9999 -9999 -9999 -9999 -9999 -9999 -9999 -9999 -9999 -9999 -9999 -9999 -9999 -9999 -9999 -9999 -9999 -9999 -9999 -9999 -9999 -9999 -9999 -9999 -9999 -9999 -9999 -9999 -9999 -9999 -9999 -9999 -9999 -9999 -9999 -9999 -9999 -9999 -9999 90.329 90.324 90.329 90.334 90.332 90.349 90.382 90.437 90.507 90.499 90.504 90.557 90.534 90.502 90.489 90.424 90.352 90.312 90.287 90.217 90.194 90.167 90.124 90.097 90.069 90.062 90.007 89.984 89.939 89.939 89.952 89.874 90.044 90.354 90.119 90.142 89.994 89.879 89.932 89.867 89.567 89.434 89.514 90.604 90.124 92.892 93.922 94.589 95.067 94.532 93.844 93.652 94.574 95.369 95.964 95.284 94.487 91.517 91.197 90.057 89.512 90.087 89.529 89.522 89.487 89.419 89.269 89.199 89.124 89.079 89.004 88.987 88.914 89.047 89.314 89.414 89.617 89.754 90.169 90.784 91.227 91.289 90.364 89.462 88.572 88.442 88.202 87.799 87.519 87.364 87.292 87.204 87.074 86.914 86.739 86.554 86.354 86.179 86.062 85.994 85.862 85.724 85.614 85.487 85.369 85.244 85.054 84.919 84.772 84.607 84.459 84.277 84.097 83.962 83.792
46.338 46.981 46.601 48.298 48.898 49.446 54.866 54.058 54.652 50.794 53.294 56.859 52.024 49.751 52.395 51.573 48.606 48.151 52.868 49.286 48.273 48.388 48.423 56.038 60.541 61.418 62.896 64.38 61.481 65.448 62.687 56.931 59.773 65.733 56.976 56.521 55.983 51.167 54.231 57.35 53.388 52.264 50.442 50.132 50.076 50.098 50.066 50.098 50.101 50.146 50.695 50.55 51.031 54.466 56.413 56.873 64.186 67.009 67.552 67.573 64.751 68.431 69.508 65.523 54.051 54.537 63.584 67.813 62.178 54.968 54.07 53.961 53.773 52.083 50.828 53.36 54.52 53.501 53.343 52.426 52.551 53.226 56.536 62.038 64.235 66.338 66.056 63.991 55.651 52.265 52.306 52.351 52.386 52.361 52.593 55.646 58.261 58.861 59.518 59.031 58.228 55.858 54.478 53.275 53.548 57.156 57.332 53.174 52.735 52.716 52.746 52.771 52.758 52.746 52.727 52.763 52.793 52.798 52.796 52.714 52.521 52.758 56.167 54.147 51.842 51.898 51.884 51.986 52.033 52.076 52.098 52.081 52.126 52.205 52.419 52.473 52.566 52.897 53.066 53.096 53.313 53.574 53.817 53.395 55.005 55.593 57.353 60.148 60.848 60.222 56.414 54.165 54.661 54.976 55.803 55.736 56.018 56.367 58.008 58.7 58.712 58.526 60.748 64.089 64.395 63.856 66.515 66.719 61.993 60.572 60.313 61.914 63.696 61.135 60.048 60.157 60.146 60.283 60.185 61.713 67.225 68.96 66.688 60.159 59.668 59.703 59.641 59.576 59.718 59.752 59.658 59.704 59.593 59.443 59.371 59.229 59.051 58.971 59.889 62.946 65.428 65.376 68.291 71.767 72.959 72.886 70.89 67.915 65.369 65.53 65.066 65.576 65.885 66.296 66.796 67.159 67.597 67.798 68.092 68.451 68.706 69.023 69.325 69.496 69.758 70.033 70.24 70.521 70.883 71.123 71.417 71.733 71.996 72.265 72.571 72.595 72.602 -9999 -9999 -9999 -9999 -9999 -9999 -9999 -9999 -9999 -9999 -9999 -9999 -9999 -9999 -9999 -9999 -9999 -9999 -9999 -9999 -9999 -9999 -9999 -9999 -9999 -9999 -9999 -9999 -9999 -9999 -9999 -9999 -9999 -9999 -9999 -9999 -9999 -9999 -9999 -9999 -9999 -9999 -9999 -9999 -9999 -9999 -9999 -9999 -9999 -9999 -9999 -9999 -9999 -9999 -9999 -9999 -9999 -9999 -9999 -9999 -9999 -9999 -9999 -9999 -9999 -9999 -9999 -9999 -9999 -9999 -9999 -9999 -9999 -9999 -9999 -9999 -9999 -9999 -9999 -9999 -9999 -9999 -9999 -9999 -9999 -9999 -9999 -9999 -9999 -9999 -9999 -9999 -9999 -9999 -9999 -9999 -9999 -9999 -9999 90.329 90.377 90.399 90.407 90.402 90.427 90.469 90.482 90.539 90.587 90.627 90.644 90.659 90.612 90.544 90.509 90.457 90.394 90.334 90.334 90.292 90.254 90.202 90.137 90.122 90.107 90.064 90.039 89.969 89.964 90.004 89.992 89.987 90.157 90.307 90.257 90.002 89.937 89.899 89.829 89.527 89.529 89.592 90.517 90.684 92.232 93.887 94.529 95.072 94.589 93.909 93.639 94.474 95.297 95.912 95.349 94.539 92.274 91.369 90.022 89.497 89.499 89.487 89.454 89.442 89.374 89.267 89.187 89.152 89.094 89.012 88.952 88.927 88.874 88.832 88.837 88.904 88.887 88.944 89.104 89.134 89.037 88.929 88.659 88.664 88.527 88.267 87.847 87.527 87.379 87.332 87.202 87.117 87.004 86.817 86.617 86.419 86.252 86.114 86.042 85.907 85.742 85.617 85.477 85.332 85.192 85.024 84.847 84.697 84.539 84.362 84.184 84.062 83.904 83.752
46.568 47.761 50.931 51.325 59.806 60.156 62.096 59.788 59.019 59.922 62.158 62.206 60.243 58.852 58.572 54.722 52.783 52.034 52.054 51.414 53.043 49.274 50.239 48.331 56.531 59.336 57.851 63.136 62.321 59.846 52.923 49.361 52.711 53.233 60.946 49.481 49.987 56.086 56.436 59.633 59.154 49.851 50.373 50.114 50.101 51.481 51.966 54.186 55.018 54.443 54.986 54.549 51.412 51.792 54.014 53.703 62.845 66.53 67.241 65.823 64.089 62.672 65.237 59.821 51.831 57.253 59.323 60.063 57.388 56.19 54.033 54.758 54.423 51.516 50.765 51.433 53.333 53.934 52.326 54.298 54.87 54.163 54.673 58.236 62.078 63.626 65.233 63.441 61.766 52.243 52.311 52.363 52.411 52.383 52.396 54.763 58.171 58.831 59.464 59.328 58.261 56.766 55.591 53.873 53.379 57.393 57.411 54.808 52.781 53.323 53.466 53.133 53.418 53.826 56.761 56.689 52.798 52.818 53.547 52.678 54.388 54.652 59.721 59.314 53.321 51.963 51.967 51.941 51.986 52.066 52.081 52.141 52.176 52.223 52.701 52.861 52.506 52.646 52.863 52.988 53.213 54.053 53.183 53.48 57.141 57.718 54.979 57.189 60.525 58.826 56.444 55.623 55.091 55.235 55.756 55.808 56.3 56.713 62.272 63.074 63.385 62.681 64.22 66.068 66.84 65.973 65.414 61.272 59.782 60.084 59.871 60.406 59.941 59.897 59.883 59.878 59.884 59.943 59.996 60.131 65.276 68.513 67.798 62.308 59.373 59.373 59.376 59.381 59.387 59.371 59.426 60.51 60.069 59.797 58.79 58.839 58.616 58.771 61.768 68.126 68.272 64.049 69.211 74.095 75.965 76.717 76.136 74.911 66.731 68.584 65.877 67.981 66.106 66.453 66.911 67.274 67.709 67.956 68.148 68.477 68.771 69.129 69.466 69.633 69.962 70.22 70.349 70.594 70.946 71.147 71.482 71.79 71.999 72.203 72.473 72.553 -9999 -9999 -9999 -9999 -9999 -9999 -9999 -9999 -9999 -9999 -9999 -9999 -9999 -9999 -9999 -9999 -9999 -9999 -9999 -9999 -9999 -9999 -9999 -9999 -9999 -9999 -9999 -9999 -9999 -9999 -9999 -9999 -9999 -9999 -9999 -9999 -9999 -9999 -9999 -9999 -9999 -9999 -9999 -9999 -9999 -9999 -9999 -9999 -9999 -9999 -9999 -9999 -9999 -9999 -9999 -9999 -9999 -9999 -9999 -9999 -9999 -9999 -9999 -9999 -9999 -9999 -9999 -9999 -9999 -9999 -9999 -9999 -9999 -9999 -9999 -9999 -9999 -9999 -9999 -9999 -9999 -9999 -9999 -9999 -9999 -9999 -9999 -9999 -9999 -9999 -9999 -9999 -9999 -9999 -9999 -9999 -9999 -9999 -9999 -9999 90.361 90.359 90.362 90.404 90.402 90.409 90.439 90.507 90.554 90.622 90.672 90.664 90.667 90.669 90.597 90.547 90.487 90.424 90.392 90.369 90.317 90.287 90.252 90.229 90.179 90.169 90.112 90.117 90.127 90.074 90.052 90.054 90.074 90.424 90.459 90.197 90.069 90.007 90.227 90.089 89.617 89.579 89.619 90.247 90.362 91.079 93.822 94.499 95.062 94.652 93.957 93.682 94.427 95.237 95.949 95.444 94.622 92.207 90.324 89.919 89.547 89.534 89.484 89.449 89.374 89.319 89.247 89.224 89.182 89.092 89.009 88.972 88.924 88.839 88.807 88.782 88.862 88.909 89.029 89.139 89.224 89.057 88.877 88.744 88.424 88.297 88.234 87.862 87.534 87.477 87.307 87.237 87.149 86.997 86.832 86.617 86.389 86.219 86.077 85.954 85.837 85.694 85.552 85.414 85.272 85.134 84.969 84.839 84.664 84.479 84.294 84.182 84.042 83.902 83.752
45.826 46.726 57.651 56.116 57.222 55.996 63.083 60.766 57.278 62.971 63.531 63.541 63.233 58.661 55.546 53.649 54.265 53.645 53.108 55.514 55.899 52.664 50.181 52.971 51.494 53.691 55.971 54.518 57.719 52.238 49.296 49.506 51.388 49.421 50.697 49.473 54.576 56.188 57.716 60.503 59.268 56.415 50.682 50.103 53.906 57.301 57.403 57.413 57.378 57.543 57.41 57.59 57.302 53.135 50.805 50.46 59.388 63.726 63.548 63.958 58.944 54.168 52.646 53.058 53.567 57.373 57.063 57.411 57.248 55.71 54.323 55.501 54.782 52.346 50.728 51.176 52.965 53.143 52.976 52.968 54.083 53.673 53.896 57.529 63.698 65.124 65.661 65.428 63.562 57.858 52.373 52.296 52.301 52.278 52.313 53.946 58.078 58.683 59.438 59.433 59.351 55.905 54.861 53.681 52.608 53.531 53.943 53.796 52.801 54.163 53.968 54.042 54.976 53.631 57.583 57.981 54.544 54.046 54.84 55.018 54.883 58.241 57.028 59.169 54.481 52.231 52.229 52.006 52.018 52.038 52.091 52.151 52.191 52.238 52.243 52.916 52.639 52.574 52.603 52.798 52.957 53.156 53.076 53.415 56.651 57.359 54.413 54.121 55.621 54.521 54.49 54.771 55.186 55.953 57.856 56.301 56.216 58.182 62.556 65.133 65.679 65.211 64.426 63.821 64.392 62.296 59.147 59.235 59.236 59.506 59.585 59.651 59.579 59.623 59.751 59.468 59.622 59.506 59.659 59.392 62.312 65.376 68.331 64.842 59.636 59.086 59.153 59.134 58.991 62.582 68.169 66.755 68.04 63.471 61.74 60.333 63.799 62.478 64.501 70.095 67.792 73.034 72.56 76.798 78.671 79.064 77.01 75.251 72.449 69.692 69.102 66.095 66.161 66.252 66.926 67.32 67.689 67.92 68.082 68.525 68.831 69.1 69.493 69.793 70.008 70.343 70.566 70.74 71.07 71.31 71.529 71.803 72.014 72.197 72.483 72.557 -9999 -9999 -9999 -9999 -9999 -9999 -9999 -9999 -9999 -9999 -9999 -9999 -9999 -9999 -9999 -9999 -9999 -9999 -9999 -9999 -9999 -9999 -9999 -9999 -9999 -9999 -9999 -9999 -9999 -9999 -9999 -9999 -9999 -9999 -9999 -9999 -9999 -9999 -9999 -9999 -9999 -9999 -9999 -9999 -9999 -9999 -9999 -9999 -9999 -9999 -9999 -9999 -9999 -9999 -9999 -9999 -9999 -9999 -9999 -9999 -9999 -9999 -9999 -9999 -9999 -9999 -9999 -9999 -9999 -9999 -9999 -9999 -9999 -9999 -9999 -9999 -9999 -9999 -9999 -9999 -9999 -9999 -9999 -9999 -9999 -9999 -9999 -9999 -9999 -9999 -9999 -9999 -9999 -9999 -9999 -9999 -9999 -9999 -9999 -9999 90.419 90.407 90.427 90.447 90.429 90.484 90.514 90.594 90.644 90.684 90.734 90.749 90.727 90.692 90.657 90.617 90.539 90.492 90.447 90.414 90.414 90.362 90.332 90.279 90.297 90.292 90.219 90.167 90.229 90.159 90.122 90.137 90.182 90.352 90.319 90.212 90.109 90.062 90.232 90.482 89.734 89.654 89.689 91.677 91.847 90.799 92.822 93.469 91.809 91.859 92.089 91.499 94.387 95.202 95.957 95.522 94.694 91.967 89.674 89.669 89.597 89.559 89.489 89.412 89.342 89.302 89.302 89.247 89.342 89.224 89.347 89.019 88.954 88.874 88.772 88.812 88.912 88.914 89.047 89.204 89.174 89.022 88.827 88.674 88.442 87.992 87.807 87.722 87.542 87.429 87.412 87.334 87.169 87.027 86.904 86.709 86.514 86.337 86.172 86.027 85.859 85.727 85.582 85.439 85.314 85.154 84.967 84.854 84.659 84.492 84.369 84.192 84.054 83.907 83.742
45.623 45.818 53.893 53.843 50.036 54.021 63.131 56.103 61.298 62.873 63.353 63.448 61.481 62.528 57.926 55.199 54.625 53.578 52.666 55.166 52.816 52.562 58.658 60.049 60.863 56.933 59.758 57.198 49.727 49.056 49.519 51.775 53.076 52.169 60.364 62.071 59.698 64.065 60.889 63.405 58.941 54.338 53.171 50.123 53.603 57.256 58.088 58.263 57.818 57.796 57.601 58.289 57.578 52.327 50.456 50.538 53.471 56.301 61.586 54.108 50.892 53.002 54.101 53.662 52.836 54.013 53.483 53.568 54.109 54.346 53.786 55.362 54.868 52.463 50.738 51.308 52.66 52.259 51.841 51.641 51.694 51.876 53.192 59.14 63.756 65.648 65.638 65.334 61.998 58.368 52.149 52.328 53.302 53.626 54.076 54.221 53.793 57.237 60.381 60.322 61.088 58.368 56.491 54.695 53.248 53.546 54.033 52.82 52.968 54.618 52.928 52.914 54.903 55.095 57.184 55.776 55.461 53.911 53.171 53.113 54.311 56.329 56.438 59.562 57.57 55.575 53.467 52.788 52.093 52.081 52.081 52.166 52.223 52.269 52.256 52.296 53.631 54.01 53.061 52.566 52.692 52.828 52.928 53.221 54.968 56.533 54.483 55.988 53.849 54.156 54.608 55.738 56.112 56.564 58.806 58.631 57.596 56.842 62.496 65.048 65.383 64.857 59.79 59.623 60.197 59.723 59.085 59.965 62.301 59.342 59.128 59.108 59.13 59.309 59.406 59.238 59.294 59.118 59.146 59.056 61.993 66.478 67.573 65.986 62.849 58.737 58.687 62.25 64.428 74.648 76.236 75.124 73.731 71.666 69.007 66.661 67.694 68.449 66.664 67.552 70.121 74.644 75.34 77.139 79.212 79.008 78.908 79.053 72.71 72.333 69.564 67.64 66.021 66.417 66.908 67.355 67.776 67.972 68.235 68.502 68.8 69.097 69.431 69.782 69.998 70.363 70.651 70.934 71.251 71.463 71.646 71.94 72.216 72.351 72.617 72.668 -9999 -9999 -9999 -9999 -9999 -9999 -9999 -9999 -9999 -9999 -9999 -9999 -9999 -9999 -9999 -9999 -9999 -9999 -9999 -9999 -9999 -9999 -9999 -9999 -9999 -9999 -9999 -9999 -9999 -9999 -9999 -9999 -9999 -9999 -9999 -9999 -9999 -9999 -9999 -9999 -9999 -9999 -9999 -9999 -9999 -9999 -9999 -9999 -9999 -9999 -9999 -9999 -9999 -9999 -9999 -9999 -9999 -9999 -9999 -9999 -9999 -9999 -9999 -9999 -9999 -9999 -9999 -9999 -9999 -9999 -9999 -9999 -9999 -9999 -9999 -9999 -9999 -9999 -9999 -9999 -9999 -9999 -9999 -9999 -9999 -9999 -9999 -9999 -9999 -9999 -9999 -9999 -9999 -9999 -9999 -9999 -9999 -9999 -9999 -9999 90.469 90.434 90.477 90.509 90.504 90.524 90.552 90.642 90.712 90.747 90.782 90.814 90.779 90.754 90.707 90.634 90.614 90.572 90.502 90.462 90.429 90.402 90.382 90.322 90.347 90.344 90.334 90.279 90.294 90.249 90.199 90.197 90.264 90.342 90.404 90.234 90.129 90.104 90.109 90.372 89.809 89.709 89.704 89.802 89.827 89.749 89.754 89.722 89.727 89.704 89.724 90.432 94.307 95.124 95.907 95.572 94.757 92.987 90.134 89.774 89.644 89.569 89.479 89.407 89.344 89.364 89.312 89.284 89.772 90.027 89.972 89.067 88.972 88.889 88.814 88.837 89.157 89.464 89.084 89.299 89.297 89.007 88.792 88.702 88.384 87.839 87.697 87.592 87.519 87.489 87.447 87.299 87.239 87.094 86.954 86.824 86.647 86.449 86.244 86.077 85.892 85.742 85.632 85.507 85.379 85.227 85.059 84.882 84.674 84.524 84.379 84.217 84.037 83.877 83.737
45.598 45.803 49.038 48.16 50.871 52.203 50.25 59.596 54.183 61.116 58.029 57.88 58.906 53.298 55.712 54.901 52.834 52.443 51.896 53.591 52.736 58.411 59.58 60.693 60.811 61.868 60.864 59.853 53.656 50.268 50.349 52.559 53.362 57.636 63.19 63.25 67.068 68.653 64.946 66.088 60.656 54.963 50.106 50.232 53.741 57.371 58.203 58.831 58.055 57.148 57.657 58.168 57.563 53.385 50.303 50.506 50.645 51.363 52.461 51.315 51.095 53.383 54.055 53.756 52.818 51.892 51.004 51.166 52.406 54.813 54.9 55.647 54.993 52.62 50.718 51.224 52.69 51.795 51.58 51.585 51.653 51.658 53.603 54.989 60.621 65.834 65.058 65.065 58.125 53.918 52.233 54.376 56.753 56.105 54.025 55.238 55.198 61.703 60.575 58.795 60.952 54.713 53.99 54.338 53.505 53.608 53.495 52.797 53.498 54.41 53.478 54.205 55.458 53.253 53.666 52.928 53.755 54.239 53.075 53.028 53.918 55.652 58.208 55.841 60.274 58.868 54.19 53.288 55.16 52.588 52.164 52.153 52.233 52.241 52.308 52.305 52.348 53.573 53.9 52.48 52.515 52.668 52.818 52.965 53.725 55.341 57.668 59.365 59.308 55.304 56.552 57.178 57.4 58.286 58.441 58.462 56.537 57.105 59.938 60.348 57.314 59.34 57.815 57.97 59.513 59.825 60.871 59.722 62.08 59.296 59.837 58.803 58.768 58.899 58.883 58.938 58.74 58.762 58.848 58.885 59.251 63.48 66.715 65.516 64.706 59.342 60.948 68.301 71.606 77.078 69.866 75.529 72.393 71.823 74.49 73.653 70.45 67.913 68.442 68.006 73.918 72.016 71.036 76.544 78.27 78.071 77.028 72.4 73.143 71.485 67.127 68.091 66.917 66.646 66.994 67.468 67.78 67.983 68.223 68.542 68.869 69.077 69.447 69.691 69.984 70.247 70.665 70.89 71.234 71.534 71.828 72.018 72.356 72.482 72.751 72.747 -9999 -9999 -9999 -9999 -9999 -9999 -9999 -9999 -9999 -9999 -9999 -9999 -9999 -9999 -9999 -9999 -9999 -9999 -9999 -9999 -9999 -9999 -9999 -9999 -9999 -9999 -9999 -9999 -9999 -9999 -9999 -9999 -9999 -9999 -9999 -9999 -9999 -9999 -9999 -9999 -9999 -9999 -9999 -9999 -9999 -9999 -9999 -9999 -9999 -9999 -9999 -9999 -9999 -9999 -9999 -9999 -9999 -9999 -9999 -9999 -9999 -9999 -9999 -9999 -9999 -9999 -9999 -9999 -9999 -9999 -9999 -9999 -9999 -9999 -9999 -9999 -9999 -9999 -9999 -9999 -9999 -9999 -9999 -9999 -9999 -9999 -9999 -9999 -9999 -9999 -9999 -9999 -9999 -9999 -9999 -9999 -9999 -9999 -9999 -9999 -9999 90.534 90.537 90.544 90.547 90.559 90.607 90.689 90.732 90.804 90.834 90.892 90.859 90.809 90.764 90.717 90.654 90.634 90.574 90.519 90.497 90.502 90.442 90.379 90.412 90.412 90.407 90.334 90.309 90.309 90.297 90.302 90.259 90.317 90.307 90.274 90.214 90.084 90.209 90.399 89.807 89.717 89.702 89.747 89.782 89.802 89.797 89.769 89.747 89.762 89.759 90.174 94.112 95.069 95.857 95.659 94.812 93.894 90.947 90.002 89.637 89.542 89.464 89.419 89.342 89.357 89.289 89.344 89.629 89.939 89.927 89.049 88.999 89.902 89.762 88.999 89.157 89.169 89.137 89.224 89.154 88.952 88.737 88.557 88.224 87.834 87.714 87.627 87.554 87.539 87.442 87.384 87.264 87.134 87.034 86.887 86.737 86.502 86.299 86.107 85.922 85.754 85.654 85.539 85.402 85.244 85.044 84.849 84.674 84.519 84.377 84.227 84.067 83.937 83.787
45.588 45.793 46.055 46.354 47.973 48.921 51.924 50.13 54.951 59.911 56.241 57.93 59.816 49.248 48.829 49.839 49.638 51.236 51.728 51.888 51.721 55.318 60.856 62.063 62.723 62.198 63.037 63.551 63.656 57.47 50.563 53.033 54.206 54.156 63.876 66.051 66.618 68.661 69.403 68.486 66.816 60.718 53.963 50.163 53.326 57.5 58.366 58.726 57.96 57.115 57.603 58.353 57.542 53.074 50.305 50.49 50.635 51.265 53.266 52.488 51.02 52.753 53.932 53.608 53.176 51.373 51.074 52.346 53.233 55.514 54.921 55.506 54.958 52.4 50.76 51.099 52.836 52.26 51.528 51.592 51.616 51.633 53.289 55.303 61.118 63.808 63.313 63.711 56.367 51.905 51.865 54.594 56.435 56.24 53.531 52.53 54.343 57.581 57.26 54.56 52.76 53.258 55.072 53.908 52.77 53.208 54.24 53.938 52.938 54.403 53.241 54.553 54.949 55.173 54.32 54.203 54.87 54.656 53.028 54.34 55.058 59.47 60.774 55.51 56.768 59.428 57.225 56.22 55.596 55.728 53.729 52.28 52.415 52.253 52.268 52.315 52.368 52.377 52.595 52.365 52.434 52.552 52.678 52.905 55.973 59.295 59.825 59.273 58.188 53.828 57.023 57.143 55.983 55.718 56.165 58.238 58.059 56.507 56.495 56.698 56.975 57.151 57.465 58.373 61.608 63 62.72 64.128 62.314 62.433 61.978 59.388 58.423 58.468 58.492 58.67 58.358 58.835 58.633 58.21 57.7 60.259 66.142 66.96 65.781 60.662 63.915 72.514 66.376 71.855 70.95 74.064 75.307 76.955 74.915 74.979 71.398 67.985 69.638 67.77 70.378 72.985 68.797 69.773 72.803 72.79 72.505 72.429 69.89 70.243 67.399 69.138 66.521 66.84 67.165 67.504 67.782 67.967 68.289 68.655 68.948 69.35 69.585 69.787 69.886 70.155 70.586 70.893 71.249 71.55 71.888 72.076 72.434 72.74 72.904 72.906 -9999 -9999 -9999 -9999 -9999 -9999 -9999 -9999 -9999 -9999 -9999 -9999 -9999 -9999 -9999 -9999 -9999 -9999 -9999 -9999 -9999 -9999 -9999 -9999 -9999 -9999 -9999 -9999 -9999 -9999 -9999 -9999 -9999 -9999 -9999 -9999 -9999 -9999 -9999 -9999 -9999 -9999 -9999 -9999 -9999 -9999 -9999 -9999 -9999 -9999 -9999 -9999 -9999 -9999 -9999 -9999 -9999 -9999 -9999 -9999 -9999 -9999 -9999 -9999 -9999 -9999 -9999 -9999 -9999 -9999 -9999 -9999 -9999 -9999 -9999 -9999 -9999 -9999 -9999 -9999 -9999 -9999 -9999 -9999 -9999 -9999 -9999 -9999 -9999 -9999 -9999 -9999 -9999 -9999 -9999 -9999 -9999 -9999 -9999 -9999 -9999 90.539 90.579 90.554 90.594 90.614 90.657 90.739 90.809 90.847 90.907 90.927 90.899 90.862 90.819 90.784 90.727 90.694 90.617 90.589 90.577 90.519 90.499 90.474 90.502 90.474 90.427 90.392 90.362 90.389 90.364 90.342 90.304 90.387 90.349 90.274 90.257 90.207 90.294 90.412 89.832 89.754 89.734 89.757 89.832 89.854 89.869 89.844 89.847 89.837 89.799 90.752 94.209 95.012 95.834 95.682 94.872 92.662 90.084 89.889 89.649 89.589 89.529 89.437 89.382 89.377 89.292 89.284 89.384 89.452 89.812 89.069 89.329 91.584 91.714 91.659 91.547 91.334 91.104 89.562 89.057 88.922 88.787 88.447 88.214 87.859 87.709 87.647 87.569 87.599 87.542 87.387 87.284 87.192 87.102 86.982 86.797 86.579 86.359 86.149 86.002 85.832 85.704 85.564 85.417 85.257 85.077 84.884 84.717 84.567 84.414 84.297 84.124 83.997 83.832
45.644 45.727 46.368 46.935 48.306 47.878 47.453 47.592 49.836 51.825 53.961 49.658 53.566 50.653 47.903 47.988 48.206 52.563 50.637 49.436 48.896 53.301 58.958 63.151 63.321 59.153 58.953 63.403 59.258 60.653 56.007 54.596 56.95 59.078 61.753 68.801 69 69.956 69.351 67.298 66.781 57.106 51.132 50.166 53.193 56.947 57.988 58.236 58.006 57.208 57.301 58.25 57.7 52.985 50.201 50.429 50.558 51.428 52.966 52.615 51.67 52.772 53.397 53.759 53.035 51.583 51.27 50.884 51.295 53.014 54.636 54.513 54.083 52.068 51.044 51.645 53.055 52.81 51.508 51.557 51.74 51.43 52.758 55.39 58.742 60.015 59.263 57.268 54.288 51.865 51.872 53.509 58.173 57.334 55.201 52.303 54.563 54.138 54.006 52.665 52.727 52.738 54.555 54.095 52.893 52.653 53.251 52.786 53.283 54.841 54.433 56.622 56.633 55.838 55.452 56.749 57.057 56.913 57.003 57.143 57.29 57.468 60.318 53.354 56.79 59.911 58.934 56.856 56.083 55.693 55.833 54.975 54.366 52.517 52.278 52.292 52.32 52.358 52.372 52.378 52.413 52.498 52.588 52.787 53.411 58.17 59.915 59.253 56.578 53.342 55.619 56.195 55.065 55.515 57.805 56.308 56.283 56.059 56.313 56.502 56.729 56.949 57.135 57.803 60.973 63.316 64.007 63.135 62.587 62.987 62.511 60.861 58.403 58.068 58.356 58.673 58.672 57.683 57.524 57.288 57.308 61.284 61.877 66.623 64.864 61.222 58.382 68.993 75.737 77.03 73.676 73.759 73.016 76.407 75.778 71.788 70.185 65.563 71.053 67.623 72.686 73.086 71.405 69.165 68.775 70.009 67.268 67.29 66.284 67.146 67.843 66.504 66.76 67.105 67.377 67.637 67.813 68.021 68.272 68.682 68.919 69.347 69.665 69.917 70.013 70.352 70.62 70.943 71.21 71.554 71.876 72.123 72.467 72.798 73.037 73.041 -9999 -9999 -9999 -9999 -9999 -9999 -9999 -9999 -9999 -9999 -9999 -9999 -9999 -9999 -9999 -9999 -9999 -9999 -9999 -9999 -9999 -9999 -9999 -9999 -9999 -9999 -9999 -9999 -9999 -9999 -9999 -9999 -9999 -9999 -9999 -9999 -9999 -9999 -9999 -9999 -9999 -9999 -9999 -9999 -9999 -9999 -9999 -9999 -9999 -9999 -9999 -9999 -9999 -9999 -9999 -9999 -9999 -9999 -9999 -9999 -9999 -9999 -9999 -9999 -9999 -9999 -9999 -9999 -9999 -9999 -9999 -9999 -9999 -9999 -9999 -9999 -9999 -9999 -9999 -9999 -9999 -9999 -9999 -9999 -9999 -9999 -9999 -9999 -9999 -9999 -9999 -9999 -9999 -9999 -9999 -9999 -9999 -9999 -9999 -9999 -9999 90.574 90.604 90.599 90.629 90.654 90.689 90.759 90.824 90.879 90.919 90.954 90.942 90.912 90.894 90.822 90.759 90.737 90.672 90.662 90.614 90.574 90.552 90.519 90.534 90.547 90.489 90.477 90.419 90.459 90.457 90.407 90.392 90.447 90.432 90.357 90.339 90.312 90.382 90.819 89.904 89.794 89.784 89.807 89.879 90.242 90.049 89.909 89.874 89.882 90.072 90.379 93.517 92.312 93.012 93.312 91.464 90.789 89.769 89.714 89.639 89.612 89.574 89.512 89.449 89.389 89.349 89.289 89.349 89.549 89.512 89.069 89.352 92.087 92.152 92.109 92.059 92.022 91.879 89.324 88.964 88.924 88.697 88.404 88.137 87.817 87.727 87.672 87.652 87.647 87.519 87.412 87.329 87.209 87.134 87.024 86.852 86.667 86.479 86.274 86.104 85.922 85.754 85.604 85.449 85.309 85.114 84.944 84.764 84.599 84.514 84.364 84.179 84.057 83.924
45.681 45.798 47.581 48.126 47.981 47.526 47.896 49.533 50.183 50.046 48.471 47.833 47.831 47.893 47.976 48.021 51.241 51.248 48.352 48.156 48.783 54.396 60.943 62.947 63.731 61.427 63.5 64.101 64.813 62.496 57.601 56.441 56.881 56.846 54.348 67.343 68.006 69.283 68.838 67.232 56.778 51.578 50.622 50.153 51.801 57.421 57.683 57.388 57.347 57.115 57.42 58.099 57.792 54.214 50.189 50.393 50.51 51.481 52.484 53.675 53.27 55.564 54.546 54.96 52.359 52.073 52.078 51.715 51.243 51.676 52.988 52.493 51.058 50.988 51.361 51.58 53.555 53.115 51.163 51.108 52.923 53.601 53.453 53.288 58.474 60.135 58.455 51.925 51.9 51.897 51.863 54.906 59.718 59.987 58.102 54.734 54.672 55.296 55.28 55.542 54.104 55.691 55.668 55.07 53.884 55.236 56.352 52.869 54.915 58.295 58.42 58.387 58.248 58.395 58.503 58.383 58.475 58.778 58.897 58.655 58.745 55.19 58.265 56.839 58.878 60.07 58.968 56.844 56.096 55.773 55.72 55.891 54.69 52.687 52.305 52.288 52.348 52.377 52.398 52.386 52.385 52.405 52.507 52.893 54.098 55.963 59.488 59.481 58.008 55.354 54.562 54.213 54.338 54.891 55.378 55.47 57.031 55.906 56.291 56.243 56.546 56.75 56.918 57.116 58.769 60.62 58.093 57.667 59.468 62.83 62.115 59.146 58.638 58.439 58.45 57.155 56.8 56.878 56.951 57.044 57.175 57.346 59.641 65.206 64.378 60.755 64.463 72.845 76.158 75.528 77.409 76.449 73.086 75.388 67.593 72.437 69.094 66.162 68.951 72.183 68.203 72.458 68.377 66.994 65.863 66.252 66.497 66.617 68.645 68.228 66.974 66.835 67.093 67.198 67.353 67.925 68.173 68.277 68.433 68.836 69.04 69.446 69.755 69.909 70.178 70.492 70.757 71.123 71.405 71.656 71.983 72.271 72.511 72.911 73.104 73.088 -9999 -9999 -9999 -9999 -9999 -9999 -9999 -9999 -9999 -9999 -9999 -9999 -9999 -9999 -9999 -9999 -9999 -9999 -9999 -9999 -9999 -9999 -9999 -9999 -9999 -9999 -9999 -9999 -9999 -9999 -9999 -9999 -9999 -9999 -9999 -9999 -9999 -9999 -9999 -9999 -9999 -9999 -9999 -9999 -9999 -9999 -9999 -9999 -9999 -9999 -9999 -9999 -9999 -9999 -9999 -9999 -9999 -9999 -9999 -9999 -9999 -9999 -9999 -9999 -9999 -9999 -9999 -9999 -9999 -9999 -9999 -9999 -9999 -9999 -9999 -9999 -9999 -9999 -9999 -9999 -9999 -9999 -9999 -9999 -9999 -9999 -9999 -9999 -9999 -9999 -9999 -9999 -9999 -9999 -9999 -9999 -9999 -9999 -9999 -9999 -9999 90.634 90.634 90.664 90.652 90.694 90.739 90.814 90.892 90.899 90.969 90.992 90.987 90.972 90.907 90.874 90.824 90.779 90.737 90.702 90.682 90.657 90.597 90.572 90.547 90.579 90.554 90.532 90.479 90.502 90.492 90.424 90.442 90.609 90.629 90.557 90.389 90.594 90.484 91.084 89.932 89.884 89.909 89.904 89.922 90.044 90.172 90.019 90.149 90.377 90.014 89.887 89.874 89.877 89.887 89.857 89.852 89.829 89.762 89.742 89.679 89.622 89.614 89.602 89.537 89.452 89.389 89.349 89.407 89.597 89.759 89.122 90.092 91.742 91.779 91.842 91.897 91.924 91.594 89.267 88.949 88.757 88.622 88.409 88.099 87.889 87.802 87.742 87.714 87.629 87.547 87.462 87.367 87.279 87.167 87.034 86.927 86.719 86.542 86.339 86.177 86.029 85.837 85.657 85.447 85.294 85.117 84.959 84.797 84.669 84.539 84.354 84.182 84.062 84.002
47.547 46.652 47.938 49.828 51.293 47.173 47.878 47.846 47.756 48.549 47.761 48.632 48.477 48.663 45.361 48.665 49.599 51.348 48.297 49.488 50.897 52.103 52.211 60.836 57.896 62.641 62.478 61.741 60.476 54.993 54.124 51.821 55.188 49.799 49.558 57.858 67.703 63.038 64.44 62.034 56.765 52.779 52.821 50.146 50.093 57.069 57.258 55.188 53.824 55.104 57.193 57.433 57.308 54.198 50.229 50.31 50.407 50.728 51.853 53.021 56.972 57.978 56.479 53.515 50.865 51.095 51.5 51 50.818 51.634 51.783 52.325 51.03 51.487 50.693 51.793 53.928 52.542 50.959 50.913 51.957 53.583 53.583 52.923 58.253 60.065 59.223 54.432 51.904 51.895 51.848 55.035 59.408 60.185 59.329 60.275 57.641 57.704 58.045 59.683 58.313 57.923 57.718 57.363 57.26 57.353 57.655 53.938 53.973 57.138 59.114 58.961 59.063 59.215 59.264 59.07 59.188 60.148 59.602 59.455 59.83 55.058 52.89 55.618 59.773 60.079 59.344 58.915 58.838 58.699 58.055 56.96 56.463 52.965 52.36 52.33 52.33 52.36 52.375 52.424 52.446 52.418 52.46 52.555 52.713 54.765 59.075 59.933 58.594 56.997 54.558 53.894 54.118 54.7 54.933 55.133 57.593 54.939 55.785 55.988 56.222 56.435 56.56 56.887 57.035 57.353 57.283 57.513 58.23 60.826 58.547 57.296 57.443 56.69 56.488 56.465 56.31 56.424 56.667 56.803 56.908 57.067 57.137 59.886 62.047 61.435 66.043 71.226 73.973 76.138 75.302 75.939 74.201 69.657 71.124 71.832 67.319 64.848 65.285 69.705 71.146 69.309 66.38 65.832 65.643 65.969 66.533 66.658 67.067 67.59 67.431 67.435 67.521 67.443 67.413 68.082 68.504 68.697 68.725 69.059 69.212 69.469 69.748 69.956 70.279 70.613 70.876 71.133 71.586 71.82 72.121 73.137 72.685 72.987 73.171 73.151 -9999 -9999 -9999 -9999 -9999 -9999 -9999 -9999 -9999 -9999 -9999 -9999 -9999 -9999 -9999 -9999 -9999 -9999 -9999 -9999 -9999 -9999 -9999 -9999 -9999 -9999 -9999 -9999 -9999 -9999 -9999 -9999 -9999 -9999 -9999 -9999 -9999 -9999 -9999 -9999 -9999 -9999 -9999 -9999 -9999 -9999 -9999 -9999 -9999 -9999 -9999 -9999 -9999 -9999 -9999 -9999 -9999 -9999 -9999 -9999 -9999 -9999 -9999 -9999 -9999 -9999 -9999 -9999 -9999 -9999 -9999 -9999 -9999 -9999 -9999 -9999 -9999 -9999 -9999 -9999 -9999 -9999 -9999 -9999 -9999 -9999 -9999 -9999 -9999 -9999 -9999 -9999 -9999 -9999 -9999 -9999 -9999 -9999 -9999 -9999 -9999 -9999 90.674 90.684 90.727 90.734 90.782 90.839 90.914 90.997 91.007 91.009 91.029 90.974 90.957 90.907 90.849 90.804 90.777 90.744 90.727 90.692 90.637 90.619 90.594 90.627 90.609 90.554 90.509 90.574 90.517 90.459 90.479 90.634 90.689 90.529 90.562 90.874 90.492 91.099 90.122 89.922 90.017 89.992 89.957 89.984 90.197 90.369 90.109 89.927 89.932 89.939 89.934 89.929 89.919 89.902 89.882 89.854 89.832 89.834 89.754 89.659 89.659 89.679 89.604 89.502 89.394 89.294 89.322 89.839 89.569 89.132 89.487 90.254 90.332 90.447 90.347 90.507 91.357 89.269 88.987 88.767 88.639 88.449 88.089 87.897 87.842 87.822 87.722 87.662 87.617 87.507 87.394 87.289 87.149 87.029 86.887 86.724 86.564 86.409 86.249 86.104 85.912 85.707 85.512 85.334 85.197 85.024 84.869 84.757 84.587 84.464 84.319 84.179 84.114
52.743 49.163 48.625 48.802 51.646 51.575 49.143 49.113 49.128 49.148 47.781 49.797 51.789 50.749 49.862 50.814 50.085 49.546 48.053 50.011 51.993 50.988 49.061 48.418 48.353 58.148 57.389 54.601 55.951 53.141 49.223 49.204 49.397 49.466 49.616 51.632 52.681 54.501 51.168 53.778 54.393 54.628 54.116 50.131 50.061 52.138 53.516 51.066 50.471 51.118 53.7 55.095 54.873 52.175 50.178 50.236 50.36 50.81 51.323 52.989 56.895 58.106 55.48 54.989 52.203 53.245 53.275 53.359 54.046 54.1 51.175 51.205 51.447 53.1 53.133 52.795 53.685 53.083 52.805 54.619 54.26 54.693 55.163 53.499 57.726 59.747 59.455 56.312 52.365 52.535 51.86 54.639 59.215 60.243 59.627 60.325 59.203 59.688 58.457 59.485 58.963 58.6 58.713 58.315 58.553 58.728 58.259 54.74 56.584 59.019 59.836 59.783 59.923 60.581 59.799 59.848 60.003 60.42 60.143 60.23 60.41 54.103 53.313 61.22 60.84 60.699 60.385 60.35 61.251 59.908 59.403 59.378 59.21 57.313 55.095 53.106 52.354 52.37 52.358 52.455 52.465 52.438 52.413 52.432 52.557 52.888 58.608 59.954 57.396 53.385 53.725 53.717 54.31 55.069 54.087 53.798 55.685 57.205 55.092 55.708 55.968 56.173 56.278 56.555 56.72 56.873 57 57.211 57.429 56.698 56.523 56.546 56.182 56.058 55.947 55.965 56.073 56.888 56.435 56.628 56.778 56.936 57.523 58.849 59.962 61.957 64.518 66.907 69.123 71.63 70.73 70.005 71.498 71.326 66.06 69.325 66.169 64.681 64.723 65.578 65.725 65.546 66.006 65.978 65.916 65.868 66.44 67.157 67.466 67.749 67.978 68.127 68.257 67.858 68.246 68.121 68.792 69.063 69.066 69.237 69.458 69.64 69.852 70.099 70.416 70.706 71.027 71.275 71.663 71.973 72.304 72.617 72.868 73.174 73.248 73.248 -9999 -9999 -9999 -9999 -9999 -9999 -9999 -9999 -9999 -9999 -9999 -9999 -9999 -9999 -9999 -9999 -9999 -9999 -9999 -9999 -9999 -9999 -9999 -9999 -9999 -9999 -9999 -9999 -9999 -9999 -9999 -9999 -9999 -9999 -9999 -9999 -9999 -9999 -9999 -9999 -9999 -9999 -9999 -9999 -9999 -9999 -9999 -9999 -9999 -9999 -9999 -9999 -9999 -9999 -9999 -9999 -9999 -9999 -9999 -9999 -9999 -9999 -9999 -9999 -9999 -9999 -9999 -9999 -9999 -9999 -9999 -9999 -9999 -9999 -9999 -9999 -9999 -9999 -9999 -9999 -9999 -9999 -9999 -9999 -9999 -9999 -9999 -9999 -9999 -9999 -9999 -9999 -9999 -9999 -9999 -9999 -9999 -9999 -9999 -9999 -9999 -9999 90.719 90.722 90.737 90.744 90.832 90.899 90.954 91.032 91.037 91.044 91.059 91.014 90.974 90.934 90.869 90.802 90.769 90.749 90.754 90.714 90.669 90.659 90.594 90.609 90.652 90.599 90.577 90.622 90.559 90.502 90.512 90.579 90.724 90.592 90.459 90.512 90.382 90.567 90.307 90.147 90.227 90.124 90.047 90.042 90.069 90.082 90.084 90.024 90.002 90.007 90.002 90.032 90.024 89.999 89.964 89.944 89.924 89.932 89.854 89.787 90.619 90.614 89.644 89.549 89.477 89.319 89.304 89.929 89.699 89.192 89.284 89.394 89.452 89.292 89.274 89.204 89.139 89.107 89.037 88.902 88.779 88.544 88.449 88.432 87.882 87.822 87.762 87.734 87.642 87.499 87.412 87.304 87.199 87.059 86.912 86.794 86.619 86.434 86.272 86.147 85.969 85.777 85.572 85.404 85.274 85.132 84.962 84.822 84.709 84.627 84.499 84.339 84.239
53.811 50.761 48.708 50.122 52.228 51.255 49.564 49.106 49.156 48.681 49.092 51.658 53.622 52.494 50.483 52.253 53.616 51.228 48.033 50.338 51.936 51.023 49.236 48.288 48.361 48.366 54.121 52.611 48.843 49.985 50.634 49.398 49.746 50.033 50.136 50.836 51.906 49.946 51.511 53.661 55.351 56.213 54.133 51.163 50.083 50.233 50.463 50.317 50.298 51.476 53.606 53.966 54 52.765 50.163 50.261 50.477 50.605 51.224 53.644 57.144 58.203 56.28 55.75 55.988 56.07 56.941 55.809 55.858 55.56 51.165 50.56 55.645 57.682 56.499 55.375 55.37 55.652 55.679 55.79 56.068 56.323 56.055 56.707 58.145 60.025 59.38 56.248 52.569 52.488 51.79 54.22 60.793 60.58 60.713 61.34 61.665 61.864 59.59 59.915 60.158 59.785 59.568 59.785 60.003 59.76 59.788 60.718 60.13 60.514 60.393 60.558 60.645 60.568 60.55 60.693 60.853 60.889 60.935 60.983 60.462 53.088 54.545 57.739 59.753 60.368 60.37 60.46 61.189 60.778 60.705 61.015 60.747 59.643 59.195 58.53 54.539 52.345 52.414 52.433 52.435 52.478 52.422 52.43 52.463 52.5 52.838 53.382 52.79 53.134 53.347 53.902 53.885 53.518 54.301 56.613 57.903 59.905 56.848 55.145 55.917 56.715 56.295 56.309 56.502 56.805 57.225 57.066 56.425 56.325 55.808 55.771 55.74 56.213 55.833 55.819 55.867 55.95 56.22 57.425 62.031 63.348 63.72 60.53 61.555 61.423 60.348 59.222 64.124 67.575 65.939 65.383 65.2 64.563 60.955 62.712 63.349 63.941 64.336 64.986 65.487 65.132 65.914 66.415 65.817 66.173 66.911 67.517 67.939 68.242 68.428 68.464 68.093 69.089 70.768 69.55 68.622 68.991 69.231 69.429 69.655 69.788 69.94 70.201 70.5 70.822 71.153 71.433 71.732 72.135 72.379 72.74 73.147 73.472 73.485 73.465 -9999 -9999 -9999 -9999 -9999 -9999 -9999 -9999 -9999 -9999 -9999 -9999 -9999 -9999 -9999 -9999 -9999 -9999 -9999 -9999 -9999 -9999 -9999 -9999 -9999 -9999 -9999 -9999 -9999 -9999 -9999 -9999 -9999 -9999 -9999 -9999 -9999 -9999 -9999 -9999 -9999 -9999 -9999 -9999 -9999 -9999 -9999 -9999 -9999 -9999 -9999 -9999 -9999 -9999 -9999 -9999 -9999 -9999 -9999 -9999 -9999 -9999 -9999 -9999 -9999 -9999 -9999 -9999 -9999 -9999 -9999 -9999 -9999 -9999 -9999 -9999 -9999 -9999 -9999 -9999 -9999 -9999 -9999 -9999 -9999 -9999 -9999 -9999 -9999 -9999 -9999 -9999 -9999 -9999 -9999 -9999 -9999 -9999 -9999 -9999 -9999 -9999 90.744 90.719 90.784 90.809 90.857 90.902 90.979 91.012 91.052 91.072 91.074 91.009 90.974 90.952 90.839 90.832 90.829 90.784 90.747 90.722 90.699 90.654 90.637 90.662 90.674 90.664 90.609 90.622 90.584 90.539 90.537 90.502 90.677 90.689 90.417 90.464 90.474 90.409 90.567 90.304 90.334 90.204 90.129 90.137 90.167 90.154 90.147 90.117 90.099 90.082 90.092 90.092 90.104 90.084 90.062 90.014 90.004 89.949 89.952 89.917 91.879 90.724 89.654 89.614 89.567 89.457 89.327 90.107 89.374 89.207 89.212 89.309 89.374 89.352 89.279 89.212 89.134 89.062 89.124 88.927 88.794 88.664 88.607 88.444 87.954 87.917 87.842 87.772 87.657 87.542 87.417 87.342 87.234 87.104 86.944 86.814 86.667 86.507 86.347 86.182 86.042 85.837 85.649 85.477 85.359 85.237 85.082 84.947 84.849 84.732 84.597 84.457 84.354
52.658 46.718 47.836 51.206 52.185 51.677 51.348 49.716 49.093 48.558 48.39 49.98 53.803 53.008 52.828 52.963 53.758 51.047 47.953 52.583 52.708 52.356 52.461 52.508 52.085 50.726 48.807 48.767 48.728 49.371 50.524 49.116 49.126 49.751 49.702 49.67 51.011 52.216 52.266 53.301 55.263 56.059 54.586 51.158 50.008 52.586 51.562 50.214 50.137 53.091 56.023 51.85 51.895 51.06 50.172 50.415 50.748 50.953 51.375 53.721 56.926 58.143 56.423 57.123 56.996 57.105 57.66 56.97 57.014 56.805 53.658 51.091 58.025 58.791 58.473 57.385 57.471 57.383 57.407 57.693 58.218 58.023 58.017 58.574 59.313 59.854 59.643 56.63 51.708 51.95 51.715 51.83 62.334 62.438 62.473 62.308 62.489 63.18 60.575 60.363 60.105 60.693 60.923 59.813 59.796 60.11 60.01 60.153 59.46 60.475 60.535 60.295 60.118 60.685 60.406 60.035 60.164 60.265 59.898 59.53 59.478 55.104 53.3 56.38 58.335 59.115 59.233 59.198 59.469 59.848 59.83 59.985 60.543 60.69 60.51 60.193 55.594 52.443 52.413 52.404 52.433 52.435 52.439 52.38 52.41 52.348 52.36 52.459 52.778 53.281 53.751 53.945 54.248 53.705 55.593 58.094 59.799 59.242 57.018 55.636 55.46 55.655 55.953 56.137 56.323 57.163 56.823 56.069 55.693 55.586 55.365 55.509 55.515 55.935 55.663 56.359 58.61 57.238 59.122 63.015 67.428 69.074 68.643 62.462 60.986 59.338 59.338 59.527 59.707 61.87 62.281 62.478 64.617 63.766 62.117 65.69 64.819 63.925 63.639 64.655 65.09 64.51 64.913 65.447 65.821 66.564 67.152 67.687 68.069 68.402 68.625 68.7 68.519 68.787 69.887 69.274 68.848 69.104 69.225 69.768 69.863 69.997 70.154 70.429 70.724 70.949 71.252 71.523 71.763 72.2 72.494 72.913 73.218 73.53 73.589 73.592 -9999 -9999 -9999 -9999 -9999 -9999 -9999 -9999 -9999 -9999 -9999 -9999 -9999 -9999 -9999 -9999 -9999 -9999 -9999 -9999 -9999 -9999 -9999 -9999 -9999 -9999 -9999 -9999 -9999 -9999 -9999 -9999 -9999 -9999 -9999 -9999 -9999 -9999 -9999 -9999 -9999 -9999 -9999 -9999 -9999 -9999 -9999 -9999 -9999 -9999 -9999 -9999 -9999 -9999 -9999 -9999 -9999 -9999 -9999 -9999 -9999 -9999 -9999 -9999 -9999 -9999 -9999 -9999 -9999 -9999 -9999 -9999 -9999 -9999 -9999 -9999 -9999 -9999 -9999 -9999 -9999 -9999 -9999 -9999 -9999 -9999 -9999 -9999 -9999 -9999 -9999 -9999 -9999 -9999 -9999 -9999 -9999 -9999 -9999 -9999 -9999 -9999 90.794 90.824 90.809 90.869 90.904 90.969 91.047 91.107 91.152 91.109 91.084 91.067 91.024 90.967 90.937 90.877 90.864 90.814 90.779 90.777 90.727 90.692 90.709 90.642 90.654 90.687 90.649 90.644 90.637 90.614 90.604 90.547 90.579 90.564 90.579 90.527 90.507 90.479 90.627 90.392 90.429 90.282 90.257 91.404 93.862 93.637 93.342 93.052 92.832 92.484 92.347 92.344 92.324 92.829 92.522 90.094 91.044 92.849 92.917 92.767 93.694 92.872 92.619 92.397 89.654 89.534 89.427 90.279 89.374 89.227 89.232 89.257 89.262 89.442 89.529 89.494 89.384 89.359 89.284 88.932 88.657 88.834 88.757 88.509 87.977 87.959 87.879 87.809 87.702 87.564 87.479 87.362 87.279 87.132 86.989 86.824 86.687 86.509 86.329 86.174 86.039 85.849 85.669 85.509 85.397 85.292 85.197 85.112 85.012 84.897 84.734 84.562 84.442
45.521 46.191 47.252 51.781 52.369 52.56 52.411 50.191 49.106 47.925 47.252 48.981 53.889 53.398 53.403 53.246 53.853 50.641 49.036 53.773 53.778 53.881 53.926 53.615 53.683 51.851 50.031 48.973 48.741 48.711 48.853 48.916 48.931 49.251 49.223 49.308 50.838 52.421 54.616 54.138 54.916 56.183 54.426 50.856 49.971 53.114 51.517 50.221 54.817 57.212 55.73 52.391 50.998 50.772 50.401 50.553 51.06 51.28 51.59 53.315 57.233 58.065 56.315 58.816 58.299 58.333 58.33 58.199 57.974 57.92 55.47 50.433 58.74 59.165 59.555 59.328 59.276 59.395 60.23 59.648 59.5 59.264 59.398 59.797 60.3 60.055 59.465 54.963 51.883 51.603 51.665 51.753 59.705 61.185 60.665 59.715 60.8 59.875 57.08 56.944 58.905 58.905 56.205 56.533 55.145 56.883 57.355 55.295 54.045 57.42 57.158 56.258 55.673 58.505 57.218 56.433 56.018 57.052 56.093 55.688 55.278 55.243 53.03 53.058 53.205 54.598 54.988 55.04 56.263 57.345 58.714 58.845 59.622 59.975 60.28 61.146 53.03 52.705 52.751 52.403 52.41 52.425 52.442 52.435 52.383 52.375 52.362 52.388 53.473 53.464 53.791 53.807 53.373 55.105 58.751 59.936 59.1 58.375 56.538 56.519 54.823 55.363 55.643 56.109 56.76 56.243 55.551 55.379 55.333 55.273 55.277 55.385 55.369 55.434 57.297 59.04 60.517 59.652 58.857 59.978 64 64.074 66.238 61.313 58.97 59.599 60.619 60.807 60.621 60.3 61.891 64.027 65.84 64.618 62.84 64.835 64.833 63.865 64.448 66.156 65.377 64.964 64.795 65.199 66.049 66.763 67.258 67.795 68.168 68.371 68.699 68.925 68.966 69.017 69.138 69.23 69.193 69.211 69.337 70.063 70.273 70.301 70.501 70.761 70.865 71.071 71.44 71.623 71.863 72.518 72.552 72.938 73.249 73.611 73.62 -9999 -9999 -9999 -9999 -9999 -9999 -9999 -9999 -9999 -9999 -9999 -9999 -9999 -9999 -9999 -9999 -9999 -9999 -9999 -9999 -9999 -9999 -9999 -9999 -9999 -9999 -9999 -9999 -9999 -9999 -9999 -9999 -9999 -9999 -9999 -9999 -9999 -9999 -9999 -9999 -9999 -9999 -9999 -9999 -9999 -9999 -9999 -9999 -9999 -9999 -9999 -9999 -9999 -9999 -9999 -9999 -9999 -9999 -9999 -9999 -9999 -9999 -9999 -9999 -9999 -9999 -9999 -9999 -9999 -9999 -9999 -9999 -9999 -9999 -9999 -9999 -9999 -9999 -9999 -9999 -9999 -9999 -9999 -9999 -9999 -9999 -9999 -9999 -9999 -9999 -9999 -9999 -9999 -9999 -9999 -9999 -9999 -9999 -9999 -9999 -9999 -9999 -9999 90.844 90.852 90.877 90.922 90.949 91.049 91.079 91.142 91.172 91.152 91.134 91.107 91.097 91.037 90.994 90.924 90.877 90.847 90.819 90.792 90.752 90.737 90.702 90.674 90.654 90.707 90.684 90.672 90.677 90.664 90.649 90.642 90.619 90.612 90.632 90.549 90.612 90.587 90.547 90.414 90.487 90.394 90.377 92.302 94.784 94.794 94.784 94.782 94.782 94.759 94.764 94.742 94.752 94.729 94.662 90.389 92.114 95.744 96.124 96.137 96.082 96.072 96.059 95.027 89.894 89.627 89.564 90.289 89.307 89.229 89.202 89.189 89.334 89.304 89.194 89.207 89.154 89.107 89.084 88.882 88.732 88.614 88.539 88.279 87.919 87.919 87.832 87.794 87.667 87.567 87.434 87.354 87.244 87.122 86.972 86.844 86.654 86.484 86.269 86.054 85.909 85.784 85.639 85.582 85.504 85.399 85.327 85.269 85.192 85.042 84.862 84.712 84.584
45.286 45.446 47.65 51.944 51.875 51.991 52.016 50.118 49.091 47.676 46.921 51.146 53.873 53.881 54.056 54.026 53.988 51.873 50.554 55.311 55.348 55.233 55.086 55.095 55.162 52.144 50.113 48.803 48.736 48.763 48.841 48.888 48.918 49.918 50.578 49.213 52.924 55.903 55.858 55.26 54.798 56.438 55.04 51.154 50.388 54.189 53.893 51.154 55.335 57.018 55.026 51.315 50.82 50.763 50.595 50.738 50.803 51.669 51.79 53.05 57 58.095 56.493 58.973 58.334 58.2 58.163 58.78 58.643 58.373 52.998 50.385 57.146 57.825 57.678 58.639 58.429 57.91 57.708 57.684 57.978 57.578 57.22 57.831 58.71 58.258 57.893 54.86 51.86 51.855 51.585 54.013 57.036 56.109 54.234 53.34 52.385 53.079 53.781 52.841 53.04 57.353 57.812 52.885 52.525 53.822 53.628 52.258 52.235 52.893 53.339 52.933 53.238 53.219 52.772 52.961 52.858 53.16 53.057 53.083 53.063 53.094 52.994 53.043 54.07 54.378 53.618 53.963 53.73 53.285 53.731 53.708 56.37 58.525 59.11 58.406 53.277 53.328 53.398 52.534 52.51 52.413 52.419 52.418 52.423 52.376 52.324 52.333 52.423 53.452 53.428 53.655 57.151 59.028 60.044 58.375 57.21 56.613 56.583 56.541 56.484 57.008 55.578 56.345 55.807 54.928 54.783 55.079 55.043 55.138 55.256 55.276 55.303 57.291 60.99 60.91 60.942 59.902 57.387 57.113 57.607 60.728 61.702 59.496 59.451 60.328 61.311 62.019 61.652 61.733 62.167 63.925 64.188 62.763 62.414 63.18 62.815 63.326 64.543 65.258 65.447 64.838 65.028 65.442 66.223 66.82 67.328 67.878 68.24 68.44 68.787 69.051 69.167 69.252 69.398 69.327 69.442 69.846 70.153 70.292 70.568 70.484 70.683 70.875 71.194 71.385 71.597 71.779 71.954 72.343 72.659 73.009 73.351 73.568 73.569 -9999 -9999 -9999 -9999 -9999 -9999 -9999 -9999 -9999 -9999 -9999 -9999 -9999 -9999 -9999 -9999 -9999 -9999 -9999 -9999 -9999 -9999 -9999 -9999 -9999 -9999 -9999 -9999 -9999 -9999 -9999 -9999 -9999 -9999 -9999 -9999 -9999 -9999 -9999 -9999 -9999 -9999 -9999 -9999 -9999 -9999 -9999 -9999 -9999 -9999 -9999 -9999 -9999 -9999 -9999 -9999 -9999 -9999 -9999 -9999 -9999 -9999 -9999 -9999 -9999 -9999 -9999 -9999 -9999 -9999 -9999 -9999 -9999 -9999 -9999 -9999 -9999 -9999 -9999 -9999 -9999 -9999 -9999 -9999 -9999 -9999 -9999 -9999 -9999 -9999 -9999 -9999 -9999 -9999 -9999 -9999 -9999 -9999 -9999 -9999 -9999 -9999 -9999 -9999 90.864 90.912 90.942 91.024 91.087 91.157 91.184 91.202 91.232 91.194 91.142 91.114 91.034 90.987 90.937 90.892 90.877 90.847 90.834 90.799 90.774 90.739 90.707 90.697 90.727 90.697 90.674 90.669 90.689 90.667 90.672 90.594 90.677 90.669 90.549 90.624 90.817 90.797 90.472 90.462 90.464 90.457 92.434 95.059 95.072 95.064 95.079 95.039 95.034 95.022 95.004 95.019 95.014 95.012 90.897 91.304 96.772 96.819 96.744 96.724 96.727 96.749 95.984 89.737 89.639 89.754 90.344 89.334 89.247 89.194 89.242 89.532 89.487 89.647 89.492 89.429 89.244 89.057 88.927 88.742 88.564 88.397 88.207 87.809 87.727 87.654 87.619 87.537 87.459 87.354 87.302 87.134 87.004 86.822 86.684 86.527 86.347 86.132 86.019 85.982 85.879 85.829 85.694 85.612 85.507 85.432 85.397 85.379 85.244 85.052 84.879 84.762
45.169 45.256 47.266 48.516 48.468 47.443 46.951 46.629 46.541 47.529 47.346 51.488 52.913 52.776 52.803 53.241 52.426 49.486 48.233 57.318 56.578 56.49 56.536 56.489 56.443 52.148 49.993 48.821 48.856 48.749 48.826 48.891 48.911 50.443 52.556 52.786 54.218 56.626 56.446 56.373 54.708 56.352 55.052 51.957 51.309 54.528 54.119 51.51 54.728 54.887 52.608 50.471 51.612 50.725 51.75 51.188 51.861 51.645 51.423 53.864 55.873 55.15 56.547 55.186 54.503 54.28 53.668 54.525 56.435 54.203 51.085 50.295 55.207 56.498 54.993 53.848 54.334 53.818 53.683 52.723 54.678 52.485 52.33 52.908 54.313 51.802 51.435 51.248 53.581 51.578 51.315 52.813 56.623 55.04 53.465 54.359 53.7 54.416 53.07 54.328 55.437 57.66 58.441 56.691 55.817 56.77 56.158 52.97 52.113 52.144 52.485 52.413 52.428 52.515 52.588 52.843 52.695 52.728 52.833 53.923 53.575 53.094 53.055 53.103 53.161 53.761 53.495 53.975 53.658 53.251 53.748 53.981 53.358 54.261 56.01 55.259 53.42 54.092 53.105 52.628 52.633 52.484 52.372 52.382 52.402 52.408 52.361 52.31 52.32 52.695 53.533 53.465 59.493 59.698 60.24 58.133 56.87 56.603 56.569 55.348 55.929 55.992 55.833 55.99 55.247 55.18 54.609 55.386 54.984 55.075 55.156 55.221 57.518 59.748 60.295 59.811 58.642 56.801 56.858 57.092 59.354 61.93 62.503 61.665 59.349 60.583 61.288 62.301 62.106 62.343 62.855 63.004 62.991 62.652 62.22 62.577 62.908 63.283 63.883 64.313 64.526 64.977 65.414 65.885 66.418 67.245 67.51 68.07 68.344 68.528 68.933 69.286 69.441 69.567 69.61 69.481 69.693 70.396 71.247 71.251 70.816 70.919 70.926 71.109 71.506 71.759 71.872 72.095 72.155 72.403 72.807 76.355 74.832 73.774 73.705 -9999 -9999 -9999 -9999 -9999 -9999 -9999 -9999 -9999 -9999 -9999 -9999 -9999 -9999 -9999 -9999 -9999 -9999 -9999 -9999 -9999 -9999 -9999 -9999 -9999 -9999 -9999 -9999 -9999 -9999 -9999 -9999 -9999 -9999 -9999 -9999 -9999 -9999 -9999 -9999 -9999 -9999 -9999 -9999 -9999 -9999 -9999 -9999 -9999 -9999 -9999 -9999 -9999 -9999 -9999 -9999 -9999 -9999 -9999 -9999 -9999 -9999 -9999 -9999 -9999 -9999 -9999 -9999 -9999 -9999 -9999 -9999 -9999 -9999 -9999 -9999 -9999 -9999 -9999 -9999 -9999 -9999 -9999 -9999 -9999 -9999 -9999 -9999 -9999 -9999 -9999 -9999 -9999 -9999 -9999 -9999 -9999 -9999 -9999 -9999 -9999 -9999 -9999 -9999 90.922 90.962 90.994 91.077 91.129 91.189 91.242 91.282 91.277 91.242 91.204 91.162 91.107 91.022 90.992 90.924 90.937 90.874 90.882 90.862 90.837 90.799 90.769 90.739 90.727 90.714 90.664 90.692 90.717 90.654 90.684 90.622 90.624 90.607 90.469 90.517 90.637 90.609 90.477 90.474 90.529 90.502 92.322 95.369 95.362 95.339 95.352 95.337 95.319 95.317 95.314 95.304 95.284 95.084 90.124 90.504 96.269 96.567 96.542 96.554 96.524 96.572 95.662 89.764 89.709 89.819 90.077 89.359 89.307 89.229 89.377 90.217 90.674 90.862 90.734 90.344 89.494 88.974 88.924 88.799 88.529 88.314 88.339 87.862 87.727 87.642 87.532 87.449 87.377 87.294 87.227 87.094 86.949 86.779 86.634 86.504 86.397 86.264 86.207 86.109 85.989 85.894 85.784 85.684 85.604 85.572 85.562 85.539 85.444 85.269 85.087 84.937
45.061 45.163 45.296 46.208 45.698 45.898 46.146 46.238 47.951 46.561 46.821 47.01 47.132 47.293 47.837 48.788 48.575 47.693 52.641 55.473 55.593 55.721 55.982 55.981 56.346 52.746 49.588 49.088 49.343 50.213 49.096 48.911 49.733 49.503 51.42 51.478 52.086 55.696 55.846 55.381 54.663 54.936 54.72 51.755 49.671 50.391 50.653 51.164 53.008 54.955 51.663 51.066 51.131 50.36 50.28 51.244 54.241 52.8 53.764 57.225 51.335 50.59 50.56 50.465 50.821 50.655 51.12 50.646 50.389 50.278 50.193 50.245 53.052 52.085 50.875 53.57 52.5 53.978 52.005 54.728 52.541 52.125 50.925 50.905 51.115 53.195 51.195 51.213 58.059 54.908 51.063 53.572 55.838 54.725 55.568 56.807 53.682 54.36 51.81 52.189 54.083 56.063 56.794 54.404 55.159 53.495 53.2 52.021 52.108 52.14 52.243 52.33 52.38 52.772 53.029 52.86 52.684 52.73 52.818 52.888 52.972 53.052 53.115 53.125 53.192 53.255 53.26 53.284 53.282 53.246 53.228 53.198 53.183 53.047 52.983 52.885 52.852 52.871 52.703 52.713 52.696 52.459 52.368 52.348 52.383 52.402 52.385 52.355 52.331 52.336 52.69 53.311 53.851 57.43 59.298 59.725 57.815 56.605 55.582 54.205 57.28 59.198 54.916 55.292 55.531 54.604 53.583 54.71 55.163 54.921 55.106 56.946 57.57 59.015 58.666 57.463 56.13 56.403 56.794 57.093 59.375 61.775 63.648 64.195 64.137 66.135 63.768 63.851 62.135 62.57 62.835 63.543 62.673 62.311 62.447 62.872 63.365 63.789 64.291 64.7 65.063 65.612 65.978 66.274 66.88 67.435 67.719 68.082 68.448 68.758 69.07 69.467 69.742 69.812 69.87 69.99 70.263 70.769 71.537 71.442 71.185 70.916 71.083 71.555 71.72 71.953 72.154 72.321 72.374 72.58 74.709 78.36 77.658 75.324 -9999 -9999 -9999 -9999 -9999 -9999 -9999 -9999 -9999 -9999 -9999 -9999 -9999 -9999 -9999 -9999 -9999 -9999 -9999 -9999 -9999 -9999 -9999 -9999 -9999 -9999 -9999 -9999 -9999 -9999 -9999 -9999 -9999 -9999 -9999 -9999 -9999 -9999 -9999 -9999 -9999 -9999 -9999 -9999 -9999 -9999 -9999 -9999 -9999 -9999 -9999 -9999 -9999 -9999 -9999 -9999 -9999 -9999 -9999 -9999 -9999 -9999 -9999 -9999 -9999 -9999 -9999 -9999 -9999 -9999 -9999 -9999 -9999 -9999 -9999 -9999 -9999 -9999 -9999 -9999 -9999 -9999 -9999 -9999 -9999 -9999 -9999 -9999 -9999 -9999 -9999 -9999 -9999 -9999 -9999 -9999 -9999 -9999 -9999 -9999 -9999 -9999 -9999 -9999 -9999 90.999 91.027 91.039 91.099 91.177 91.217 91.282 91.334 91.312 91.269 91.237 91.217 91.147 91.067 91.034 90.999 90.979 90.967 90.942 90.902 90.864 90.824 90.802 90.737 90.747 90.722 90.704 90.722 90.744 90.732 90.682 90.604 90.604 90.527 90.394 90.514 90.577 90.534 90.457 90.447 90.567 90.589 93.402 95.549 95.574 95.584 95.599 95.579 95.422 95.612 95.399 95.582 95.529 94.557 90.199 91.602 95.842 95.889 95.874 95.922 95.884 95.927 94.519 89.764 89.742 89.924 90.277 89.439 89.482 89.422 89.564 90.527 91.259 91.909 91.889 91.224 90.012 88.984 88.852 88.874 88.534 88.452 88.184 87.989 87.887 87.782 87.672 87.574 87.487 87.394 87.284 87.174 87.044 86.894 86.752 86.644 86.514 86.384 86.267 86.144 86.039 85.962 85.862 85.757 85.694 85.674 85.689 85.697 85.617 85.452 85.312 85.172
44.883 45.058 46.663 47.491 47.996 47.32 48.511 49.852 53.062 52.785 47.281 47.021 47.051 48.051 48.187 48.688 47.683 48.626 47.928 50.711 50.628 52.183 51.881 52.556 51.553 50.673 50.088 49.778 49.906 51.123 51.042 49.736 49.993 50.111 50.321 51.546 51.526 54.237 53.356 52.749 51.638 51.596 51.448 50.458 49.503 49.556 49.566 49.923 50.848 53.172 54.108 50.561 50.178 50.275 51.537 54.774 60.265 62.325 64.017 62.919 58.872 52.664 51.941 50.59 51.565 50.84 53.274 53.855 50.375 50.275 50.248 50.189 52.7 54.035 55.814 57.99 52.757 52.143 52.509 52.182 51.295 54.097 52.81 54.643 51.233 51.318 51.265 51.123 58.299 58.26 54.846 53.707 54.295 54.493 51.328 57 55.514 53.564 52.39 56.435 54.343 56.108 58.273 53.867 54.35 53.07 51.965 52.02 52.094 52.17 52.241 52.32 52.407 52.493 54.485 54.388 52.702 53.948 52.848 52.92 53.01 53.03 53.103 53.447 53.229 53.325 53.923 53.293 53.298 53.207 53.235 53.183 53.104 53.023 53.013 52.877 52.81 52.82 52.736 52.753 52.564 52.403 52.338 52.294 52.3 52.33 52.368 52.4 52.383 52.318 52.315 52.73 53.438 53.458 55.873 58.983 59.704 56.17 54.08 55.329 57.61 59.505 53.439 55.064 54.262 53.145 53.589 55.117 54.725 55.278 55.371 57.442 56.308 56.395 55.735 55.886 56.143 56.426 56.967 57.243 59.177 63.613 65.145 66.925 67.489 65.449 65.79 64.586 62.625 62.814 63.087 63.303 62.975 62.769 62.915 63.375 63.693 64.128 64.635 65.117 65.557 65.995 66.364 66.682 67.11 67.58 67.877 68.263 68.77 68.937 69.238 69.624 69.904 69.986 70.153 70.528 70.625 71.025 71.308 71.234 71.287 71.133 71.314 71.735 71.976 72.137 72.448 72.615 72.698 75.133 79.622 80.225 75.124 75.791 -9999 -9999 -9999 -9999 -9999 -9999 -9999 -9999 -9999 -9999 -9999 -9999 -9999 -9999 -9999 -9999 -9999 -9999 -9999 -9999 -9999 -9999 -9999 -9999 -9999 -9999 -9999 -9999 -9999 -9999 -9999 -9999 -9999 -9999 -9999 -9999 -9999 -9999 -9999 -9999 -9999 -9999 -9999 -9999 -9999 -9999 -9999 -9999 -9999 -9999 -9999 -9999 -9999 -9999 -9999 -9999 -9999 -9999 -9999 -9999 -9999 -9999 -9999 -9999 -9999 -9999 -9999 -9999 -9999 -9999 -9999 -9999 -9999 -9999 -9999 -9999 -9999 -9999 -9999 -9999 -9999 -9999 -9999 -9999 -9999 -9999 -9999 -9999 -9999 -9999 -9999 -9999 -9999 -9999 -9999 -9999 -9999 -9999 -9999 -9999 -9999 -9999 -9999 -9999 -9999 90.994 91.027 91.097 91.137 91.247 91.282 91.327 91.357 91.359 91.334 91.304 91.237 91.169 91.109 91.064 91.024 91.007 90.977 90.954 90.932 90.904 90.864 90.832 90.777 90.759 90.764 90.732 90.737 90.744 90.772 90.722 90.682 90.639 90.942 90.477 90.582 90.544 90.587 90.514 90.494 90.594 90.629 92.954 95.857 95.919 95.914 95.912 95.897 95.869 95.899 95.729 95.874 95.769 94.869 90.224 90.712 94.219 94.282 94.559 94.459 94.362 94.419 93.949 89.804 89.809 90.072 90.414 89.514 89.577 89.429 89.519 90.397 91.599 92.562 92.482 91.627 90.054 89.067 88.839 88.802 88.579 88.457 88.192 88.044 87.907 87.814 87.722 87.617 87.504 87.419 87.344 87.187 87.057 86.937 86.802 86.652 86.507 86.389 86.262 86.164 86.087 86.017 85.944 85.874 85.804 85.797 85.812 85.822 85.757 85.614 85.494 85.392
44.803 44.897 45.31 48.448 45.848 46.521 46.93 51.113 51.653 53.705 46.866 47.036 47.358 51.049 53.134 52.516 47.423 47.526 47.538 47.571 47.648 47.738 47.808 47.915 47.968 48.095 48.693 49.433 48.343 48.691 49.413 50.696 48.951 50.328 49.403 50.496 49.368 49.455 49.496 49.491 49.521 49.468 49.421 49.306 49.223 49.291 49.613 49.9 49.929 54.024 55.394 51.743 50.383 50.465 53.824 55.362 62.911 60.534 63.323 65.218 61.649 50.718 51.03 53.135 54.382 53.111 53.555 55.485 53.903 50.568 50.206 51.56 54.369 57.509 58.32 54.3 50.988 52.551 50.615 52.602 50.735 50.69 51.768 50.572 50.708 50.635 50.653 51.198 53.795 58.725 51.898 52.02 51.778 51.565 51.185 51.373 51.995 51.568 51.453 54.595 53.795 51.64 53.02 51.767 51.805 51.893 51.973 52.029 52.098 52.216 52.265 52.358 52.448 53.474 59.013 60.797 62.697 54.875 53.619 56.079 55.305 56.265 53.65 54.399 53.12 53.839 55.04 53.941 53.243 53.2 53.165 53.128 53.078 53.03 52.967 52.898 52.795 52.667 52.64 52.569 52.516 52.405 52.378 52.308 52.29 52.305 52.351 52.326 52.39 52.373 52.3 52.3 53.129 53.628 54.037 56.788 59.037 55.058 54.57 55.632 54.493 53.825 54.016 53.632 53.242 53.048 53.203 54.799 56.032 56.746 56.416 55.535 55.62 55.52 55.581 56.099 56.25 56.565 57.048 57.408 58.237 64.138 65 65.885 65.879 63.715 63.675 62.54 62.855 63.023 63.513 64.69 63.843 63.022 63.318 63.65 63.946 64.371 64.918 65.311 65.688 66.295 66.826 67.087 67.292 67.463 67.979 68.435 68.883 69.075 69.455 69.744 69.899 70.175 70.42 70.898 71.133 71.207 71.495 71.639 71.1 71.155 71.464 71.879 72.313 72.577 72.613 72.762 75.285 78.023 82.09 76.391 75.531 -9999 -9999 -9999 -9999 -9999 -9999 -9999 -9999 -9999 -9999 -9999 -9999 -9999 -9999 -9999 -9999 -9999 -9999 -9999 -9999 -9999 -9999 -9999 -9999 -9999 -9999 -9999 -9999 -9999 -9999 -9999 -9999 -9999 -9999 -9999 -9999 -9999 -9999 -9999 -9999 -9999 -9999 -9999 -9999 -9999 -9999 -9999 -9999 -9999 -9999 -9999 -9999 -9999 -9999 -9999 -9999 -9999 -9999 -9999 -9999 -9999 -9999 -9999 -9999 -9999 -9999 -9999 -9999 -9999 -9999 -9999 -9999 -9999 -9999 -9999 -9999 -9999 -9999 -9999 -9999 -9999 -9999 -9999 -9999 -9999 -9999 -9999 -9999 -9999 -9999 -9999 -9999 -9999 -9999 -9999 -9999 -9999 -9999 -9999 -9999 -9999 -9999 -9999 -9999 -9999 -9999 -9999 91.082 91.134 91.192 91.252 91.334 91.394 91.382 91.432 91.369 91.309 91.259 91.187 91.132 91.102 91.067 91.037 91.032 91.004 90.982 90.954 90.897 90.849 90.814 90.797 90.789 90.734 90.737 90.747 90.787 90.729 90.727 90.589 90.569 90.587 90.599 90.604 90.914 93.924 93.799 93.747 93.619 95.487 96.299 96.284 96.267 96.267 96.264 96.262 96.272 96.234 96.224 96.217 96.202 90.664 90.949 93.107 93.444 93.657 92.719 93.667 93.669 92.332 89.857 89.834 90.207 90.274 89.572 89.672 89.487 89.714 90.524 92.012 92.752 92.502 91.617 89.907 89.039 88.777 88.757 88.604 88.499 88.232 88.007 87.909 87.787 87.697 87.579 87.477 87.397 87.292 87.167 87.017 86.877 86.804 86.674 86.567 86.444 86.334 86.232 86.172 86.104 86.057 85.984 85.942 85.922 85.952 85.982 85.909 85.769 85.667 85.589
44.708 44.759 44.86 44.94 45.041 45.038 45.146 47.115 51.928 49.009 45.413 45.473 45.626 48.048 49.583 48.896 48.44 48.551 48.471 47.683 47.653 48.123 47.956 47.991 48.011 49.525 54.111 57.934 55.042 49.782 49.936 50.483 56.583 51.453 51.669 50.616 49.673 49.608 50.833 49.707 49.698 49.811 49.551 49.143 48.836 48.885 49.679 49.9 52.048 56.607 52.144 52.89 52.503 53.644 55.081 58.321 62.695 60.125 60.002 61.473 57.143 50.532 52.261 53.773 53.785 54.499 53.644 56.883 53.084 50.312 50.147 50.018 51.305 52.633 54.608 54.098 51.988 53.22 52.961 50.438 50.378 50.43 50.506 50.53 51.7 50.593 51.156 50.73 50.815 50.865 50.977 51.025 51.06 51.158 51.225 51.263 51.35 51.373 51.465 51.513 51.548 51.883 52.053 51.98 51.788 51.843 52.197 53.125 52.465 52.513 53.12 52.559 52.927 57.233 62.798 63.387 64.027 61.92 59.205 58.958 57.158 57.225 55.584 55.547 55.945 56.154 56.243 56.163 56.255 55.896 55.804 55.567 54.635 53.831 53.087 52.873 52.803 52.68 52.658 52.558 52.462 52.448 52.414 52.399 52.469 52.485 52.355 52.307 52.373 52.334 52.379 52.268 52.268 52.573 53.539 54.394 56.223 54.729 54.709 54.298 52.775 52.898 53.238 56.767 55.062 53.35 53.025 54.619 55.295 56.894 57.235 55.952 55.083 55.22 55.391 55.81 56.171 56.656 57.198 57.546 59.297 63.235 65.873 63.307 62.598 61.233 61.562 61.797 62.297 62.585 63.481 64.735 63.646 63.106 63.458 63.907 64.243 64.63 65.028 65.409 65.859 66.625 66.912 67.159 67.328 67.6 68.236 68.569 68.873 69.131 69.516 69.717 70.122 70.307 70.464 70.934 71.276 71.553 71.665 71.773 71.164 71.305 71.594 72.072 72.369 72.694 72.873 73.029 72.98 80.103 78.878 74.166 75.044 75.455 -9999 -9999 -9999 -9999 -9999 -9999 -9999 -9999 -9999 -9999 -9999 -9999 -9999 -9999 -9999 -9999 -9999 -9999 -9999 -9999 -9999 -9999 -9999 -9999 -9999 -9999 -9999 -9999 -9999 -9999 -9999 -9999 -9999 -9999 -9999 -9999 -9999 -9999 -9999 -9999 -9999 -9999 -9999 -9999 -9999 -9999 -9999 -9999 -9999 -9999 -9999 -9999 -9999 -9999 -9999 -9999 -9999 -9999 -9999 -9999 -9999 -9999 -9999 -9999 -9999 -9999 -9999 -9999 -9999 -9999 -9999 -9999 -9999 -9999 -9999 -9999 -9999 -9999 -9999 -9999 -9999 -9999 -9999 -9999 -9999 -9999 -9999 -9999 -9999 -9999 -9999 -9999 -9999 -9999 -9999 -9999 -9999 -9999 -9999 -9999 -9999 -9999 -9999 -9999 -9999 -9999 91.124 91.164 91.259 91.309 91.377 91.437 91.452 91.469 91.419 91.347 91.312 91.222 91.199 91.177 91.104 91.097 91.062 90.999 90.972 90.967 90.897 90.877 90.854 90.844 90.819 90.784 90.757 90.717 90.792 90.757 90.714 90.624 90.637 90.734 90.549 91.024 92.402 96.887 96.867 96.869 96.847 96.844 96.807 96.792 96.789 96.772 96.762 96.747 96.752 96.734 96.704 96.694 95.124 90.447 90.857 93.079 93.074 92.899 93.094 93.122 92.857 92.264 89.904 89.877 90.242 90.112 89.624 89.689 89.592 89.899 91.087 92.402 92.819 92.559 91.619 89.892 88.977 88.714 88.704 88.667 88.459 88.209 88.012 87.894 87.789 87.719 87.584 87.484 87.394 87.304 87.149 87.044 86.909 86.817 86.722 86.597 86.497 86.384 86.314 86.244 86.189 86.152 86.119 86.047 86.057 86.092 86.152 86.087 85.932 85.824 85.764
44.686 44.743 44.803 44.911 44.951 45.056 45.126 45.186 45.216 45.296 45.431 45.568 45.611 45.686 45.798 45.888 45.955 46.108 46.236 46.338 46.643 47.053 47.608 46.955 47.108 48.908 53.423 49.583 54.741 53.232 49.038 51.51 50.993 53.841 53.986 54.899 52.31 53.176 52.381 50.67 52.613 52.946 52.953 50.195 48.624 48.715 49.147 49.158 50.576 49.61 50.653 49.445 49.303 50.45 51.243 51.238 56.082 59.663 60.605 63.138 54.776 49.758 52.794 49.918 51.259 53.092 51.363 52.969 54.394 52.082 50.015 50.028 50.103 50.142 50.142 50.185 50.235 50.526 50.51 50.398 50.45 50.467 50.5 50.555 52.386 56.373 58.809 51.435 52.776 50.84 50.947 51 52.645 51.13 51.153 51.23 51.255 51.32 51.657 53.116 53.239 53.653 53.69 51.929 53.463 53.65 54.505 54.228 56.699 61.466 56.883 54.195 55.295 60.464 63.487 64.246 63.671 60.416 56.548 57.191 56.168 56.438 56.194 56.338 56.401 56.245 56.51 56.69 56.605 56.716 56.738 56.712 56.806 56.244 54.488 54.232 52.725 52.684 52.641 52.541 52.493 52.432 52.438 52.544 52.595 53.147 52.561 52.294 52.358 52.3 52.323 52.289 52.265 52.35 52.645 54.085 55.01 54.66 54.043 52.692 52.723 52.753 56.065 59.022 58.713 56.601 53.764 53.076 53.133 54.943 56.222 55.593 55.011 55.083 55.436 55.733 56.146 56.732 57.343 57.996 61.865 63.799 67.295 64.14 63.114 62.852 61.939 62.158 62.358 62.591 62.967 63.24 63.499 63.439 63.469 63.805 64.284 64.664 65.21 65.679 65.987 66.548 66.927 67.172 67.613 67.75 68.601 68.821 69.232 69.348 69.56 69.826 70.064 70.313 70.632 71.051 71.349 71.729 71.805 71.999 71.751 71.413 71.743 72.122 72.418 72.665 72.977 72.947 76.62 78.894 78.303 76.49 75.125 75.466 -9999 -9999 -9999 -9999 -9999 -9999 -9999 -9999 -9999 -9999 -9999 -9999 -9999 -9999 -9999 -9999 -9999 -9999 -9999 -9999 -9999 -9999 -9999 -9999 -9999 -9999 -9999 -9999 -9999 -9999 -9999 -9999 -9999 -9999 -9999 -9999 -9999 -9999 -9999 -9999 -9999 -9999 -9999 -9999 -9999 -9999 -9999 -9999 -9999 -9999 -9999 -9999 -9999 -9999 -9999 -9999 -9999 -9999 -9999 -9999 -9999 -9999 -9999 -9999 -9999 -9999 -9999 -9999 -9999 -9999 -9999 -9999 -9999 -9999 -9999 -9999 -9999 -9999 -9999 -9999 -9999 -9999 -9999 -9999 -9999 -9999 -9999 -9999 -9999 -9999 -9999 -9999 -9999 -9999 -9999 -9999 -9999 -9999 -9999 -9999 -9999 -9999 -9999 -9999 -9999 -9999 91.162 91.197 91.299 91.334 91.432 91.459 91.502 91.479 91.459 91.392 91.357 91.272 91.239 91.174 91.114 91.107 91.089 91.014 90.972 90.949 90.939 90.884 90.892 90.854 90.832 90.787 90.787 90.754 90.754 90.737 90.719 90.664 90.657 90.837 90.544 90.749 93.392 97.387 97.362 97.352 97.332 97.314 97.292 97.284 97.264 97.267 97.257 97.254 97.237 97.219 97.219 97.207 97.144 90.604 90.637 91.189 91.289 90.827 90.834 91.114 90.297 90.204 89.929 89.899 90.302 90.034 89.657 89.737 89.494 90.109 91.322 92.549 92.854 92.692 91.569 89.994 89.112 88.689 88.724 88.677 88.442 88.172 88.002 87.849 87.767 87.709 87.609 87.507 87.414 87.319 87.189 87.069 86.917 86.837 86.722 86.619 86.502 86.417 86.347 86.302 86.262 86.242 86.199 86.162 86.199 86.264 86.309 86.252 86.102 86.017 85.949
45.253 44.648 44.892 44.853 47.676 46.241 47.311 47.518 51.094 51.258 48.776 45.457 45.588 48.051 45.738 46.497 46.409 46.183 46.231 48.421 51.048 52.278 50.392 52.117 56.053 52.891 59.161 52.546 48.239 50.588 47.351 48.906 50.293 50.066 48.881 50.553 50.991 49.741 58.078 55.841 49.694 48.221 48.336 48.428 48.51 48.603 48.618 49.241 49.082 48.776 48.85 48.945 49.287 49.197 49.155 49.243 50.241 57.347 57.712 61.417 60.619 52.306 49.66 49.725 49.805 49.836 49.868 49.908 50.293 51.388 50.05 50.093 50.18 50.162 50.183 50.228 50.506 50.313 50.32 50.365 50.366 50.406 51.658 57.37 57.565 63.45 59.778 61.574 56.951 51.554 51.493 54.39 52.792 51.412 51.273 51.259 51.564 52.64 53.96 54.73 55.045 55.253 54.9 53.168 54.901 54.603 54.805 54.86 55.447 59.573 58.392 54.343 54.699 57.078 60.754 64.282 61.005 55.568 56.148 56.398 56.405 56.67 56.915 57.111 57.041 57.198 57.403 57.441 57.318 57.285 57.415 57.399 57.288 57.15 56.863 56.518 57.141 60.504 63.364 55.992 52.819 52.421 52.429 52.525 52.588 52.694 52.755 52.458 52.373 52.297 52.293 52.28 52.305 52.299 52.248 52.904 53.768 53.411 52.539 52.598 52.653 53.144 58.618 59.728 59.583 58.765 54.234 52.778 53.532 55.107 55.197 54.835 54.778 55.192 55.405 55.832 56.285 56.823 57.435 57.812 58.171 61.64 63.68 64.634 67.396 64.516 62.506 62.289 62.475 62.746 62.95 63.13 63.288 63.495 63.671 63.925 64.228 64.657 65.215 65.636 66.136 66.66 67.115 67.484 67.837 68.074 68.508 68.903 69.248 69.352 69.636 69.891 70 70.321 70.795 71.125 71.498 71.535 71.67 71.83 71.74 71.771 71.977 72.195 72.473 72.771 73.053 73.051 76.545 81.015 76.927 74.709 74.648 74.622 -9999 -9999 -9999 -9999 -9999 -9999 -9999 -9999 -9999 -9999 -9999 -9999 -9999 -9999 -9999 -9999 -9999 -9999 -9999 -9999 -9999 -9999 -9999 -9999 -9999 -9999 -9999 -9999 -9999 -9999 -9999 -9999 -9999 -9999 -9999 -9999 -9999 -9999 -9999 -9999 -9999 -9999 -9999 -9999 -9999 -9999 -9999 -9999 -9999 -9999 -9999 -9999 -9999 -9999 -9999 -9999 -9999 -9999 -9999 -9999 -9999 -9999 -9999 -9999 -9999 -9999 -9999 -9999 -9999 -9999 -9999 -9999 -9999 -9999 -9999 -9999 -9999 -9999 -9999 -9999 -9999 -9999 -9999 -9999 -9999 -9999 -9999 -9999 -9999 -9999 -9999 -9999 -9999 -9999 -9999 -9999 -9999 -9999 -9999 -9999 -9999 -9999 -9999 -9999 -9999 -9999 91.234 91.254 91.307 91.379 91.447 91.527 91.504 91.509 91.489 91.464 91.379 91.304 91.272 91.192 91.154 91.112 91.059 91.042 90.997 90.967 90.932 90.899 90.869 90.852 90.844 90.827 90.837 90.807 90.792 90.764 90.734 90.647 90.609 90.609 90.754 90.884 93.734 97.882 97.864 97.849 97.822 97.812 97.817 97.774 97.769 97.742 97.739 97.739 97.722 97.712 97.699 97.682 95.412 91.139 91.467 90.802 90.754 90.472 90.297 90.327 90.104 90.164 89.972 89.917 90.542 89.942 89.687 89.654 89.489 90.157 91.687 92.702 92.924 92.602 91.657 90.092 89.094 88.747 88.837 88.767 88.654 88.237 88.037 87.867 87.802 87.694 87.604 87.494 87.409 87.329 87.182 87.047 86.949 86.824 86.702 86.579 86.497 86.434 86.414 86.382 86.399 86.382 86.314 86.282 86.319 86.359 86.404 86.379 86.294 86.162 86.064
