ncols 438
nrows 32
xllcorner    429034
yllcorner    543366
cellsize     2
NODATA_value -9999
82.811 82.938 83.531 83.516 82.671 82.643 82.558 82.498 82.441 82.448 82.438 82.421 82.438 82.418 82.426 82.401 82.403 82.388 82.398 82.403 82.421 82.441 82.458 82.458 82.468 82.468 82.498 82.508 82.516 82.513 82.521 82.513 82.501 82.498 82.488 82.493 82.526 82.556 82.571 82.566 82.578 82.566 82.576 82.571 82.586 82.613 82.601 82.623 82.628 82.633 82.663 82.661 82.683 82.673 82.653 82.658 82.658 82.666 82.668 82.648 82.643 82.623 82.648 82.658 82.813 83.368 83.661 83.681 83.698 83.761 83.758 83.746 83.766 83.811 83.851 83.871 83.871 83.878 83.898 83.876 83.891 83.916 83.978 84.021 84.076 84.116 84.158 84.165 84.201 84.201 85.018 84.393 84.205 84.025 84.018 84.228 84.558 84.528 85.095 84.945 85.541 85.976 84.563 84.476 84.385 84.298 84.228 84.141 84.018 83.855 84.131 85.573 88.743 88.436 87.458 86.498 84.788 85.543 84.891 84.046 84.018 84.093 84.05 84.088 84.313 84.936 84.453 84.933 84.601 84.335 84.333 84.353 84.366 84.66 84.958 84.72 85.258 85.025 85.64 86.623 89.325 90.615 91.015 91.38 91.193 90.808 89.655 86.68 85.7 85.79 85.145 85.858 85.568 84.948 84.598 84.8 84.483 84.785 85.658 84.985 85.485 85.073 85.65 84.798 84.558 84.3 84.313 88.518 90.593 90.998 90.235 86.83 84.233 84.265 84.603 84.52 84.22 84.235 84.203 84.368 84.953 85.35 85.175 87.253 87.195 87.195 86.71 85.21 84.723 84.878 85.138 86.88 86.188 87.213 87.24 86.13 84.738 85.758 88.17 88.238 87.893 85.14 84.738 84.708 84.655 84.593 84.603 84.573 85.683 85.985 85.358 84.61 85.123 87.078 87.653 88.698 89.343 87.418 84.673 84.623 85.658 87.195 89.263 91.385 91.75 90.465 88.078 86.035 88.685 90.385 91.848 91.585 91.228 87.318 85.81 85.755 85.773 85.628 85.69 85.77 85.713 85.53 85.358 85.285 85.388 86.13 87.255 86.638 85.805 88.783 91.775 92.25 91.55 86.838 85.548 85.548 85.558 86.188 85.693 85.438 85.478 85.485 85.538 85.99 86.09 85.875 88.128 91.325 92.413 92.38 91.388 88.948 88.683 85.885 86.058 86.148 86.14 86.143 86.115 86.085 86.013 86.003 86.155 86.205 86.118 86.093 86.018 86.018 86.04 86.043 86.07 86.098 86.105 86.093 86.14 86.155 86.145 86.143 86.138 86.14 86.158 86.133 86.123 86.13 86.123 86.12 86.133 86.168 86.163 86.15 86.12 86.11 86.098 86.063 86.085 86.113 86.11 86.123 86.125 86.13 86.12 86.123 86.108 86.153 86.175 86.178 86.153 86.153 86.143 86.16 86.15 86.168 86.16 86.195 86.198 86.185 86.19 86.2 86.195 86.203 86.193 86.195 86.193 86.188 86.138 86.195 86.523 86.465 86.145 86.135 86.228 86.4 86.66 86.905 87.17 87.33 87.393 87.41 87.46 87.463 87.458 87.47 87.503 87.558 87.61 87.675 87.705 87.745 87.723 87.748 87.808 87.875 87.97 87.98 87.983 87.988 88.023 88.083 88.133 88.1 88.1 88.148 88.175 88.215 88.26 88.288 88.28 88.308 88.36 88.378 88.415 88.428 88.453 88.493 88.498 88.513 88.575 88.583 88.59 88.645 88.698 88.798 88.97 89.17 89.38 89.593 89.733 89.833 89.923 90 90.06 90.133 90.213 90.27 90.33 90.363 90.385 90.44 90.5 90.538 90.57 90.593 90.62 90.68 90.715 90.798 90.843 90.913 90.985 91.02 91.068 91.145 91.183 91.225 91.245 91.263 91.288 91.333
83.281 84.093 83.966 82.858 82.668 82.663 82.603 82.513 82.491 82.476 82.471 82.498 82.486 82.471 82.448 82.418 82.413 82.393 82.406 82.388 82.431 82.446 82.468 82.488 82.488 82.486 82.503 82.511 82.528 82.523 82.518 82.518 82.513 82.493 82.513 82.518 82.526 82.581 82.568 82.586 82.596 82.596 82.603 82.571 82.588 82.596 82.631 82.653 82.628 82.651 82.663 82.673 82.686 82.683 82.666 82.663 82.676 82.651 82.663 82.653 82.633 82.638 82.691 82.746 83.156 83.623 83.673 83.701 83.748 83.771 83.766 83.783 83.811 83.851 83.891 83.876 83.888 83.903 83.908 83.888 83.933 83.981 84.026 84.065 84.12 84.175 84.175 84.203 84.228 84.251 84.358 84.623 84.745 84.093 84.143 84.283 84.588 84.595 85.148 85.096 85.425 85.763 84.675 84.561 84.48 84.348 84.263 84.165 83.998 83.96 83.848 85.866 87.285 87.86 87.633 86.528 85.278 84.705 84.618 84.061 84.09 84.108 84.098 84.203 84.885 84.498 84.328 84.336 84.343 84.355 84.363 84.391 84.353 84.723 86.16 87.54 89.33 89.008 86.988 85.678 88.098 91.3 91.038 90.62 90.213 89.653 87.408 85.123 84.793 84.68 84.738 84.733 84.828 84.808 84.715 85.058 85.6 85.318 84.775 85.415 85.573 84.628 85.4 85.075 84.505 84.565 84.658 88.213 90.683 90.94 90.145 85.493 84.33 84.553 85.083 84.618 84.26 84.418 84.708 84.465 84.52 84.553 85.07 89.898 89.78 89.528 89.335 85.183 84.658 84.688 84.748 86.07 86.543 87.223 87.26 85.97 84.793 85.673 87.118 87.638 87.7 84.76 84.743 84.755 84.715 84.643 84.655 84.643 85.578 85.84 84.76 84.5 84.505 84.643 85.263 86.368 87.395 84.935 84.915 84.698 86.628 87.645 90.78 91.665 91.52 89.838 87.805 86.98 88.583 91.765 92.56 92.34 92.088 91.8 91.393 88.185 86.715 85.795 85.733 85.738 85.708 85.685 85.79 85.92 85.598 85.915 86.69 85.945 85.48 85.695 88.173 90.6 90.93 85.608 85.598 85.643 85.683 85.723 85.733 85.59 85.578 85.605 85.585 86.055 85.913 85.83 86.798 90.91 92.2 92.483 91.518 89.475 88.795 86.16 85.788 86.055 86.17 86.188 86.145 86.123 86.053 86.045 86.028 86.385 86.688 86.168 86.115 86.1 86.105 86.105 86.078 86.105 86.11 86.125 86.16 86.185 86.178 86.163 86.158 86.17 86.175 86.178 86.19 86.17 86.15 86.153 86.165 86.183 86.165 86.128 86.118 86.108 86.12 86.1 86.103 86.148 86.138 86.148 86.145 86.143 86.165 86.173 86.145 86.165 86.2 86.18 86.185 86.155 86.19 86.193 86.188 86.185 86.165 86.195 86.223 86.22 86.238 86.228 86.235 86.233 86.198 86.173 86.19 86.215 86.205 86.183 86.2 86.71 86.595 86.178 86.208 86.305 86.483 86.77 86.998 87.223 87.378 87.438 87.463 87.47 87.478 87.495 87.493 87.555 87.59 87.653 87.693 87.738 87.748 87.775 87.803 87.86 87.925 87.953 87.983 87.988 88.018 88.08 88.118 88.145 88.148 88.153 88.155 88.205 88.228 88.253 88.25 88.283 88.338 88.365 88.365 88.393 88.43 88.44 88.498 88.54 88.59 88.595 88.615 88.65 88.678 88.725 88.835 89.018 89.228 89.43 89.65 89.793 89.933 90.023 90.118 90.205 90.255 90.318 90.345 90.37 90.418 90.445 90.483 90.508 90.528 90.538 90.575 90.598 90.65 90.72 90.8 90.843 90.91 90.955 91.013 91.093 91.118 91.18 91.2 91.243 91.275 91.298
83.348 84.121 82.951 82.738 82.723 82.681 82.618 82.553 82.541 82.513 82.508 82.528 82.546 82.546 82.526 82.483 82.461 82.428 82.411 82.438 82.456 82.486 82.496 82.516 82.491 82.496 82.503 82.491 82.503 82.521 82.526 82.516 82.503 82.496 82.513 82.533 82.548 82.553 82.558 82.568 82.601 82.603 82.606 82.628 82.616 82.598 82.638 82.658 82.638 82.651 82.673 82.708 82.703 82.683 82.683 82.681 82.678 82.663 82.656 82.633 82.621 82.671 82.713 82.986 83.451 83.698 83.718 83.758 83.791 83.776 83.791 83.806 83.821 83.853 83.876 83.898 83.871 83.881 83.896 83.923 83.981 84.018 84.063 84.111 84.171 84.188 84.205 84.241 84.268 84.308 84.34 85.848 84.903 84.178 84.336 84.335 84.571 84.613 84.618 85.09 85.55 85.533 84.688 84.608 84.555 84.826 84.565 84.236 84.071 83.968 83.933 84.715 87.023 86.771 85.413 84.623 84.373 84.373 84.305 84.08 84.093 84.138 84.103 84.66 84.788 84.41 84.406 84.41 84.368 84.368 84.381 84.493 86.811 88.73 89.69 90.293 90.705 90.868 87.2 85.575 86.878 89.63 89.995 89.128 87.525 85.638 84.52 84.718 84.963 85.478 85.39 85.56 85.325 85.32 84.918 86.815 87.005 86.108 84.845 85.535 85.098 84.66 85.088 85.705 84.36 84.33 84.648 89.043 90.783 90.838 90.035 85.38 84.88 85.61 85.74 84.395 84.313 84.613 85.268 84.49 84.55 84.57 85.98 90.968 90.93 90.803 89.973 84.595 84.688 84.803 84.915 85.613 86.778 86.748 86.615 85.758 85.06 84.873 84.855 85.095 84.843 84.755 84.785 84.805 84.705 84.695 84.705 84.698 84.75 86.303 85.288 84.58 84.578 84.988 84.763 84.86 84.725 84.755 85.655 85.393 85.243 86.375 87.88 90.305 90.845 88.635 86.748 87.718 89.525 92.103 92.185 92.548 92.6 92.468 92.28 89.93 88.103 86.798 85.913 85.793 85.773 85.743 85.705 85.805 85.92 87.183 86.1 85.73 85.628 85.563 85.535 86.415 86.175 85.988 85.895 85.698 85.72 86.065 86.855 85.748 85.685 85.713 85.68 85.763 85.83 85.83 86.205 90.428 91.818 91.873 90.695 89.103 88.683 88.503 86.283 86.143 86.21 86.203 86.19 86.158 86.093 86.078 86.093 86.108 86.355 86.855 86.213 86.178 86.165 86.145 86.138 86.125 86.118 86.163 86.163 86.193 86.223 86.183 86.198 86.205 86.203 86.185 86.213 86.213 86.188 86.183 86.193 86.185 86.173 86.148 86.148 86.165 86.145 86.108 86.138 86.15 86.158 86.178 86.155 86.148 86.17 86.168 86.178 86.16 86.165 86.2 86.213 86.205 86.208 86.21 86.203 86.198 86.185 86.183 86.205 86.223 86.245 86.255 86.263 86.253 86.213 86.203 86.198 86.2 86.245 86.238 86.215 86.308 86.798 86.583 86.273 86.303 86.413 86.6 86.865 87.075 87.3 87.42 87.468 87.473 87.493 87.525 87.523 87.538 87.59 87.663 87.71 87.728 87.778 87.793 87.8 87.855 87.923 87.97 87.98 87.973 88.015 88.018 88.053 88.108 88.14 88.15 88.128 88.185 88.19 88.193 88.228 88.243 88.315 88.353 88.348 88.38 88.4 88.418 88.513 88.55 88.61 88.625 88.625 88.643 88.685 88.723 88.755 88.863 89.063 89.293 89.505 89.713 89.923 90.045 90.145 90.223 90.263 90.323 90.358 90.37 90.39 90.418 90.435 90.44 90.468 90.47 90.48 90.52 90.59 90.65 90.715 90.778 90.833 90.903 90.973 91 91.068 91.115 91.175 91.195 91.26 91.275
83.786 83.171 82.986 82.858 82.808 82.751 82.688 82.618 82.563 82.543 82.548 82.561 82.556 82.563 82.578 82.541 82.496 82.473 82.461 82.448 82.471 82.488 82.501 82.516 82.518 82.498 82.506 82.498 82.496 82.521 82.516 82.518 82.513 82.503 82.551 82.548 82.563 82.576 82.563 82.593 82.593 82.616 82.613 82.623 82.628 82.626 82.641 82.681 82.676 82.673 82.688 82.711 82.691 82.693 82.678 82.676 82.678 82.681 82.688 82.646 82.633 82.691 82.876 83.358 83.703 83.773 83.813 83.821 83.798 83.811 83.791 83.818 83.821 83.821 83.856 83.871 83.858 83.891 83.913 83.968 84.003 84.041 84.101 84.156 84.205 84.188 84.228 84.253 84.29 84.318 84.538 86.19 86.671 86.16 85.898 84.32 84.643 84.705 85.501 85.853 85.866 85.198 84.818 84.668 84.648 84.603 84.448 84.201 84.751 85.433 86.97 85.288 85.73 86.756 86.65 84.635 84.4 84.391 84.373 84.088 84.133 84.18 84.133 84.878 85.066 84.478 84.528 84.485 84.458 84.663 84.925 86.586 90.061 90.473 90.903 91.365 91.373 91.105 88.823 86.135 86.173 87.523 86.095 84.58 84.733 84.84 84.728 84.7 84.855 85.298 85.995 85.505 85.308 85.25 85.34 86.088 86.135 85.615 84.81 84.855 84.888 84.688 84.62 85.493 85.173 84.288 84.738 89.893 90.865 90.773 89.955 84.548 85.05 84.618 85.983 84.493 84.298 84.523 84.768 84.63 84.678 84.585 87.03 90.62 90.725 90.348 88.328 84.585 84.723 84.87 85.058 85.43 86.145 86.003 85.08 85.31 84.955 86.308 85.248 85.613 84.873 85.52 85.488 85.243 84.715 84.71 84.773 84.738 84.72 84.933 85.65 86.048 85.468 85.67 85.065 84.815 84.988 84.913 86.725 85.508 86.045 86.07 85.555 86.698 87.585 87.633 86.44 88.703 90.295 91.98 91.395 91.693 91.938 92.203 92.183 88.513 88.21 87.92 85.94 85.875 85.89 85.853 85.8 85.78 86.183 86.748 85.823 85.82 85.803 85.763 86.643 86.518 88.455 87.783 87.223 86.875 85.965 86.813 87.443 85.938 85.803 85.855 85.83 85.87 85.915 85.88 85.818 87.755 88.778 88.353 88.125 88.363 88.685 88.283 86.953 86.213 86.253 86.268 86.23 86.21 86.148 86.188 86.17 86.143 86.26 86.273 86.315 86.258 86.233 86.213 86.195 86.165 86.153 86.183 86.18 86.198 86.183 86.213 86.223 86.208 86.215 86.23 86.25 86.25 86.213 86.228 86.215 86.18 86.178 86.19 86.19 86.19 86.188 86.13 86.133 86.17 86.17 86.195 86.175 86.19 86.19 86.2 86.205 86.19 86.183 86.23 86.228 86.218 86.23 86.235 86.235 86.225 86.21 86.213 86.215 86.23 86.258 86.265 86.27 86.28 86.253 86.23 86.218 86.218 86.258 86.283 86.258 86.27 86.355 86.86 86.59 86.328 86.38 86.463 86.668 86.928 87.125 87.343 87.458 87.463 87.5 87.558 87.565 87.56 87.593 87.645 87.685 87.74 87.77 87.803 87.82 87.875 87.915 87.95 88.015 88.015 88.04 88.028 88.075 88.103 88.125 88.173 88.153 88.16 88.178 88.18 88.195 88.235 88.265 88.305 88.333 88.365 88.393 88.435 88.503 88.538 88.595 88.663 88.668 88.668 88.673 88.703 88.713 88.77 88.925 89.123 89.345 89.58 89.808 90.005 90.143 90.22 90.26 90.318 90.343 90.37 90.378 90.378 90.378 90.388 90.393 90.405 90.41 90.453 90.5 90.548 90.63 90.7 90.763 90.835 90.895 90.925 91.013 91.093 91.16 91.188 91.248 91.29
83.071 83.103 83.116 83.036 82.943 82.843 82.773 82.696 82.623 82.603 82.601 82.581 82.613 82.601 82.603 82.606 82.563 82.521 82.493 82.503 82.483 82.501 82.506 82.501 82.503 82.523 82.526 82.523 82.533 82.528 82.541 82.538 82.521 82.521 82.541 82.551 82.561 82.583 82.586 82.606 82.621 82.593 82.626 82.626 82.656 82.666 82.663 82.701 82.663 82.691 82.706 82.713 82.698 82.703 82.711 82.673 82.658 82.663 82.656 82.653 82.691 82.818 83.201 83.626 83.758 83.823 83.848 83.831 83.816 83.788 83.786 83.808 83.838 83.821 83.851 83.886 83.871 83.911 83.956 83.996 84.028 84.063 84.121 84.175 84.193 84.213 84.241 84.283 84.311 84.338 84.333 85.82 84.763 86.168 84.84 84.343 84.693 84.788 84.788 85.23 85.26 85.46 84.936 84.908 84.618 84.578 84.58 85.05 85.393 86.84 87.133 87.08 85.921 85.873 84.976 84.826 84.4 84.4 84.538 84.198 84.158 84.181 84.228 85.256 85.766 84.626 84.583 84.513 84.506 85.896 86.618 86.983 89.468 91.28 91.278 90.883 90.478 90.07 88.715 85.65 84.898 84.685 84.575 84.875 84.845 85.085 84.955 85.043 85.553 85.18 86.46 85.35 85.113 85.053 85.083 85.005 85.36 86 84.84 84.88 84.835 84.728 84.613 85.45 85.178 84.978 86.025 90.138 90.93 90.663 89.66 86.17 84.41 84.673 85.915 84.47 84.293 84.343 84.348 84.65 84.963 84.81 84.833 87.96 88.543 87.77 85.723 84.665 85.178 85.73 85.233 85.658 85.323 85.21 85.228 85.035 85.07 89.775 90.905 90.803 90.275 86.883 85.82 86.195 84.99 84.753 84.783 84.77 84.788 84.778 84.808 84.875 85.41 85.793 86.243 85.68 85.01 85 85.41 85.503 86.073 86.433 85.25 85.258 85.78 86.658 86.85 87.123 89.33 90.325 86.833 88.358 90.028 91.358 90.23 88.55 86.745 86.588 85.9 85.938 85.983 85.958 85.928 85.875 86.92 86.79 85.953 85.918 85.888 86.055 88.65 89.648 90.528 89.708 88.998 88.123 86.238 87.48 87.623 86.043 85.928 85.968 85.943 86.015 86.063 86.038 85.97 86.513 86.765 86.595 86.273 86.615 86.6 86.265 86.835 86.505 86.635 86.323 86.765 86.265 86.373 86.24 86.188 86.23 87.143 87.998 86.933 86.35 86.31 86.34 86.295 86.23 86.23 86.218 86.2 86.165 86.18 86.19 86.218 86.215 86.238 86.275 86.288 86.255 86.258 86.243 86.25 86.205 86.225 86.22 86.213 86.21 86.21 86.185 86.158 86.175 86.18 86.18 86.215 86.22 86.208 86.208 86.225 86.245 86.2 86.198 86.248 86.245 86.235 86.245 86.24 86.24 86.243 86.24 86.263 86.25 86.265 86.28 86.265 86.298 86.273 86.258 86.23 86.218 86.245 86.273 86.298 86.265 86.288 86.453 87.135 86.485 86.395 86.463 86.548 86.773 86.985 87.21 87.395 87.445 87.515 87.555 87.565 87.598 87.623 87.66 87.66 87.695 87.74 87.788 87.835 87.903 87.923 87.953 87.96 88.023 88.055 88.078 88.093 88.1 88.15 88.168 88.188 88.188 88.185 88.173 88.213 88.248 88.26 88.308 88.373 88.403 88.415 88.47 88.51 88.558 88.625 88.673 88.678 88.685 88.7 88.718 88.728 88.743 88.835 89.003 89.135 89.413 89.655 89.875 90.103 90.235 90.288 90.305 90.33 90.35 90.388 90.375 90.368 90.335 90.343 90.353 90.363 90.388 90.42 90.47 90.528 90.605 90.683 90.758 90.843 90.898 90.965 91.05 91.118 91.155 91.268 91.603
83.086 83.121 83.131 83.173 83.118 83.033 82.931 82.821 82.733 82.671 82.653 82.641 82.648 82.653 82.661 82.643 82.601 82.556 82.551 82.563 82.528 82.526 82.536 82.513 82.513 82.511 82.533 82.526 82.556 82.571 82.551 82.543 82.518 82.558 82.578 82.586 82.591 82.603 82.603 82.601 82.603 82.626 82.638 82.651 82.658 82.666 82.673 82.683 82.681 82.691 82.721 82.731 82.726 82.708 82.701 82.678 82.653 82.666 82.676 82.691 82.786 83.036 83.526 83.753 83.821 83.853 83.871 83.863 83.831 83.828 83.806 83.833 83.836 83.833 83.851 83.868 83.871 83.901 83.948 84.018 84.048 84.081 84.143 84.186 84.203 84.233 84.273 84.303 84.311 84.338 84.373 85.068 84.648 86.238 84.643 84.388 84.715 84.828 84.818 85.323 86.11 86.318 85.208 84.891 85.383 87.226 85.258 84.906 85.438 87.748 89.958 90.23 87.443 85.413 85.461 85.008 85.156 85.12 84.34 84.268 84.208 84.238 84.243 85.163 86.048 85.346 84.853 84.603 84.673 84.991 86.635 86.833 87.275 90.705 90.288 89.89 88.605 86.503 84.93 84.583 85.303 84.858 84.71 84.768 84.81 85.078 85.66 85.865 85.34 85.233 85.03 85.043 85.043 85.04 84.978 85.023 85.005 85.865 85.23 84.91 84.853 84.758 84.663 86.645 89.063 84.935 85.338 89.81 90.998 90.593 89.238 85.133 84.43 84.748 85.745 84.35 84.315 84.345 84.393 84.545 84.63 84.653 84.623 84.578 84.563 84.58 84.643 85.028 85.86 85.875 85.503 85.675 85.493 85.088 85.575 85.068 85.038 90.388 91.38 91.44 91.428 86.775 85.328 86.28 84.99 84.79 84.843 84.84 84.845 84.805 84.833 84.84 84.828 84.84 84.898 84.965 85.013 85.025 85.095 85.125 86.5 86.09 85.378 85.548 86.313 87.448 86.598 86.285 86.085 85.77 85.66 85.678 85.94 86.888 88.403 87.615 86.105 85.875 86.46 86.315 86 85.998 86.015 85.983 87.325 86.575 86.113 86.058 86.12 87.38 89.22 91.795 92.613 93.015 91.998 90.798 87.315 87.533 87.483 86.155 86.09 86.123 86.093 86.133 86.63 87.193 86.6 86.523 89.048 88.245 88.603 87.995 87.568 87.34 87.41 87.603 87.558 87.54 88.29 87.86 88.245 87.783 88.1 87.978 88.205 87.965 87.663 86.675 86.533 86.49 86.395 86.33 86.27 86.203 86.203 86.185 86.183 86.195 86.2 86.233 86.248 86.275 86.283 86.278 86.273 86.248 86.245 86.23 86.2 86.228 86.238 86.225 86.245 86.21 86.2 86.178 86.213 86.228 86.225 86.24 86.223 86.228 86.228 86.225 86.233 86.22 86.248 86.273 86.26 86.29 86.285 86.285 86.275 86.278 86.298 86.283 86.278 86.3 86.285 86.285 86.28 86.27 86.25 86.253 86.29 86.303 86.333 86.29 86.27 86.345 86.605 87.165 86.515 86.453 86.535 86.643 86.865 87.068 87.263 87.41 87.488 87.52 87.57 87.595 87.62 87.63 87.628 87.668 87.715 87.743 87.808 87.883 87.91 87.94 87.97 88.003 88.043 88.055 88.08 88.108 88.118 88.15 88.185 88.195 88.18 88.168 88.185 88.22 88.278 88.303 88.353 88.418 88.47 88.488 88.51 88.59 88.628 88.683 88.688 88.69 88.733 88.723 88.72 88.73 88.75 88.843 88.98 89.23 89.47 89.74 89.97 90.17 90.275 90.295 90.323 90.358 90.358 90.363 90.33 90.3 90.293 90.285 90.305 90.318 90.35 90.423 90.458 90.513 90.613 90.703 90.783 90.868 90.93 90.978 91.028 91.06 91.125 91.253
83.111 83.108 83.111 83.156 83.163 83.166 83.106 83.028 82.896 82.808 82.723 82.701 82.698 82.711 82.706 82.671 82.671 82.613 82.598 82.571 82.566 82.563 82.536 82.531 82.521 82.538 82.531 82.538 82.566 82.573 82.558 82.548 82.558 82.551 82.583 82.618 82.611 82.618 82.626 82.588 82.596 82.613 82.628 82.666 82.663 82.678 82.678 82.688 82.683 82.696 82.711 82.703 82.728 82.703 82.701 82.676 82.673 82.693 82.698 82.763 82.981 83.383 83.726 83.841 83.848 83.878 83.863 83.858 83.828 83.803 83.806 83.826 83.838 83.828 83.851 83.861 83.911 83.946 83.978 84.018 84.068 84.141 84.186 84.203 84.221 84.263 84.313 84.305 84.338 84.361 84.388 84.988 85.19 86.91 84.933 84.513 84.741 84.866 84.898 85.201 85.343 86.253 85.675 85.638 86.11 85.26 84.903 85.528 88.425 90.403 90.728 90.925 89.808 85.528 85.451 85.053 84.436 84.406 84.593 84.353 84.293 84.32 84.315 84.763 85.5 85.346 85.548 86.538 87.318 86.805 85.728 85.613 86.955 88.528 86.888 86.22 85.483 84.673 85.213 85.338 84.978 85.685 85.875 84.805 85.15 85.5 85.098 85.095 85.13 85.258 85.028 85.053 85.075 85.028 85.003 84.993 85.038 85.473 85.883 84.895 84.845 84.763 84.683 87.973 89.413 86.225 84.63 85.848 87.098 86.995 86.375 84.465 84.608 84.668 84.49 84.358 84.35 84.38 84.428 84.615 84.735 84.74 84.685 84.685 84.683 84.668 84.738 84.883 85.033 85.118 85.228 85.803 86.223 85.633 86.105 85.043 85.025 89.628 90.705 90.658 90.88 86.155 85.315 86.078 84.895 84.863 84.863 84.86 84.863 84.853 84.868 84.893 84.868 84.883 84.935 84.918 84.983 85.013 85.055 85.08 85.215 85.593 85.705 85.598 85.92 86.638 85.715 86.31 86.503 85.673 85.65 85.713 85.74 85.768 85.92 86.015 86.405 86.57 87.208 87.465 87.12 86.3 86.083 86.515 87.95 86.22 86.203 86.175 86.323 87.455 90.158 92.153 92.91 92.81 92.103 91.825 86.698 86.49 86.795 86.25 86.203 86.228 86.188 86.293 86.393 86.468 86.755 89.26 90.858 90.323 89.035 89.015 87.885 86.575 86.563 86.593 86.643 86.398 87.185 88.175 87.715 86.95 87.325 86.548 86.68 88.155 88.418 88.155 87.448 86.583 86.513 86.418 86.28 86.215 86.185 86.168 86.195 86.188 86.203 86.22 86.26 86.275 86.283 86.263 86.275 86.253 86.243 86.258 86.245 86.24 86.238 86.228 86.233 86.243 86.23 86.228 86.248 86.248 86.238 86.228 86.223 86.215 86.233 86.23 86.26 86.265 86.248 86.29 86.313 86.313 86.328 86.328 86.313 86.328 86.328 86.318 86.31 86.3 86.293 86.285 86.285 86.295 86.28 86.295 86.29 86.31 86.318 86.313 86.29 86.3 86.41 86.753 87.195 86.548 86.54 86.62 86.735 86.968 87.175 87.313 87.428 87.495 87.525 87.57 87.605 87.63 87.64 87.673 87.695 87.745 87.803 87.875 87.935 87.98 87.995 88 87.998 88.033 88.063 88.095 88.128 88.153 88.183 88.18 88.198 88.195 88.198 88.245 88.283 88.308 88.378 88.443 88.475 88.493 88.528 88.603 88.648 88.668 88.67 88.675 88.693 88.72 88.738 88.76 88.745 88.758 88.865 89.038 89.295 89.56 89.813 90.055 90.253 90.285 90.31 90.31 90.3 90.318 90.293 90.278 90.278 90.27 90.263 90.29 90.32 90.37 90.44 90.515 90.59 90.688 90.77 90.82 90.863 90.87 90.925 91 91.083 91.133
83.126 83.111 83.143 83.166 83.178 83.201 83.231 83.171 83.093 82.981 82.883 82.806 82.778 82.756 82.751 82.696 82.706 82.653 82.623 82.601 82.591 82.571 82.561 82.551 82.543 82.541 82.538 82.573 82.583 82.603 82.583 82.573 82.593 82.568 82.583 82.593 82.591 82.611 82.608 82.606 82.623 82.628 82.658 82.671 82.661 82.673 82.678 82.693 82.706 82.716 82.721 82.733 82.733 82.703 82.688 82.691 82.678 82.703 82.768 82.958 83.281 83.676 83.801 83.863 83.888 83.871 83.878 83.823 83.806 83.781 83.828 83.846 83.868 83.878 83.876 83.891 83.941 83.963 84.016 84.048 84.088 84.161 84.181 84.22 84.23 84.278 84.321 84.338 84.348 84.37 84.4 84.913 85.275 85.84 85.23 84.631 84.803 84.923 85.313 85.783 85.805 86.533 85.663 85.713 85.248 84.951 86.131 87.578 88.383 90.863 90.72 90.908 90.321 86.785 85.073 85.221 84.55 84.671 84.715 84.418 84.37 84.436 84.388 84.701 85.006 84.823 84.978 85.918 87.913 86.51 84.498 84.51 84.985 85.06 84.75 84.745 85.1 85.673 85.685 85.493 85.088 85.863 86.36 85.233 85.523 85.13 85.105 85.103 85.138 85.158 85.09 85.035 85.045 85.018 84.993 85.01 84.985 85.105 85.935 86.003 87.883 86.335 85.153 86.035 87 85.193 84.51 84.528 84.53 84.938 85.095 84.645 85.53 85.98 86.253 84.518 84.378 84.39 84.423 84.713 84.82 84.785 84.77 84.918 85.258 85.208 85.075 84.96 85.063 85.215 85.335 86.123 86.41 87.093 87.873 86.36 85.58 87.345 87.86 87.708 88.178 85.383 85.283 85.483 84.908 84.908 84.925 84.915 84.913 84.87 84.858 84.855 84.81 84.83 84.868 84.905 84.978 85.018 85.078 85.11 85.213 85.533 85.56 85.243 85.385 85.678 85.548 86.345 85.84 85.693 85.788 85.635 85.8 85.99 85.755 85.785 85.925 86.223 86.303 86.83 86.69 86.778 87.518 88.023 87.865 86.345 86.24 86.25 86.283 86.78 91.288 92.478 93.068 92.533 91.338 86.35 86.218 86.36 86.56 86.568 86.345 86.34 86.33 86.68 88.088 87.563 86.95 90.853 92.563 93.295 92.478 90.298 88.413 86.705 86.56 86.555 86.41 86.383 87.03 87.663 87.118 86.568 86.863 86.413 87.718 89.723 90.243 87.428 88.1 87.255 86.588 86.503 86.35 86.248 86.21 86.19 86.208 86.218 86.255 86.25 86.24 86.258 86.275 86.285 86.263 86.275 86.28 86.265 86.265 86.26 86.265 86.25 86.25 86.258 86.258 86.265 86.275 86.258 86.265 86.258 86.248 86.263 86.268 86.258 86.28 86.298 86.26 86.285 86.313 86.333 86.343 86.363 86.355 86.343 86.358 86.35 86.36 86.338 86.325 86.328 86.333 86.315 86.335 86.338 86.328 86.335 86.333 86.318 86.3 86.29 86.343 86.445 87.025 87.085 86.608 86.613 86.693 86.84 87.103 87.235 87.32 87.415 87.54 87.585 87.585 87.6 87.63 87.67 87.69 87.735 87.808 87.835 87.923 87.985 87.995 88.01 88.005 88.008 88.023 88.06 88.095 88.148 88.163 88.173 88.178 88.185 88.223 88.255 88.278 88.315 88.373 88.428 88.45 88.47 88.52 88.588 88.615 88.648 88.653 88.668 88.705 88.693 88.723 88.733 88.753 88.788 88.78 88.893 89.105 89.34 89.598 89.878 90.09 90.235 90.238 90.255 90.25 90.26 90.263 90.248 90.25 90.248 90.235 90.263 90.323 90.385 90.48 90.543 90.605 90.678 90.743 90.8 90.848 90.888 90.9 90.973 91.025 91.053
83.171 83.161 83.158 83.176 83.193 83.218 83.228 83.246 83.233 83.143 83.048 82.938 82.863 82.821 82.781 82.771 82.723 82.693 82.668 82.641 82.606 82.606 82.583 82.568 82.571 82.556 82.581 82.596 82.596 82.571 82.586 82.591 82.591 82.596 82.586 82.586 82.578 82.583 82.596 82.616 82.663 82.641 82.668 82.676 82.671 82.688 82.673 82.703 82.721 82.716 82.706 82.738 82.746 82.721 82.703 82.681 82.696 82.746 82.893 83.151 83.576 83.826 83.843 83.868 83.901 83.868 83.851 83.833 83.836 83.818 83.833 83.873 83.876 83.888 83.911 83.938 83.961 83.998 84.033 84.063 84.116 84.171 84.191 84.243 84.275 84.313 84.345 84.34 84.358 84.375 84.421 84.718 85.958 84.683 84.451 84.656 84.796 84.978 85.061 85.053 86.093 86.641 85.531 85.403 85.203 85.068 85.686 86.748 87.523 89.283 90.268 90.868 90.418 87.406 84.843 84.793 84.896 84.853 84.84 84.49 84.446 84.476 84.463 85.133 86.743 86.923 87.063 87.381 87.903 86.701 84.711 84.656 84.615 84.86 84.733 84.868 85.068 85.333 85.08 84.97 85.868 86.353 85.465 85.593 85.2 85.165 85.115 85.115 85.128 85.138 85.1 84.985 84.995 84.95 85.865 86.755 85.345 85.048 85.65 85.843 90.093 88.858 85.023 84.71 85.085 85.085 84.545 84.555 84.583 84.553 84.918 84.448 84.413 85.275 86.003 84.38 84.388 84.39 84.505 84.678 84.79 84.815 84.823 84.82 85.003 85.22 85.06 85.003 85.098 85.205 85.313 85.463 85.355 85.305 85.47 85.983 86.748 86.528 86.353 85.593 85.818 85.383 86.205 85.405 84.93 84.953 84.963 84.918 84.868 85.128 85.718 85.885 85.943 85.715 85.283 84.963 84.96 85.013 85.08 85.108 85.185 85.203 85.25 85.273 85.268 85.305 85.375 85.48 85.83 85.815 85.688 85.53 85.53 85.558 85.673 85.808 86.518 86.915 87.603 88.78 87.945 86.698 86.283 87.13 87.898 88.328 87.835 86.365 86.84 87.13 91.825 92.748 92.97 92.243 89.125 86.305 86.273 86.433 86.648 87.765 86.498 86.453 86.418 86.675 86.863 87.028 87.86 91.853 92.865 93.165 92.225 90.315 89.533 87.098 86.633 86.495 86.388 86.4 86.338 86.325 86.308 86.305 86.293 86.423 86.9 89.578 90.14 88.5 87.158 87.033 86.588 86.538 86.388 86.28 86.238 86.208 86.205 86.253 86.263 86.27 86.27 86.265 86.28 86.28 86.248 86.278 86.29 86.253 86.265 86.268 86.278 86.303 86.31 86.318 86.293 86.29 86.29 86.283 86.288 86.273 86.288 86.295 86.293 86.3 86.313 86.31 86.313 86.288 86.295 86.343 86.393 86.398 86.375 86.395 86.378 86.363 86.363 86.355 86.348 86.353 86.353 86.353 86.353 86.348 86.353 86.355 86.355 86.33 86.313 86.305 86.325 86.38 86.543 87.143 87.153 86.658 86.688 86.795 86.953 87.155 87.255 87.37 87.533 87.57 87.598 87.623 87.655 87.683 87.703 87.728 87.798 87.868 87.928 87.965 88.008 88.003 88.023 88.013 88.025 88.055 88.073 88.11 88.12 88.133 88.165 88.175 88.205 88.263 88.285 88.323 88.365 88.413 88.425 88.448 88.503 88.553 88.593 88.615 88.61 88.66 88.65 88.678 88.688 88.723 88.735 88.773 88.778 88.803 88.915 89.14 89.378 89.675 89.9 90.113 90.193 90.195 90.193 90.195 90.193 90.2 90.188 90.215 90.235 90.28 90.355 90.42 90.485 90.525 90.59 90.653 90.728 90.798 90.833 90.875 90.88 90.925 90.97 91.01
83.201 83.191 83.198 83.216 83.236 83.256 83.246 83.271 83.291 83.291 83.241 83.103 82.983 82.943 82.883 82.841 82.818 82.786 82.763 82.683 82.643 82.613 82.586 82.598 82.596 82.588 82.593 82.591 82.608 82.613 82.613 82.631 82.593 82.601 82.581 82.586 82.591 82.576 82.593 82.616 82.648 82.648 82.678 82.678 82.676 82.698 82.701 82.723 82.728 82.713 82.723 82.741 82.746 82.726 82.726 82.716 82.768 82.871 83.088 83.391 83.758 83.848 83.876 83.913 83.933 83.888 83.846 83.858 83.863 83.848 83.886 83.896 83.898 83.913 83.931 83.971 83.993 84.021 84.061 84.111 84.166 84.201 84.246 84.263 84.308 84.33 84.358 84.363 84.383 84.406 84.431 85.038 87.491 84.568 84.565 84.771 84.855 85.063 85.103 85.296 85.631 87.201 85.573 85.373 85.223 85.126 84.978 84.756 85.158 89.066 89.918 88.305 85.87 86.43 85.861 84.968 84.848 84.818 84.838 84.58 84.561 84.568 84.54 84.723 84.713 85.668 85.538 86.348 86.896 85.881 85.003 84.915 85.643 85.773 85.993 86.523 85.683 85.735 85.438 85.163 85.323 86.54 85.61 85.255 85.253 85.165 85.148 85.113 85.143 85.15 85.258 85.12 84.94 85.218 86.713 87.213 86.703 85.398 85.278 85.708 90.245 90.275 89.975 89.885 89.518 90.085 89.645 86.805 85.443 85 84.875 84.558 84.568 85.518 85.468 84.368 84.42 84.38 84.543 84.66 84.74 84.788 84.935 84.865 84.888 84.93 84.988 85.09 85.17 85.26 85.34 85.615 85.37 85.345 85.348 85.398 85.803 87.97 88.35 87.755 87.165 85.65 85.875 85.293 85.003 85.005 84.985 84.918 85.243 86.128 85.488 84.808 84.92 85.17 85.548 86.108 85.9 86.15 86.003 85.635 85.333 85.253 85.285 85.305 85.29 85.288 85.395 85.43 86.215 86.095 85.635 85.555 85.623 85.598 85.748 86.838 86.853 88.368 91.338 90.898 90.24 89.49 87.355 86.243 86.753 87.075 87.643 86.32 88.405 90.443 92.315 93.025 92.668 91.973 87.163 86.51 86.468 86.535 86.955 87.795 86.633 86.56 86.54 86.89 86.803 86.815 88.99 92.168 93.495 92.965 92.028 89.948 88.95 86.558 86.865 86.575 86.415 86.45 86.35 86.34 86.3 86.31 86.315 86.438 86.678 88.49 88.318 88.158 87.38 86.65 86.565 86.538 86.385 86.315 86.26 86.235 86.238 86.26 86.27 86.275 86.288 86.283 86.27 86.255 86.235 86.25 86.265 86.26 86.26 86.285 86.303 86.333 86.35 86.335 86.323 86.328 86.308 86.29 86.288 86.3 86.33 86.345 86.333 86.328 86.315 86.333 86.348 86.34 86.305 86.35 86.395 86.393 86.395 86.413 86.388 86.405 86.4 86.405 86.38 86.395 86.398 86.398 86.395 86.373 86.375 86.39 86.393 86.39 86.363 86.368 86.355 86.343 86.458 86.68 87.238 87.078 86.735 86.77 86.88 87.055 87.203 87.348 87.51 87.583 87.628 87.618 87.643 87.67 87.715 87.735 87.778 87.85 87.918 87.955 88.003 88.018 88.018 88.023 88.053 88.065 88.06 88.068 88.083 88.105 88.14 88.173 88.21 88.283 88.285 88.313 88.338 88.393 88.4 88.433 88.46 88.503 88.543 88.6 88.595 88.633 88.603 88.625 88.665 88.68 88.698 88.733 88.775 88.783 88.808 88.935 89.175 89.428 89.743 89.948 90.105 90.168 90.153 90.13 90.13 90.168 90.173 90.218 90.253 90.3 90.34 90.4 90.453 90.5 90.575 90.635 90.69 90.728 90.79 90.825 90.89 90.93 90.95 91.008
83.218 83.236 83.228 83.248 83.278 83.256 83.246 83.276 83.298 83.346 83.316 83.208 83.106 83.056 83.003 82.948 82.886 82.873 82.853 82.781 82.721 82.653 82.626 82.636 82.618 82.621 82.603 82.613 82.636 82.651 82.658 82.638 82.621 82.616 82.611 82.618 82.606 82.583 82.598 82.628 82.666 82.671 82.681 82.691 82.698 82.716 82.743 82.743 82.716 82.698 82.726 82.738 82.758 82.748 82.733 82.786 82.901 83.048 83.256 83.651 83.826 83.848 83.886 83.928 83.941 83.923 83.858 83.863 83.856 83.891 83.896 83.913 83.898 83.936 83.986 83.998 84.021 84.046 84.066 84.153 84.193 84.208 84.251 84.281 84.315 84.353 84.391 84.376 84.381 84.425 84.458 84.501 85.175 85.9 84.561 84.673 84.83 85.128 85.171 85.441 86.05 85.68 85.525 85.4 85.273 85.218 85.108 84.91 84.658 85.088 86.973 86.82 89.756 90.803 87.443 85.468 85.748 84.885 84.828 84.703 84.6 84.603 84.638 84.733 84.771 85.385 85.561 85.528 87.403 86.946 87.038 86.283 85.153 86.073 85.24 85.14 85.555 86.338 85.653 85.348 86.3 86.005 85.745 85.435 85.258 85.19 85.155 85.115 85.128 85.093 85.065 85.358 85.173 85.71 86.738 87.833 85.968 84.805 84.74 85.743 91.08 91.035 90.998 90.998 90.958 90.92 90.863 88.29 86.085 84.523 84.55 84.6 84.575 85.755 85.005 84.385 84.455 84.458 84.595 84.708 84.77 84.81 84.825 84.875 84.965 85.023 85.078 85.183 85.258 85.31 85.35 85.78 85.415 85.385 86.133 86.113 86.64 91.055 92.175 91.928 89.858 85.945 85.633 85.238 85.023 85.06 85.015 85.045 85.183 85.063 85.163 84.908 84.865 84.855 84.883 85.845 85.288 85.238 86.045 86.403 86.528 86.145 86.088 85.358 85.388 85.313 85.358 85.465 85.505 85.555 85.605 85.66 85.668 85.71 86.083 86.185 86.088 90.228 92.045 92.763 92.555 90.808 86.29 86.303 86.315 86.47 87.9 86.675 87.68 89.428 90.293 91.52 91.87 92.07 88.045 86.855 86.515 87.043 87.023 86.708 86.68 86.618 86.68 86.938 86.678 86.725 90.15 92.385 93.263 92.688 91.3 89.48 88.73 87.62 86.788 86.415 86.393 86.38 86.35 86.33 86.32 86.33 86.338 86.44 86.508 87.118 87.865 87.075 86.703 86.675 86.62 86.5 86.37 86.298 86.268 86.25 86.26 86.268 86.273 86.27 86.288 86.288 86.265 86.263 86.258 86.255 86.243 86.273 86.273 86.29 86.323 86.363 86.388 86.35 86.36 86.355 86.33 86.325 86.315 86.298 86.338 86.358 86.345 86.35 86.343 86.355 86.36 86.378 86.358 86.37 86.41 86.418 86.425 86.43 86.42 86.413 86.418 86.43 86.415 86.405 86.415 86.403 86.425 86.42 86.415 86.415 86.415 86.44 86.43 86.415 86.398 86.383 86.403 86.508 86.78 87.448 86.92 86.758 86.843 86.948 87.12 87.3 87.478 87.565 87.615 87.605 87.62 87.68 87.713 87.76 87.79 87.848 87.888 87.933 87.99 88.02 88.01 88.018 88.043 88.073 88.055 88.05 88.068 88.085 88.133 88.195 88.243 88.255 88.27 88.278 88.315 88.363 88.41 88.47 88.453 88.478 88.498 88.555 88.573 88.563 88.58 88.58 88.618 88.653 88.68 88.683 88.733 88.793 88.82 88.833 88.99 89.205 89.47 89.758 89.953 90.098 90.14 90.14 90.14 90.168 90.218 90.23 90.27 90.305 90.33 90.383 90.42 90.465 90.493 90.533 90.583 90.66 90.745 90.783 90.853 90.938 90.945 90.99
83.288 83.268 83.291 83.298 83.281 83.296 83.281 83.301 83.318 83.353 83.341 83.261 83.223 83.181 83.116 83.053 82.996 82.988 82.946 82.893 82.821 82.758 82.711 82.663 82.656 82.641 82.638 82.631 82.651 82.673 82.676 82.658 82.638 82.626 82.656 82.643 82.631 82.621 82.618 82.646 82.663 82.693 82.703 82.708 82.718 82.751 82.771 82.766 82.733 82.718 82.741 82.761 82.761 82.771 82.803 82.906 83.058 83.226 83.508 83.808 83.848 83.886 83.913 83.953 83.938 83.903 83.871 83.866 83.898 83.903 83.928 83.928 83.951 83.973 84.003 83.986 84.058 84.081 84.123 84.171 84.221 84.251 84.286 84.305 84.346 84.37 84.403 84.406 84.415 84.473 84.491 84.508 86.493 85.573 84.546 84.675 84.873 85.163 85.293 85.62 85.965 85.613 85.55 85.49 85.373 85.328 85.278 85.196 85.078 86.813 90.756 91.05 91.353 91.403 89.663 85.4 85 85.021 84.858 84.73 84.713 84.741 84.678 84.87 85.071 85.046 84.863 87.065 89.188 89.508 89.361 88.01 85.083 85.195 84.963 84.993 85.408 87.425 86.878 85.863 85.778 85.345 85.675 86.423 85.285 85.203 85.173 85.12 85.213 85.19 84.968 85.518 86.64 87.535 88.238 88.638 87.163 84.718 84.668 86.96 90.923 90.96 91.008 91.065 91.105 91.17 91.195 87.963 86.083 84.513 84.605 84.638 84.61 85.81 84.715 84.465 84.438 84.5 84.633 84.753 84.775 84.825 84.87 84.935 84.963 85.008 85.13 85.243 85.335 85.395 85.738 85.938 85.465 85.403 87.57 88.72 89.183 91.233 92.27 91.848 90.505 85.995 86.088 85.525 85.09 85.118 85.078 85.14 85.313 85.008 84.965 84.993 84.975 85.025 85.115 85.71 85.045 84.985 85.265 85.113 85.178 85.365 86.158 85.445 85.69 85.473 85.455 85.4 85.478 85.55 85.62 85.673 85.678 85.873 86.12 86.085 86.5 90.885 92.335 92.858 92.24 88.83 86.373 86.39 86.363 86.773 86.745 86.46 86.475 87.13 88.148 88.788 89.255 89.223 86.653 87.748 87.123 88.09 86.885 86.78 86.798 86.743 86.77 87.65 87.678 87.223 91.108 92.673 93.29 92.413 90.613 89.53 87.178 86.888 88.13 87.798 87.76 86.853 86.51 86.363 86.43 86.41 86.395 86.588 87.743 88.855 87.138 86.623 86.655 86.655 86.593 86.463 86.365 86.288 86.253 86.268 86.27 86.278 86.26 86.25 86.253 86.295 86.283 86.293 86.285 86.27 86.263 86.293 86.285 86.305 86.335 86.363 86.37 86.358 86.345 86.34 86.353 86.34 86.338 86.333 86.343 86.35 86.355 86.378 86.385 86.388 86.4 86.4 86.393 86.405 86.403 86.455 86.443 86.423 86.438 86.443 86.45 86.433 86.435 86.438 86.438 86.445 86.458 86.445 86.448 86.435 86.455 86.463 86.445 86.453 86.465 86.488 86.465 86.445 86.59 86.853 87.415 86.938 86.84 86.91 87.025 87.203 87.408 87.548 87.608 87.608 87.61 87.665 87.703 87.768 87.785 87.86 87.888 87.908 87.933 87.975 87.983 88.013 88.055 88.038 88.018 88.033 88.063 88.073 88.105 88.185 88.25 88.248 88.265 88.285 88.313 88.365 88.43 88.488 88.463 88.475 88.488 88.525 88.55 88.553 88.578 88.588 88.623 88.593 88.625 88.648 88.683 88.753 88.778 88.81 88.863 89.013 89.233 89.535 89.795 89.993 90.103 90.15 90.17 90.188 90.193 90.23 90.255 90.303 90.358 90.355 90.335 90.365 90.435 90.473 90.55 90.628 90.705 90.785 90.888 90.913 90.96 91
83.318 83.313 83.321 83.331 83.331 83.338 83.328 83.331 83.356 83.378 83.336 83.293 83.288 83.283 83.231 83.153 83.116 83.096 83.071 83.041 82.958 82.916 82.833 82.756 82.696 82.658 82.651 82.643 82.656 82.678 82.661 82.681 82.666 82.658 82.673 82.663 82.656 82.653 82.678 82.663 82.663 82.691 82.696 82.716 82.741 82.746 82.786 82.768 82.761 82.746 82.756 82.776 82.788 82.836 82.933 83.073 83.213 83.376 83.746 83.856 83.871 83.901 83.966 83.981 83.943 83.928 83.918 83.921 83.926 83.943 83.953 83.968 83.976 83.988 84.043 84.056 84.063 84.106 84.166 84.198 84.236 84.298 84.321 84.355 84.355 84.413 84.443 84.421 84.46 84.488 84.483 84.516 84.823 85.933 85.046 84.721 84.913 85.258 85.468 85.76 86.065 85.656 85.623 85.573 85.498 85.501 85.571 85.373 85.168 86.001 91.373 91.396 91.351 91.418 90.853 87.44 85.823 85.448 85.263 84.858 84.763 84.811 84.768 85.033 85.338 84.898 84.82 86.748 90.805 91.611 91.266 89.028 85.251 85.075 84.993 85.028 85.098 86.543 87.663 85.758 85.353 85.353 85.418 85.69 86.308 85.195 85.108 86.41 86.943 86.46 85.663 87.45 88.148 88.545 88.97 89.285 88.195 85.303 84.67 86.268 90.07 90.143 90.063 90.24 90.328 90.373 90.418 87.755 86.198 84.545 84.618 84.645 84.643 86.1 84.483 84.43 84.445 84.48 84.633 84.688 84.765 84.853 84.935 85.093 85.033 85.105 85.25 85.325 85.415 85.48 86.27 85.815 86.128 86.265 86.815 87.27 89.11 91.413 92.453 91.758 90.093 85.733 86.1 85.675 85.113 85.193 85.125 85.355 85.68 85.09 85.025 85.025 85.053 85.61 85.358 85.22 85.04 85.493 85.94 85.543 85.16 86.023 85.498 85.715 85.555 85.65 85.875 85.668 85.495 85.535 85.633 85.663 85.715 85.968 86.063 86.073 88.23 91.895 92.653 92.69 91.93 86.92 86.433 86.513 86.515 87.228 86.565 86.453 86.503 86.773 90.828 92.4 90.17 89.508 87.215 87.438 86.935 87.135 86.87 86.853 86.858 86.82 86.91 87.135 87.103 86.775 89.59 90.93 92.19 92.043 89.938 89.36 86.523 86.495 86.473 86.495 86.993 87.44 88.575 87.875 86.945 87.025 86.965 88.635 87.208 86.65 86.723 86.618 86.6 86.588 86.57 86.46 86.345 86.295 86.253 86.24 86.265 86.258 86.238 86.225 86.245 86.263 86.263 86.295 86.288 86.305 86.303 86.303 86.313 86.325 86.35 86.353 86.348 86.358 86.363 86.35 86.355 86.353 86.378 86.368 86.368 86.385 86.37 86.393 86.418 86.428 86.435 86.408 86.43 86.443 86.475 86.483 86.483 86.465 86.475 86.465 86.468 86.468 86.473 86.475 86.473 86.473 86.463 86.468 86.475 86.46 86.465 86.473 86.46 86.468 86.515 86.555 86.578 86.5 86.51 86.68 87.035 87.515 86.953 86.928 86.985 87.115 87.303 87.47 87.59 87.608 87.633 87.645 87.69 87.753 87.768 87.8 87.845 87.88 87.898 87.945 87.988 88.005 88.015 87.965 87.998 87.998 88.045 88.098 88.12 88.178 88.203 88.185 88.248 88.265 88.318 88.388 88.445 88.49 88.498 88.458 88.47 88.505 88.553 88.533 88.55 88.575 88.62 88.63 88.665 88.64 88.708 88.753 88.775 88.795 88.805 88.888 89.065 89.323 89.603 89.88 90.053 90.133 90.18 90.19 90.193 90.215 90.228 90.28 90.26 90.27 90.308 90.375 90.435 90.485 90.555 90.6 90.68 90.785 90.933 90.905 90.965 91.013
83.333 83.326 83.338 83.338 83.346 83.336 83.353 83.391 83.448 83.423 83.366 83.341 83.338 83.346 83.336 83.306 83.243 83.248 83.231 83.191 83.116 83.068 82.973 82.906 82.808 82.751 82.706 82.681 82.691 82.683 82.681 82.676 82.676 82.683 82.698 82.673 82.658 82.656 82.668 82.676 82.696 82.696 82.713 82.741 82.753 82.773 82.786 82.781 82.783 82.786 82.778 82.818 82.926 83.013 83.146 83.241 83.331 83.583 83.843 83.868 83.923 83.988 84.006 84.013 83.963 83.958 83.933 83.951 83.958 83.978 84.001 84.006 84.016 84.041 84.073 84.116 84.111 84.168 84.188 84.206 84.251 84.313 84.353 84.375 84.396 84.41 84.408 84.428 84.471 84.518 84.501 84.528 85.033 86.025 84.853 84.813 84.991 85.36 85.446 85.703 86.006 85.913 85.69 85.641 85.708 85.598 85.563 85.525 85.24 85.278 89.635 90.783 91.068 91.508 90.361 86.603 85.146 85.135 85.083 84.903 84.873 84.908 84.866 85.076 85.68 85.04 85.098 87.153 90.798 91.656 91.268 88.465 85.215 85.818 85.395 85.083 85.528 86.825 85.828 85.443 85.27 85.32 85.37 85.375 85.83 86.12 85.118 86.908 87.223 87.645 88.055 88.46 88.873 89.24 89.253 88.895 88.51 86.17 84.93 85.253 87.408 87.213 86.643 86.468 86.44 87.383 86.838 85.97 85.32 84.568 84.63 84.658 85.335 86.268 84.605 84.473 84.475 84.528 84.708 84.755 84.788 84.878 84.983 85.083 85.075 85.195 85.308 85.37 85.455 85.485 86.43 85.815 85.58 85.595 85.548 85.645 89.045 91.543 92.493 91.563 89.67 86.678 86.44 85.405 85.185 85.195 85.155 85.733 85.78 85.315 85.113 85.078 85.078 85.175 87.283 88.043 86.625 86.875 86.74 85.655 85.565 85.885 85.435 85.733 85.62 86.133 85.715 85.833 85.583 85.57 85.635 85.62 85.763 86.1 86.028 86.148 90.458 92.215 92.863 92.38 90.143 86.393 86.465 86.6 86.878 87.225 86.528 86.47 86.503 87.965 92.21 92.965 93.133 92.433 89.155 87.098 86.913 86.995 86.938 86.898 86.898 86.94 87.138 87.648 87.533 87.845 87.803 88.225 89.118 89.673 89.563 88.3 86.498 86.503 86.488 86.495 86.5 86.503 86.86 87.305 88.235 88.805 88.21 87.33 86.97 88.055 87.055 86.8 86.523 86.548 86.508 86.46 86.348 86.29 86.225 86.233 86.248 86.248 86.25 86.233 86.243 86.24 86.278 86.288 86.3 86.295 86.31 86.323 86.345 86.363 86.34 86.365 86.368 86.375 86.353 86.353 86.368 86.39 86.388 86.4 86.403 86.413 86.425 86.433 86.418 86.43 86.395 86.405 86.433 86.458 86.48 86.475 86.488 86.498 86.503 86.49 86.498 86.503 86.5 86.498 86.478 86.473 86.478 86.48 86.468 86.438 86.465 86.44 86.448 86.49 86.545 86.573 86.633 86.565 86.523 86.588 86.78 87.153 87.57 86.963 86.98 87.053 87.208 87.385 87.553 87.65 87.65 87.655 87.688 87.74 87.775 87.805 87.838 87.873 87.883 87.903 87.928 87.96 87.993 88.008 88.033 88.035 88.068 88.095 88.14 88.153 88.173 88.228 88.245 88.285 88.348 88.363 88.433 88.468 88.475 88.435 88.45 88.488 88.51 88.523 88.515 88.558 88.61 88.628 88.668 88.685 88.743 88.758 88.763 88.768 88.778 88.82 88.923 89.14 89.445 89.763 89.995 90.128 90.17 90.19 90.19 90.188 90.183 90.215 90.248 90.265 90.323 90.378 90.448 90.498 90.565 90.61 90.705 90.78 90.86 90.93 90.985 91.048
83.396 83.408 83.388 83.381 83.386 83.398 83.413 83.438 83.478 83.443 83.398 83.373 83.348 83.381 83.386 83.403 83.361 83.371 83.391 83.373 83.301 83.206 83.153 83.078 82.953 82.876 82.791 82.741 82.721 82.708 82.711 82.711 82.686 82.651 82.681 82.663 82.681 82.681 82.671 82.706 82.701 82.696 82.716 82.738 82.771 82.791 82.771 82.806 82.813 82.828 82.908 83.003 83.138 83.248 83.311 83.381 83.578 83.828 83.883 83.931 83.973 84.046 84.073 84.043 84.006 83.981 83.983 83.956 83.996 84.031 84.031 84.031 84.051 84.088 84.126 84.138 84.161 84.216 84.223 84.241 84.278 84.321 84.368 84.403 84.438 84.446 84.448 84.455 84.513 84.546 84.535 84.548 85.338 85.33 84.91 84.921 85.118 85.396 85.538 85.625 86.275 86.025 85.656 85.59 85.605 85.595 85.598 85.555 85.358 85.175 87.251 89.623 90.57 88.858 86.558 85.141 85.108 85.088 85.193 85.061 84.936 84.963 85.601 85.671 86.213 85.846 85.66 86.833 90.8 91.785 91.243 88.57 86.348 86.998 86.31 86.098 86.868 86.99 86.353 85.623 85.918 85.653 85.92 85.31 85.458 85.845 85.715 86.093 86.82 87.575 88.823 89.17 89.243 89.238 88.6 88.188 87.765 85.89 84.863 84.96 85.713 84.863 85.478 85.295 84.835 84.775 84.738 85.678 84.845 84.64 84.605 84.67 86.583 85.038 84.433 84.485 84.478 84.548 84.72 84.795 84.83 84.925 85.018 85.105 85.15 85.28 85.355 85.408 85.465 85.493 86.39 85.778 85.595 85.58 85.583 85.815 89.583 91.693 92.358 91.37 88.96 85.643 85.833 85.43 85.22 85.248 85.225 85.905 85.935 85.24 85.26 85.17 85.17 85.46 90.188 91.433 91.953 91.178 86.748 85.563 85.648 86.063 85.685 85.758 85.708 86.16 86.463 85.955 85.665 85.548 85.585 85.643 85.888 85.995 86.005 87.72 91.753 92.765 92.825 92.073 87.913 86.433 86.49 86.743 87.59 86.99 86.918 86.61 86.753 90.29 92.523 93.198 92.88 91.905 87.318 87.975 88.02 87.053 87.008 87.003 86.973 87.03 87.863 87.52 88.61 89.39 89.393 88.255 86.768 87.258 88.07 87.02 86.518 86.503 86.5 86.52 86.513 86.593 86.763 86.838 87.213 87.335 88.415 88.24 90.263 89.99 88.258 87.138 86.583 86.488 86.473 86.43 86.333 86.298 86.255 86.243 86.255 86.255 86.245 86.238 86.25 86.243 86.268 86.318 86.315 86.315 86.323 86.33 86.353 86.373 86.373 86.385 86.37 86.39 86.39 86.373 86.375 86.403 86.398 86.435 86.453 86.463 86.455 86.41 86.41 86.415 86.398 86.41 86.425 86.463 86.5 86.523 86.518 86.49 86.51 86.52 86.523 86.52 86.523 86.528 86.498 86.485 86.503 86.495 86.488 86.45 86.46 86.453 86.45 86.485 86.535 86.553 86.585 86.558 86.5 86.515 86.618 86.845 87.315 87.49 87.013 87.018 87.115 87.273 87.463 87.583 87.628 87.67 87.685 87.715 87.76 87.805 87.85 87.878 87.873 87.86 87.885 87.93 87.953 87.97 88.005 88.05 88.1 88.078 88.123 88.125 88.188 88.25 88.268 88.293 88.33 88.335 88.403 88.43 88.443 88.433 88.413 88.41 88.455 88.478 88.51 88.548 88.613 88.625 88.663 88.69 88.743 88.758 88.775 88.75 88.758 88.768 88.818 88.993 89.265 89.605 89.905 90.07 90.133 90.163 90.145 90.158 90.18 90.215 90.263 90.303 90.35 90.398 90.465 90.525 90.575 90.635 90.728 90.798 90.883 90.968 91.03 91.09
83.446 83.431 83.423 83.408 83.418 83.418 83.446 83.506 83.481 83.451 83.436 83.406 83.411 83.396 83.418 83.423 83.441 83.481 83.541 83.596 83.538 83.443 83.323 83.221 83.148 83.061 82.961 82.873 82.813 82.788 82.773 82.748 82.713 82.698 82.698 82.698 82.703 82.696 82.701 82.686 82.711 82.721 82.736 82.751 82.813 82.826 82.801 82.843 82.881 82.971 83.108 83.256 83.358 83.438 83.443 83.546 83.848 83.961 83.953 84.003 84.033 84.073 84.103 84.091 84.043 84.006 84.023 84.021 84.041 84.083 84.078 84.081 84.103 84.133 84.173 84.203 84.221 84.258 84.248 84.278 84.306 84.321 84.376 84.398 84.441 84.463 84.493 84.536 84.548 84.556 84.553 84.561 85.378 87.683 86.278 85.051 85.166 85.453 85.606 86.088 86.873 86.391 85.833 85.621 85.656 85.681 85.651 85.636 85.466 85.218 85.388 86.863 87.876 87.408 85.951 85.898 85.868 85.576 85.478 85.056 85.028 85.033 85.936 85.496 85.283 85.003 84.896 87.278 90.801 91.568 91.236 88.081 85.208 85.525 85.438 85.268 86.948 85.908 85.42 85.448 85.4 85.575 85.935 85.883 85.433 85.23 85.925 85.945 85.298 85.433 88.838 89.013 88.655 88.253 87.558 86.655 84.808 84.818 84.898 84.958 84.913 84.92 85.355 85.585 84.91 84.868 84.815 85.63 85.1 85.573 85.58 86.805 85.315 84.515 84.443 84.508 84.495 84.59 84.778 84.85 84.893 84.935 85.075 85.155 85.223 85.355 85.433 85.49 85.573 85.565 86.583 85.775 85.605 85.665 85.675 86.883 89.435 90.503 91.56 91.2 87.673 85.41 85.415 85.32 85.285 85.318 85.318 85.868 85.535 85.675 85.288 85.23 85.548 87.2 91.043 91.78 91.775 90.69 86.02 85.303 86.718 87.488 86.75 86.38 86.033 86.183 86.413 86.798 86.318 85.66 85.58 85.638 85.845 86.35 86.148 89.508 92.065 92.783 92.52 91.168 86.695 86.615 86.69 86.758 87.255 86.695 86.793 88.113 87.665 91.128 92.8 93.24 92.575 90.298 86.705 86.953 87.203 87.095 87.038 87.023 87.118 87.125 87.033 87.373 91.178 92.913 91.42 89.433 89.353 87.153 86.873 87.23 87.705 86.815 86.473 86.94 86.548 86.848 86.905 86.698 86.673 86.585 88.553 90.423 90.943 90.48 89.748 87.365 87.07 86.5 86.46 86.425 86.368 86.293 86.245 86.228 86.235 86.233 86.243 86.245 86.245 86.275 86.315 86.323 86.3 86.343 86.333 86.353 86.37 86.38 86.388 86.39 86.393 86.403 86.393 86.415 86.41 86.438 86.433 86.47 86.488 86.498 86.468 86.398 86.373 86.45 86.448 86.458 86.475 86.5 86.498 86.505 86.525 86.538 86.538 86.543 86.548 86.543 86.548 86.553 86.543 86.535 86.52 86.493 86.488 86.505 86.468 86.463 86.445 86.448 86.473 86.5 86.545 86.538 86.508 86.49 86.533 86.705 86.953 87.82 87.438 87.07 87.083 87.153 87.348 87.503 87.618 87.683 87.705 87.71 87.748 87.783 87.838 87.838 87.858 87.853 87.858 87.928 87.943 87.978 88.01 88.045 88.07 88.08 88.09 88.123 88.205 88.248 88.245 88.268 88.305 88.335 88.375 88.378 88.395 88.42 88.388 88.42 88.453 88.47 88.505 88.54 88.588 88.635 88.663 88.695 88.735 88.725 88.735 88.75 88.803 88.788 88.785 88.908 89.18 89.538 89.84 89.998 90.11 90.115 90.08 90.125 90.183 90.23 90.27 90.333 90.378 90.425 90.483 90.548 90.625 90.675 90.745 90.853 90.91 91.018 91.078 91.16
83.461 83.458 83.458 83.468 83.461 83.468 83.543 83.573 83.538 83.463 83.483 83.461 83.468 83.458 83.463 83.481 83.476 83.526 83.588 83.628 83.673 83.708 83.601 83.508 83.411 83.301 83.163 83.088 83.021 82.966 82.896 82.871 82.808 82.768 82.766 82.753 82.758 82.733 82.733 82.738 82.746 82.773 82.811 82.843 82.881 82.918 82.948 83.023 83.091 83.241 83.388 83.453 83.496 83.523 83.561 83.803 84.036 84.028 84.058 84.078 84.106 84.128 84.133 84.108 84.068 84.066 84.068 84.086 84.081 84.098 84.101 84.113 84.138 84.188 84.241 84.228 84.251 84.261 84.268 84.293 84.346 84.386 84.386 84.441 84.473 84.483 84.526 84.556 84.546 84.578 84.561 84.586 84.843 86.638 85.806 85.008 85.308 85.551 85.668 86.491 87.556 88.906 87.208 85.768 85.743 85.743 85.701 85.691 85.678 86.026 88.263 88.851 90.918 91.091 88.413 85.921 85.901 85.621 85.396 85.108 85.093 85.113 85.466 85.326 85.303 85.041 84.936 87.118 90.818 91.591 91.238 89.001 85.053 85.033 85.105 85.155 86.678 86.16 85.47 85.465 85.44 85.403 85.443 86.263 86.385 85.263 85.33 86.018 85.448 84.905 86.808 88.315 87.92 87.23 85.35 84.888 84.895 84.99 85.4 85.058 84.935 84.97 84.943 85.233 84.95 84.815 84.993 84.75 86.205 85.8 85.388 84.718 84.568 84.51 84.513 84.543 84.518 84.63 84.828 84.873 84.98 84.995 85.16 85.433 85.393 85.313 85.495 85.683 85.633 85.688 86.968 86.258 86.038 86.468 86.97 87.533 87.678 87.485 88.028 88.683 86.195 86.125 85.783 85.375 85.335 85.368 85.33 85.518 86.478 86.02 86.08 85.895 85.413 89.39 91.468 92.048 91.438 88.235 85.363 85.515 87.87 87.383 88.39 90.215 89.815 86.91 86.413 86.653 86.523 85.983 86.28 85.7 86.03 86.793 86.553 89.868 91.85 92.855 92.208 88.62 86.275 86.26 86.633 87.323 87.15 86.658 86.793 88.74 89.195 92.353 93.103 93.175 92.303 88.403 86.808 87.05 87.268 87.088 87.08 87.375 87.763 87.278 87.038 89.078 92.35 93.355 93.608 92.513 89.728 87.325 86.808 87.068 88.108 89.21 88.963 87.968 87.175 87.628 87.243 86.59 86.473 86.73 88.365 89.945 90.635 90.88 90.223 88.635 87.27 86.893 86.495 86.43 86.403 86.315 86.268 86.268 86.24 86.233 86.255 86.245 86.26 86.298 86.31 86.343 86.333 86.36 86.363 86.37 86.398 86.423 86.42 86.375 86.395 86.408 86.41 86.42 86.41 86.445 86.485 86.498 86.485 86.483 86.43 86.438 86.435 86.455 86.485 86.503 86.528 86.515 86.533 86.545 86.543 86.535 86.573 86.56 86.563 86.54 86.573 86.588 86.563 86.553 86.543 86.515 86.493 86.5 86.5 86.485 86.483 86.475 86.483 86.485 86.525 86.543 86.515 86.488 86.47 86.545 86.733 87.093 87.78 87.3 87.153 87.115 87.233 87.433 87.6 87.695 87.73 87.74 87.735 87.735 87.79 87.818 87.853 87.858 87.853 87.888 87.908 87.945 88.043 88.073 88.058 88.065 88.063 88.11 88.173 88.22 88.268 88.285 88.295 88.303 88.34 88.358 88.35 88.36 88.34 88.405 88.43 88.488 88.515 88.553 88.543 88.598 88.64 88.66 88.68 88.695 88.753 88.785 88.785 88.778 88.808 88.923 89.25 89.578 89.828 89.955 90.073 90.06 90.07 90.128 90.198 90.258 90.305 90.353 90.41 90.46 90.525 90.588 90.653 90.75 90.823 90.898 90.983 91.05 91.145 91.21
83.496 83.488 83.491 83.503 83.486 83.518 83.591 83.581 83.521 83.501 83.508 83.496 83.516 83.526 83.503 83.513 83.546 83.553 83.561 83.573 83.596 83.701 83.736 83.743 83.523 83.418 83.333 83.288 83.256 83.211 83.126 83.051 82.968 82.921 82.898 82.898 82.871 82.841 82.831 82.846 82.858 82.906 82.953 82.996 83.083 83.151 83.238 83.326 83.401 83.471 83.546 83.566 83.576 83.588 83.733 84.023 84.111 84.126 84.133 84.143 84.156 84.166 84.166 84.118 84.101 84.131 84.143 84.113 84.128 84.121 84.141 84.166 84.188 84.223 84.241 84.261 84.256 84.281 84.308 84.346 84.373 84.406 84.441 84.476 84.506 84.503 84.546 84.588 84.591 84.606 84.613 84.636 84.656 86.626 86.261 85.728 85.413 85.591 85.728 86.063 86.988 87.133 86.246 85.836 85.793 85.816 86.526 85.946 85.568 86.683 90.116 91.346 91.463 91.331 89.931 86.656 85.508 85.716 85.236 85.153 85.121 85.183 85.186 85.428 85.431 85.446 85.618 86.621 89.158 89.591 89.038 87.628 84.948 85.003 85.105 85.165 86.415 86.103 85.473 85.478 85.455 85.425 85.35 86.905 87.863 87.83 86.783 85.285 85.763 85.095 84.975 86.693 85.24 84.97 85.05 85.128 85.05 85.113 85.045 84.9 84.848 84.87 85.438 85.563 85.05 84.728 84.665 84.66 84.673 84.668 84.615 84.59 84.58 84.558 84.593 84.558 84.543 84.685 84.868 84.9 84.945 85.065 85.125 85.23 85.415 85.348 85.61 85.908 85.655 85.843 86.595 86.078 86.18 87.613 88.043 86.59 86.855 86.138 86.123 86.563 86.028 85.835 85.71 85.403 85.395 85.418 85.403 86.035 85.8 85.39 85.388 85.7 86.895 90.16 91.738 91.793 90.51 87.118 86.09 85.723 86.588 87.07 89.573 92.418 92.053 91.245 89.593 87.068 86.155 86.065 86.903 85.89 85.935 86.01 86.61 88.255 88.79 90.985 90.793 86.393 86.275 86.263 86.628 87.985 87.108 86.69 86.638 87.133 90.833 92.643 93.275 92.755 91.563 87.08 86.888 87.203 87.17 87.118 87.128 87.503 87.368 87.208 87.463 91.205 92.915 93.683 93.155 92.07 89.475 88.07 86.788 86.745 86.75 87.848 88.678 89.018 87.41 87.225 87.18 86.545 86.465 86.493 86.75 88.885 90.16 90.81 90.7 89.98 87.783 86.705 86.763 86.493 86.375 86.378 86.315 86.293 86.238 86.238 86.24 86.258 86.3 86.315 86.328 86.35 86.365 86.38 86.38 86.39 86.428 86.425 86.433 86.415 86.415 86.408 86.43 86.44 86.44 86.475 86.465 86.485 86.453 86.428 86.433 86.47 86.488 86.473 86.483 86.52 86.54 86.553 86.553 86.563 86.555 86.558 86.565 86.535 86.565 86.583 86.57 86.59 86.578 86.578 86.565 86.563 86.533 86.523 86.513 86.53 86.528 86.52 86.505 86.513 86.515 86.533 86.513 86.498 86.458 86.46 86.57 86.833 87.22 87.795 87.368 87.193 87.208 87.335 87.538 87.698 87.723 87.76 87.748 87.758 87.803 87.83 87.845 87.855 87.855 87.893 87.94 87.938 87.985 88.038 88.03 88.028 88.038 88.07 88.15 88.195 88.25 88.275 88.255 88.265 88.295 88.315 88.328 88.33 88.32 88.375 88.405 88.463 88.475 88.533 88.565 88.58 88.605 88.638 88.693 88.708 88.738 88.748 88.755 88.773 88.888 89.155 89.495 89.69 89.865 89.938 89.998 90.03 90.085 90.16 90.223 90.27 90.33 90.38 90.44 90.51 90.573 90.638 90.718 90.805 90.875 90.953 91.045 91.1 91.205 91.285
83.508 83.503 83.488 83.496 83.516 83.603 83.633 83.603 83.551 83.528 83.536 83.561 83.558 83.556 83.553 83.581 83.611 83.576 83.566 83.583 83.593 83.613 83.663 83.711 83.623 83.528 83.496 83.463 83.436 83.391 83.323 83.253 83.176 83.156 83.148 83.151 83.141 83.123 83.086 83.086 83.138 83.201 83.231 83.328 83.386 83.476 83.541 83.591 83.603 83.628 83.631 83.631 83.633 83.696 83.978 84.146 84.198 84.211 84.218 84.198 84.213 84.233 84.213 84.143 84.148 84.156 84.176 84.191 84.183 84.191 84.216 84.221 84.238 84.273 84.266 84.301 84.308 84.318 84.328 84.371 84.388 84.413 84.476 84.501 84.526 84.568 84.576 84.631 84.628 84.651 84.658 84.641 84.666 86.916 86.261 85.941 85.696 85.708 85.801 85.873 86.108 86.963 85.946 86.058 86.051 86.068 86.826 85.861 86.008 86.638 87.056 91.241 90.918 90.618 90.386 87.278 85.691 85.488 86.496 85.403 85.196 85.248 85.261 85.306 85.363 85.686 85.833 85.813 86.371 86.876 86.678 86.608 85.611 86.595 86.463 86.208 86.825 86.625 86.488 85.548 85.46 85.42 85.338 86.568 88.105 88.328 87.853 85.535 85.268 85.22 85.11 85.04 85.02 85.298 85.94 85.333 85.053 84.918 84.895 84.88 84.88 84.873 84.81 84.785 84.755 84.703 84.675 84.683 84.675 84.67 84.69 84.663 84.62 84.578 84.628 84.598 84.565 84.753 84.908 84.895 84.935 85.04 85.178 85.343 85.25 85.373 85.655 86.045 85.723 85.915 86.225 85.905 85.953 86.008 86.068 88.308 90.13 89.618 88.585 88.153 86.345 86.773 85.658 85.498 85.468 85.475 85.47 86.275 86.835 86.13 85.535 85.385 88.605 91.243 91.955 91.473 89.143 85.76 86.058 86.928 86.403 88.398 91.558 92.798 92.755 92.525 92.128 91.79 90.41 87.413 86.52 85.995 86.025 86.07 86.138 86.395 87.435 88.16 87.41 86.278 86.3 86.308 87.583 88.595 87.2 86.91 86.698 87.155 91.718 92.945 93.15 92.43 89.868 86.813 87.108 87.22 87.143 87.158 87.113 87.115 87.235 87.14 88.99 92.408 93.358 93.595 92.72 90.648 89.32 87.683 86.775 86.873 86.83 86.875 86.955 86.995 86.638 86.625 88.048 87.7 86.805 86.533 86.54 87.113 89.538 90.37 90.943 90.455 89.59 86.618 87.223 86.523 86.498 86.44 86.383 86.34 86.295 86.265 86.26 86.27 86.31 86.34 86.365 86.378 86.395 86.388 86.415 86.415 86.435 86.438 86.433 86.425 86.45 86.445 86.438 86.435 86.443 86.448 86.463 86.453 86.458 86.44 86.453 86.49 86.505 86.52 86.485 86.51 86.548 86.528 86.533 86.54 86.553 86.59 86.583 86.57 86.553 86.57 86.59 86.603 86.565 86.58 86.598 86.618 86.578 86.568 86.548 86.553 86.558 86.538 86.55 86.55 86.543 86.55 86.545 86.525 86.475 86.443 86.503 86.653 86.928 87.42 87.745 87.313 87.268 87.308 87.44 87.618 87.703 87.743 87.75 87.745 87.76 87.8 87.828 87.868 87.868 87.898 87.938 87.938 87.988 88 88.04 88.053 88.038 88.073 88.125 88.175 88.243 88.24 88.25 88.293 88.28 88.298 88.313 88.315 88.323 88.383 88.408 88.445 88.453 88.483 88.505 88.56 88.588 88.643 88.668 88.693 88.72 88.715 88.76 88.875 89.17 89.46 89.7 89.803 89.898 89.953 90.008 90.05 90.113 90.185 90.245 90.328 90.395 90.46 90.515 90.58 90.638 90.715 90.778 90.885 90.963 91.038 91.115 91.188 91.283 91.345
83.533 83.573 83.548 83.536 83.591 83.658 83.638 83.603 83.563 83.583 83.606 83.606 83.616 83.633 83.648 83.671 83.653 83.626 83.573 83.593 83.616 83.628 83.626 83.636 83.678 83.651 83.626 83.608 83.556 83.536 83.471 83.441 83.398 83.378 83.413 83.433 83.428 83.456 83.448 83.443 83.466 83.486 83.543 83.621 83.656 83.688 83.698 83.708 83.718 83.713 83.706 83.701 83.726 83.901 84.153 84.223 84.283 84.288 84.291 84.301 84.301 84.268 84.233 84.211 84.198 84.208 84.238 84.233 84.236 84.251 84.251 84.263 84.288 84.308 84.323 84.341 84.333 84.341 84.376 84.391 84.431 84.461 84.511 84.536 84.541 84.566 84.618 84.648 84.661 84.668 84.683 84.683 84.703 87.041 87.468 86.748 85.858 85.791 85.868 85.918 86.028 86.571 86.693 86.388 86.296 86.123 86.161 85.778 85.396 85.473 85.333 88.943 90.276 90.106 89.161 87.233 85.998 86.001 86.198 85.333 85.288 85.286 85.286 85.398 85.408 86.071 85.838 86.623 87.241 86.763 87.458 86.498 85.083 88.288 86.59 87.143 86.988 86.75 87.07 85.968 85.595 85.57 85.403 85.428 86.645 88.595 89.32 89.625 87.61 86.458 85.26 85.17 85.133 85.17 85.41 85.068 84.975 84.933 84.905 84.893 84.89 84.908 84.928 85.09 84.848 84.755 84.748 84.703 84.678 84.66 84.703 84.705 84.66 84.663 84.685 84.62 84.593 84.773 84.895 84.883 84.928 85 85.528 85.673 85.365 85.345 85.44 85.538 85.648 85.998 86.253 85.988 86.05 86.05 86.095 88.418 91.948 92.975 92.103 90.298 85.963 85.985 85.748 85.513 85.568 85.565 85.58 85.77 86.603 86.498 87.058 86.298 87.733 88.543 89.39 90.52 85.95 85.803 86.045 89.428 88.095 88.07 91.565 92.155 92.473 92.778 92.705 92.513 90.603 88.7 87.135 88.043 86.63 86.305 86.39 86.188 86.223 86.258 86.395 86.47 86.655 86.463 88.95 87.823 87.04 87.13 87.233 88.058 91.458 93.213 92.898 91.768 89.165 86.94 87.178 87.693 87.543 87.183 87.155 87.25 88.165 87.53 90.968 92.88 93.69 93.183 92.083 87.903 88.37 87.228 86.768 86.75 86.815 86.938 86.805 86.635 86.63 86.635 86.918 87.738 87.855 87.793 87.705 87.275 88.1 89.94 90.62 90.798 89.998 87.543 86.995 86.98 86.48 86.43 86.408 86.37 86.293 86.275 86.28 86.295 86.308 86.353 86.388 86.4 86.415 86.42 86.428 86.428 86.435 86.448 86.435 86.453 86.463 86.465 86.438 86.428 86.45 86.438 86.435 86.443 86.475 86.44 86.453 86.493 86.508 86.535 86.523 86.51 86.53 86.523 86.543 86.55 86.573 86.58 86.585 86.58 86.593 86.59 86.64 86.65 86.603 86.6 86.633 86.645 86.633 86.593 86.6 86.58 86.573 86.588 86.59 86.565 86.565 86.558 86.525 86.528 86.493 86.5 86.493 86.565 86.763 87.063 87.588 88.078 87.363 87.323 87.413 87.543 87.693 87.72 87.748 87.763 87.733 87.778 87.825 87.848 87.868 87.893 87.925 87.96 87.97 88.023 88.05 88.065 88.043 88.068 88.125 88.165 88.21 88.228 88.263 88.27 88.27 88.265 88.313 88.34 88.355 88.388 88.423 88.445 88.49 88.515 88.538 88.548 88.578 88.605 88.633 88.668 88.7 88.74 88.905 89.215 89.488 89.665 89.76 89.828 89.883 89.95 90.008 90.08 90.16 90.228 90.283 90.35 90.44 90.525 90.595 90.673 90.728 90.795 90.88 90.953 91.035 91.118 91.173 91.258 91.365 91.428
83.563 83.536 83.588 83.606 83.668 83.656 83.658 83.628 83.601 83.626 83.648 83.658 83.668 83.691 83.723 83.703 83.646 83.568 83.563 83.596 83.588 83.621 83.633 83.663 83.653 83.681 83.698 83.733 83.741 83.688 83.636 83.596 83.563 83.558 83.586 83.603 83.631 83.641 83.643 83.666 83.676 83.688 83.696 83.733 83.801 83.821 83.786 83.766 83.793 83.793 83.763 83.768 83.858 84.108 84.238 84.296 84.326 84.341 84.353 84.383 84.341 84.333 84.323 84.283 84.253 84.266 84.276 84.266 84.276 84.291 84.298 84.308 84.338 84.353 84.386 84.398 84.396 84.401 84.426 84.433 84.468 84.491 84.523 84.543 84.586 84.621 84.646 84.668 84.713 84.726 84.721 84.748 84.731 85.196 87.978 85.933 85.921 85.841 85.936 85.991 86.038 86.348 86.301 86.341 86.201 86.163 86.288 86.048 85.238 85.253 85.256 86.578 87.883 86.428 85.608 85.586 85.608 85.483 85.543 85.386 85.341 85.321 85.333 85.476 86.196 85.776 85.346 86.786 90.518 90.181 88.958 88.111 85.013 85.203 85.463 85.818 87.598 87.863 86.325 86.125 86.418 86.03 85.575 85.34 87.103 88.878 89.628 89.715 88.983 87.313 85.488 85.185 85.193 85.173 85.05 84.968 84.958 84.925 84.923 85.01 85.155 85.035 85.088 86.26 85.06 85.15 85.345 84.87 85.02 84.968 84.775 84.758 84.745 84.718 84.695 84.67 84.653 84.868 84.933 84.933 84.928 85.013 85.108 85.198 85.233 85.335 85.465 85.578 85.7 86.325 86.44 86.42 86.533 86.353 86.105 89.47 92.118 93.015 92.223 90.14 86.623 86.613 85.813 85.64 85.638 85.62 85.775 86 85.763 85.973 86.093 86.613 86.21 86.74 87.598 87.695 86.105 85.89 86.145 88.025 86.263 86.133 87.13 89.9 91.743 92.1 92.44 92.425 89.493 87.74 86.35 88.065 87.788 87.603 86.405 86.315 86.288 86.353 86.565 86.835 86.743 87 87.933 86.875 86.898 86.973 86.91 90.03 91.948 91.32 91.65 90.845 87.758 87.348 87.248 88.148 87.348 87.155 87.118 87.21 87.543 88.005 89.865 91.598 93.598 92.72 89.765 86.885 87.415 89.313 87.965 87.068 86.843 86.935 86.668 86.61 86.603 86.6 86.615 86.875 86.823 86.528 86.635 87.473 87.78 88.955 90.17 90.803 90.075 87.863 86.425 87.77 86.698 86.51 86.425 86.385 86.3 86.295 86.318 86.303 86.31 86.353 86.385 86.413 86.415 86.413 86.435 86.433 86.45 86.423 86.46 86.488 86.468 86.47 86.453 86.453 86.443 86.44 86.458 86.455 86.47 86.473 86.49 86.485 86.495 86.53 86.54 86.528 86.513 86.525 86.555 86.548 86.575 86.578 86.573 86.598 86.62 86.653 86.658 86.68 86.645 86.658 86.66 86.678 86.658 86.6 86.615 86.6 86.598 86.59 86.595 86.575 86.578 86.565 86.535 86.525 86.52 86.495 86.5 86.535 86.63 86.883 87.193 87.543 87.9 87.39 87.428 87.528 87.623 87.723 87.745 87.758 87.778 87.75 87.81 87.825 87.865 87.895 87.925 87.943 87.978 88.035 88.033 88.035 88.075 88.088 88.093 88.125 88.168 88.21 88.245 88.248 88.278 88.285 88.308 88.36 88.39 88.43 88.458 88.465 88.515 88.525 88.515 88.588 88.605 88.59 88.595 88.615 88.703 88.89 89.213 89.53 89.673 89.713 89.74 89.803 89.868 89.933 90.03 90.1 90.19 90.27 90.335 90.415 90.5 90.59 90.675 90.76 90.833 90.898 90.975 91.048 91.135 91.235 91.295 91.388 91.463 91.555
83.593 83.596 83.606 83.691 83.733 83.703 83.666 83.673 83.666 83.668 83.703 83.701 83.733 83.751 83.721 83.656 83.631 83.563 83.598 83.591 83.593 83.631 83.656 83.651 83.663 83.701 83.718 83.738 83.751 83.793 83.763 83.716 83.693 83.708 83.718 83.728 83.726 83.751 83.743 83.766 83.786 83.798 83.788 83.821 83.863 83.868 83.846 83.836 83.851 83.846 83.838 83.868 84.063 84.253 84.321 84.358 84.348 84.373 84.401 84.433 84.421 84.418 84.393 84.378 84.348 84.301 84.331 84.331 84.331 84.326 84.351 84.361 84.378 84.401 84.428 84.428 84.441 84.436 84.478 84.481 84.501 84.548 84.541 84.578 84.621 84.671 84.713 84.743 84.743 84.751 84.768 84.793 84.781 85.068 87.603 88.248 87.368 85.898 85.981 86.053 86.133 86.446 86.521 86.481 86.203 86.153 86.248 85.891 85.358 85.351 86.008 87.013 87.396 85.791 86.066 86.341 85.523 85.538 85.931 85.498 85.406 85.446 85.396 85.588 85.896 85.326 85.231 87.873 91.183 91.931 91.538 88.933 85.136 85.205 85.39 85.583 87.248 86.253 85.753 85.615 85.605 85.54 85.385 85.718 88.195 89.18 89.865 89.46 88.708 86.213 85.14 85.163 85.213 85.128 85.018 84.99 84.993 85.018 85.138 85.168 85.098 85.085 85.233 86 85.05 85.138 85.283 85.31 85.898 85.023 85.078 84.875 84.775 84.73 84.775 84.708 84.84 85.805 85.448 85.3 85.135 86.365 86.048 85.213 85.595 85.475 85.525 85.635 85.728 86.653 87.283 87.515 87.923 87.76 86.935 90.423 92.29 93.108 92.108 89.935 86.405 86.648 85.925 85.725 85.735 85.71 86.13 86.22 85.78 85.813 85.878 86.395 87.693 88.388 86.93 86.448 86.585 86.745 87.065 87.045 86.315 86.243 86.48 86.965 87.633 89.038 90.803 90.94 88.708 86.41 86.315 87.665 86.715 87.8 86.383 87.21 86.85 86.565 86.743 86.803 86.87 88.188 87.683 86.943 87.178 87.178 87.93 92.503 93.405 93.175 90.468 88.105 86.998 87.76 87.123 87.105 87.135 87.12 87.133 87.073 87.14 88.325 88.565 89.495 90.218 90.56 87.163 86.888 88.88 89.35 89.263 88.465 87.48 86.973 86.59 86.603 86.618 86.638 86.598 86.583 86.643 86.533 86.53 87.26 88.168 88.018 89.675 89.823 87.085 86.66 86.438 86.555 87.295 86.525 86.505 86.405 86.413 86.355 86.338 86.323 86.33 86.355 86.38 86.393 86.405 86.41 86.413 86.433 86.443 86.423 86.453 86.485 86.473 86.455 86.463 86.47 86.453 86.493 86.465 86.463 86.493 86.5 86.515 86.513 86.518 86.538 86.558 86.548 86.513 86.55 86.568 86.558 86.573 86.615 86.593 86.62 86.638 86.658 86.68 86.685 86.66 86.673 86.683 86.66 86.648 86.628 86.613 86.615 86.61 86.625 86.598 86.585 86.578 86.568 86.55 86.535 86.518 86.515 86.523 86.573 86.633 86.748 87.055 87.363 87.95 88.118 87.448 87.503 87.595 87.693 87.745 87.753 87.77 87.798 87.808 87.83 87.858 87.88 87.913 87.928 87.935 87.988 88.01 88.068 88.088 88.095 88.07 88.095 88.16 88.193 88.258 88.265 88.303 88.315 88.345 88.365 88.428 88.463 88.47 88.483 88.498 88.525 88.53 88.555 88.568 88.57 88.603 88.668 88.898 89.2 89.495 89.643 89.698 89.703 89.74 89.805 89.87 89.95 90.04 90.143 90.223 90.313 90.385 90.458 90.548 90.663 90.75 90.843 90.933 91.003 91.075 91.163 91.275 91.348 91.43 91.505 91.598 91.65
83.633 83.646 83.671 83.758 83.753 83.726 83.698 83.681 83.696 83.716 83.758 83.768 83.771 83.743 83.628 83.708 83.571 83.571 83.613 83.613 83.638 83.651 83.663 83.683 83.688 83.701 83.728 83.748 83.776 83.776 83.831 83.853 83.961 83.861 83.848 83.863 83.866 83.846 83.836 83.828 83.823 83.843 83.836 83.883 83.906 83.926 83.898 83.876 83.893 83.906 83.901 83.971 84.241 84.346 84.366 84.396 84.398 84.431 84.471 84.493 84.491 84.471 84.466 84.436 84.391 84.361 84.398 84.396 84.376 84.371 84.396 84.413 84.421 84.446 84.458 84.456 84.493 84.486 84.486 84.523 84.551 84.581 84.568 84.598 84.633 84.711 84.746 84.783 84.776 84.816 84.813 84.803 84.808 85.661 88.186 89.848 87.258 85.906 86.028 86.073 86.181 86.403 86.378 86.616 87.373 86.628 86.253 86.446 86.826 88.361 91.358 91.528 89.036 86.393 86.168 86.471 85.698 85.693 86.321 85.618 85.493 85.483 85.456 85.756 85.841 85.426 85.771 88.073 91.161 91.998 91.541 88.991 86.128 85.783 85.413 85.67 86.243 87.113 85.82 85.618 85.575 85.963 85.475 86.46 88.733 89.465 90.05 89.155 88.173 85.365 85.183 85.195 85.35 85.053 85.025 85.055 85.043 85.805 85.828 85.21 85.545 85.173 85.59 85.945 85.155 85.068 85.97 85.463 86.853 85.685 85.083 85.148 84.86 84.798 84.81 84.773 84.848 85.375 85.105 85.178 87.783 90.133 90.685 89.693 87.483 85.885 85.563 85.785 85.88 87.14 87.083 86.88 86.208 86.385 86.63 90.38 92.443 92.94 91.91 89.265 86.568 86.915 86.003 85.843 85.81 85.775 86.26 86.575 85.86 85.893 85.928 86.365 90.72 91.275 90.503 88.578 86.603 87.363 87.5 87.95 88.35 87.138 86.805 87.185 87.043 86.368 86.863 87.535 86.84 86.295 86.743 86.56 86.34 86.353 86.7 87.053 86.595 86.655 86.76 86.82 87.053 87.493 87.478 87.053 88.3 90.09 91.308 92.948 93.605 93.168 91.605 87.615 87.708 87.318 87.11 87.143 87.145 87.13 87.245 87.1 86.898 86.903 87.348 87.505 87.725 87.755 86.92 87.173 88.325 89.405 89.328 89.273 89.085 87.618 86.553 86.553 86.578 86.615 86.56 86.825 86.928 86.788 90.285 92.068 91.06 89.09 88.29 89.115 87.25 86.573 86.448 86.458 87.42 86.738 86.54 86.493 86.473 86.42 86.365 86.355 86.338 86.343 86.348 86.365 86.383 86.385 86.398 86.43 86.448 86.42 86.45 86.468 86.45 86.445 86.458 86.468 86.455 86.47 86.478 86.488 86.46 86.523 86.543 86.548 86.53 86.525 86.565 86.563 86.55 86.56 86.57 86.573 86.595 86.64 86.61 86.628 86.653 86.673 86.688 86.69 86.673 86.655 86.67 86.643 86.67 86.678 86.655 86.628 86.615 86.623 86.608 86.58 86.588 86.565 86.585 86.553 86.56 86.553 86.563 86.618 86.68 86.783 87.008 87.35 87.448 88.013 87.935 87.525 87.59 87.67 87.745 87.75 87.77 87.823 87.82 87.823 87.855 87.863 87.875 87.893 87.898 87.943 88.01 88.05 88.078 88.093 88.093 88.133 88.178 88.198 88.27 88.273 88.29 88.315 88.345 88.368 88.445 88.473 88.513 88.518 88.51 88.503 88.518 88.535 88.555 88.573 88.685 88.94 89.225 89.46 89.635 89.685 89.725 89.74 89.778 89.833 89.898 89.98 90.073 90.18 90.26 90.353 90.448 90.545 90.613 90.738 90.838 90.935 91.04 91.123 91.215 91.298 91.385 91.46 91.545 91.648 91.71 91.763
83.663 83.683 83.751 83.791 83.778 83.781 83.751 83.743 83.743 83.768 83.803 83.821 83.838 83.721 83.556 83.563 83.581 83.591 83.611 83.616 83.631 83.643 83.663 83.693 83.713 83.721 83.736 83.743 83.773 83.803 83.806 83.821 83.873 83.913 83.908 83.948 83.986 83.971 83.938 83.923 83.908 83.908 83.913 83.921 83.963 83.986 83.961 83.948 83.936 83.931 83.948 84.141 84.358 84.406 84.423 84.443 84.441 84.498 84.536 84.553 84.548 84.516 84.518 84.503 84.468 84.413 84.451 84.446 84.451 84.426 84.426 84.448 84.478 84.493 84.493 84.536 84.526 84.531 84.503 84.531 84.586 84.613 84.638 84.656 84.701 84.733 84.753 84.803 84.836 84.848 84.846 84.868 84.866 84.931 87.708 88.701 86.046 85.956 86.101 86.121 86.261 87.048 86.338 88.118 88.151 87.176 87.218 88.601 89.713 91.866 92.726 92.098 90.593 86.683 85.948 86.218 85.948 86.468 87.926 86.336 85.556 85.546 85.538 85.753 85.726 85.833 85.936 87.808 91.181 92.078 91.541 89.663 87.343 87.143 86.78 86.79 86.903 86.328 85.733 85.703 86.075 88.403 87.778 87.383 89.003 89.728 89.655 88.835 87.26 85.47 85.26 85.275 85.203 85.03 85.075 85.033 85.388 87.35 87.648 88.803 90.493 90.408 89.793 89.168 88.248 86.67 86.125 85.218 85.91 86.04 85.163 85.2 84.925 84.863 84.91 84.813 84.923 85.088 85.118 85.2 89.258 91.568 91.47 91.46 89.305 88.113 86.43 85.818 85.968 86.723 87.13 86.725 86.315 86.685 86.648 91.25 92.6 92.853 91.765 87.965 86.24 86.69 86.053 85.918 85.888 85.918 86.553 86.218 86.033 86.025 85.938 88.543 91.84 92.598 92.4 89.635 86.063 86.188 86.773 87.26 87.773 87.623 87.39 87.77 86.883 86.738 86.56 86.623 86.73 86.828 87.125 86.68 86.46 86.49 86.848 86.798 86.623 87.308 87.673 86.888 87.183 87.08 86.975 86.945 87.805 89.74 92.518 93.258 93.538 92.85 90.033 87.028 87.228 87.29 87.068 87.108 87.115 87.103 87.15 86.98 86.9 86.845 87.493 88.658 87.038 87.668 87.488 87.228 86.833 87.405 89.16 89.35 89.298 89.253 88.69 87.165 86.838 86.595 86.568 86.595 87.503 91.13 92.428 92.893 93.238 90.185 88.838 88.763 87.878 86.605 86.518 86.9 87.398 86.595 86.59 86.568 86.51 86.463 86.433 86.398 86.368 86.335 86.343 86.383 86.388 86.39 86.39 86.425 86.413 86.43 86.463 86.455 86.448 86.455 86.455 86.435 86.46 86.483 86.465 86.468 86.478 86.535 86.543 86.553 86.548 86.533 86.545 86.56 86.538 86.56 86.56 86.548 86.59 86.63 86.66 86.643 86.66 86.655 86.675 86.693 86.695 86.698 86.69 86.643 86.64 86.648 86.638 86.623 86.61 86.61 86.6 86.615 86.618 86.623 86.603 86.563 86.565 86.588 86.635 86.665 86.728 86.84 87.035 87.278 87.46 87.62 88.328 87.86 87.615 87.673 87.74 87.743 87.763 87.793 87.838 87.81 87.838 87.845 87.865 87.875 87.885 87.928 87.998 88.05 88.053 88.12 88.155 88.163 88.198 88.203 88.22 88.243 88.28 88.293 88.343 88.33 88.398 88.448 88.473 88.515 88.523 88.54 88.523 88.533 88.56 88.665 88.943 89.238 89.49 89.61 89.668 89.71 89.78 89.818 89.863 89.898 89.97 90.033 90.135 90.228 90.33 90.418 90.52 90.63 90.73 90.825 90.92 91.008 91.155 91.253 91.35 91.42 91.528 91.598 91.665 91.76 91.828 91.893
83.718 83.746 83.851 83.833 83.823 83.806 83.796 83.786 83.816 83.848 83.848 83.826 83.848 83.631 83.571 83.566 83.573 83.598 83.598 83.626 83.646 83.666 83.666 83.693 83.731 83.736 83.748 83.763 83.806 83.811 83.813 83.823 83.853 83.878 83.906 83.976 84.043 84.063 84.056 84.038 84.018 84.016 84.001 83.998 84.041 84.066 84.051 84.033 84.001 84.003 84.096 84.333 84.403 84.428 84.483 84.503 84.518 84.558 84.611 84.613 84.616 84.591 84.553 84.538 84.508 84.463 84.463 84.466 84.486 84.483 84.516 84.511 84.531 84.533 84.516 84.573 84.558 84.561 84.583 84.608 84.633 84.623 84.671 84.706 84.723 84.761 84.811 84.856 84.873 84.861 84.881 84.898 84.906 85.038 87.696 86.751 85.998 86.018 86.143 86.178 86.363 86.571 87.693 87.991 86.828 86.338 86.948 88.891 89.076 91.371 92.443 92.506 91.513 88.473 85.733 86.093 86.428 86.393 86.101 85.706 85.623 85.668 85.626 85.746 85.651 85.351 85.193 87.176 91.178 91.931 91.518 89.361 87.528 85.428 85.835 85.538 86.625 86.008 85.813 85.798 86.818 88.91 88.958 88.773 89.295 89.813 89.323 88.385 85.64 85.16 85.11 85.313 85.11 85.083 85.045 85.14 85.585 86.813 89.173 91.47 91.57 91.445 91.358 91.228 91.09 90.843 88.403 88.253 88.155 86.358 85.1 85.305 85.05 84.935 85.01 84.908 85.023 85.085 85.123 85.49 89.778 91.228 91.33 91.373 87.155 86.42 85.673 85.84 86.39 87.363 88.163 87.128 86.705 86.403 86.96 89.805 91.485 91.97 91.058 87.853 86.245 86.613 86.065 86.025 85.98 86.003 87.87 86.57 86.013 85.97 86.543 90.823 92.21 92.68 92.095 88.838 86.073 86.29 86.403 86.633 87.76 87.608 87.838 87.603 86.903 86.78 86.805 87.303 87.24 86.765 86.638 86.66 86.648 86.67 86.675 86.878 86.76 86.928 86.843 86.925 89.4 87.795 87 86.978 86.985 89.83 92.835 93.57 93.47 92.553 88.135 87.035 87.223 87.515 87.473 87.095 87.06 87.06 87.035 86.97 86.873 87.155 91.928 92.895 90.865 88.015 88.22 86.823 86.815 86.8 86.985 88.24 89.353 89.32 89.285 88.325 86.773 86.733 86.805 89.208 92.11 92.663 93.105 93.105 92.698 91.62 88.838 86.818 86.688 86.76 87.5 87.713 86.685 86.65 86.58 86.643 86.538 86.505 86.475 86.428 86.385 86.348 86.333 86.368 86.378 86.39 86.408 86.395 86.395 86.415 86.443 86.45 86.445 86.453 86.443 86.433 86.455 86.465 86.473 86.465 86.483 86.523 86.54 86.54 86.553 86.543 86.558 86.52 86.533 86.55 86.58 86.605 86.61 86.64 86.68 86.663 86.655 86.638 86.65 86.673 86.698 86.69 86.658 86.663 86.655 86.64 86.645 86.645 86.655 86.618 86.62 86.628 86.64 86.628 86.63 86.605 86.608 86.63 86.663 86.703 86.768 86.885 87.08 87.32 87.498 87.6 87.813 88.43 87.848 87.698 87.72 87.758 87.785 87.788 87.848 87.858 87.85 87.83 87.848 87.868 87.873 87.915 87.978 88.04 88.05 88.115 88.168 88.135 88.155 88.173 88.218 88.245 88.278 88.295 88.32 88.325 88.388 88.398 88.435 88.485 88.5 88.498 88.508 88.558 88.695 88.943 89.255 89.458 89.545 89.65 89.685 89.725 89.795 89.835 89.9 89.963 90.035 90.09 90.198 90.305 90.413 90.518 90.618 90.73 90.843 90.925 91.038 91.138 91.255 91.385 91.493 91.593 91.668 91.738 91.805 91.875 91.928 91.993
83.753 83.826 83.888 83.876 83.828 83.836 83.846 83.863 83.871 83.891 83.886 83.903 83.878 83.636 83.578 83.583 83.586 83.596 83.621 83.638 83.658 83.671 83.683 83.713 83.728 83.748 83.771 83.778 83.801 83.811 83.836 83.838 83.846 83.883 83.908 83.921 83.993 84.051 84.136 84.163 84.158 84.133 84.113 84.096 84.108 84.141 84.118 84.088 84.091 84.121 84.276 84.466 84.478 84.531 84.576 84.573 84.598 84.628 84.653 84.666 84.666 84.638 84.598 84.596 84.546 84.521 84.508 84.518 84.513 84.521 84.571 84.581 84.563 84.561 84.553 84.586 84.601 84.618 84.636 84.638 84.651 84.678 84.718 84.731 84.758 84.808 84.838 84.878 84.903 84.906 84.911 84.956 84.953 85.126 87.761 87.196 86.576 86.078 86.181 86.208 86.388 87.176 87.216 86.783 87.043 86.413 86.258 88.698 87.726 90.961 92.026 92.681 91.901 90.363 87.128 85.938 85.821 85.876 85.881 85.761 85.703 85.721 85.703 85.896 85.938 85.423 85.196 87.488 91.206 91.971 91.518 89.133 85.581 85.403 85.465 85.643 86.265 85.915 86.135 86.113 87.838 88.468 88.86 88.853 89.15 89.605 89.018 87.175 85.108 85.375 85.19 85.408 85.113 85.095 85.065 85.238 86 85.985 89.503 91.6 91.733 91.845 91.893 91.855 91.838 91.56 89.043 88.838 88.698 85.68 85.183 85.563 85.06 84.988 84.99 84.993 85.038 85.503 86.328 86.038 88.673 89.203 89.378 90.298 85.298 85.273 85.608 85.958 86.805 86.55 86.833 87.678 87.465 87.59 86.908 87.795 88.25 88.603 88.593 86.725 86.993 86.623 86.135 86.08 86.033 86.135 88.313 86.753 86.048 86.023 87.725 91.743 92.663 92.493 91.383 86.99 86.188 86.3 86.388 86.668 87.468 87.605 86.975 88.75 87.608 87.315 87.123 87.09 86.805 86.778 86.775 86.82 86.825 86.82 86.835 87.04 87.255 86.923 86.99 88.555 89.343 87.83 86.973 86.98 87.003 91.408 93.14 93.625 93.053 91.07 87.235 87.373 87.243 88.238 87.225 87.065 87.04 87.273 87.015 86.933 86.833 89.75 92.745 93.075 91.738 86.845 86.875 86.863 86.82 86.805 86.795 86.778 87.065 89.04 88.958 87.478 86.685 87.745 91.28 92.478 92.89 93.2 92.945 92.478 91.77 89.305 86.765 86.7 86.85 86.918 86.985 86.853 86.8 86.725 86.643 86.58 86.64 86.565 86.485 86.455 86.38 86.358 86.323 86.348 86.38 86.385 86.415 86.408 86.403 86.425 86.435 86.458 86.44 86.443 86.415 86.43 86.448 86.465 86.47 86.465 86.46 86.48 86.51 86.505 86.533 86.548 86.553 86.563 86.548 86.55 86.57 86.623 86.653 86.638 86.66 86.635 86.648 86.65 86.67 86.665 86.655 86.673 86.68 86.7 86.673 86.668 86.658 86.658 86.655 86.655 86.623 86.633 86.635 86.65 86.658 86.635 86.65 86.668 86.728 86.765 86.858 86.96 87.143 87.38 87.59 87.67 87.7 87.95 88.315 87.79 87.743 87.765 87.8 87.823 87.833 87.875 87.865 87.868 87.865 87.865 87.865 87.92 87.97 88.03 88.035 88.085 88.095 88.115 88.145 88.173 88.218 88.235 88.26 88.28 88.325 88.365 88.39 88.408 88.428 88.503 88.458 88.478 88.548 88.718 88.973 89.228 89.433 89.515 89.568 89.66 89.723 89.765 89.81 89.858 89.93 89.998 90.063 90.145 90.235 90.345 90.478 90.6 90.728 90.838 90.968 91.05 91.173 91.295 91.388 91.53 91.633 91.735 91.81 91.878 91.915 91.988 92.045 92.09
83.798 83.886 83.918 83.866 83.846 83.848 83.863 83.908 83.933 83.936 83.961 83.941 83.776 83.561 83.571 83.581 83.616 83.598 83.623 83.651 83.668 83.676 83.688 83.716 83.716 83.746 83.763 83.788 83.801 83.818 83.831 83.841 83.853 83.886 83.903 83.921 83.951 83.991 84.083 84.188 84.231 84.246 84.218 84.191 84.201 84.213 84.206 84.158 84.181 84.258 84.431 84.526 84.561 84.581 84.606 84.648 84.648 84.666 84.681 84.703 84.683 84.653 84.643 84.623 84.588 84.541 84.546 84.561 84.538 84.596 84.593 84.601 84.603 84.603 84.623 84.651 84.663 84.648 84.648 84.693 84.696 84.713 84.761 84.783 84.821 84.846 84.898 84.918 84.906 84.936 84.963 84.976 84.981 85.168 86.448 87.771 88.918 87.653 86.201 86.266 86.486 87.708 87.643 86.591 86.853 86.523 86.051 88.116 89.058 89.446 91.623 92.578 92.346 91.221 88.048 85.798 85.806 85.823 86.008 85.866 85.786 85.786 85.806 86.303 85.853 85.431 85.251 87.076 90.071 90.266 89.156 87.218 85.351 85.358 85.48 85.553 86.95 85.973 85.848 85.898 85.885 86.135 86.685 86.983 85.765 86.013 86.573 86.008 85.185 85.163 85.353 85.243 85.12 85.115 85.133 85.955 85.858 87.468 90.413 90.713 90.888 91.088 91.213 91.333 91.458 90.73 88.673 88.79 88.718 85.548 85.473 85.5 85.118 85.07 85.083 85.088 85.188 85.145 85.248 85.35 86.383 86.37 87.133 87.535 85.245 85.413 85.76 86.565 86.438 86.293 86.163 86.26 86.345 86.605 86.838 87.343 87.923 88.165 88.198 86.855 86.89 86.865 86.22 86.158 86.13 86.218 87.45 86.52 86.138 86.26 90.563 92.155 92.698 92.145 88.735 87.225 86.8 86.388 86.5 87.363 86.768 86.96 86.888 87.015 87.753 87.915 87.795 88.023 87.255 87.053 86.943 86.93 86.953 87.008 87.023 87.078 88.115 87.068 87.043 87.343 88.133 87.448 87.12 87.098 88.53 92.693 93.42 93.448 92.69 88.865 86.98 87.865 88.303 87.38 87.073 87.04 87.04 87.075 86.963 86.855 87.79 92.443 93.13 92.743 88.278 86.8 86.87 86.883 86.858 86.803 86.798 86.815 86.78 86.805 87.215 88.063 86.545 87.473 91.74 93.128 93.113 92.7 92.225 91.15 87.54 86.665 86.67 86.855 86.973 86.953 86.953 86.963 86.913 86.83 86.723 86.65 86.62 86.603 86.518 86.505 86.45 86.395 86.365 86.34 86.368 86.388 86.4 86.393 86.4 86.423 86.428 86.448 86.435 86.425 86.428 86.425 86.44 86.46 86.478 86.475 86.488 86.46 86.488 86.495 86.525 86.545 86.565 86.558 86.54 86.563 86.61 86.62 86.66 86.663 86.65 86.655 86.665 86.673 86.715 86.69 86.673 86.673 86.698 86.678 86.67 86.68 86.655 86.663 86.668 86.673 86.633 86.64 86.663 86.645 86.658 86.673 86.695 86.743 86.775 86.863 86.965 87.068 87.255 87.5 87.683 87.735 87.74 87.748 88.13 88.403 87.84 87.775 87.793 87.843 87.863 87.89 87.903 87.888 87.905 87.888 87.893 87.918 87.965 88.003 87.99 88.005 88.075 88.128 88.168 88.19 88.21 88.233 88.255 88.29 88.345 88.363 88.438 88.423 88.43 88.458 88.443 88.533 88.695 88.973 89.223 89.368 89.488 89.533 89.598 89.653 89.735 89.785 89.863 89.915 89.975 90.04 90.13 90.198 90.27 90.393 90.513 90.64 90.785 90.92 91.05 91.168 91.303 91.44 91.54 91.67 91.79 91.9 91.978 92.035 92.08 92.128 92.17 92.21
83.858 83.911 83.931 83.906 83.898 83.921 83.926 83.981 83.983 83.953 83.951 83.856 83.613 83.561 83.586 83.583 83.588 83.608 83.611 83.646 83.681 83.686 83.686 83.723 83.733 83.761 83.781 83.806 83.823 83.836 83.851 83.863 83.888 83.908 83.916 83.936 83.953 83.973 83.996 84.056 84.158 84.248 84.318 84.306 84.316 84.326 84.303 84.313 84.333 84.426 84.531 84.586 84.633 84.623 84.636 84.643 84.681 84.688 84.681 84.691 84.708 84.668 84.646 84.633 84.616 84.588 84.563 84.571 84.571 84.631 84.616 84.633 84.651 84.673 84.696 84.703 84.703 84.681 84.713 84.728 84.726 84.768 84.793 84.816 84.846 84.896 84.931 84.956 84.963 84.983 85.028 85.023 84.981 85.013 85.283 86.366 86.463 86.393 86.261 86.308 86.878 87.661 86.993 86.683 86.661 86.606 86.748 86.873 88.718 86.986 90.948 92.213 92.623 91.733 89.241 86.321 85.823 85.853 85.918 85.931 85.878 85.878 85.833 85.906 85.911 86.056 85.873 86.908 87.786 87.203 87.221 86.456 85.958 85.983 85.975 86.085 86.46 86.248 85.913 85.84 85.783 85.748 86.283 86.19 85.53 85.38 85.278 85.233 85.283 85.393 85.563 85.335 85.14 85.148 85.798 85.928 86.518 87.828 87.748 87.078 86.1 87.343 89.448 88.763 90.235 89.428 87.708 88.148 87.573 85.53 85.545 86.223 85.178 85.108 85.13 85.155 85.173 86.428 86.01 86.703 86.548 86.3 85.735 85.555 85.97 85.648 85.893 87.31 87.593 86.268 86.095 86.235 86.305 86.403 86.533 88.433 89.585 90.005 89.173 87.185 86.61 86.535 86.303 86.245 86.23 86.425 86.598 86.298 86.205 89.343 91.788 92.498 92.498 91.638 86.913 86.49 86.948 87.37 87.245 87.593 88.305 87.92 87.048 87.033 88.048 87.348 87.543 88.715 87.923 87.6 87.513 87.053 87.1 87.17 87.153 87.145 87.553 88.328 87.078 88.635 88.65 87.048 87.53 87.245 90.34 92.963 93.625 93.145 91.82 87.703 87.443 87.283 87.045 87.05 87.063 87.005 87.033 87.02 86.905 86.838 91.093 92.923 93.023 91.323 87.053 86.83 86.873 86.885 86.878 86.818 86.84 86.8 86.84 86.77 86.72 87.295 86.665 88.1 90.545 92.968 92.513 91.775 90.038 86.883 86.573 86.648 86.993 87.008 86.943 86.888 86.918 86.995 86.985 86.918 86.79 86.715 86.635 86.753 86.66 86.578 86.51 86.445 86.395 86.353 86.35 86.378 86.37 86.393 86.428 86.425 86.433 86.47 86.465 86.433 86.418 86.433 86.45 86.47 86.473 86.488 86.51 86.46 86.473 86.495 86.505 86.535 86.548 86.57 86.59 86.598 86.645 86.623 86.658 86.668 86.66 86.668 86.648 86.665 86.65 86.683 86.695 86.698 86.698 86.685 86.673 86.675 86.688 86.645 86.66 86.655 86.67 86.673 86.653 86.68 86.71 86.723 86.753 86.813 86.87 86.963 87.073 87.185 87.373 87.63 87.775 87.81 87.758 87.775 87.783 88.12 88.605 87.885 87.833 87.843 87.9 87.95 87.92 87.908 87.89 87.898 87.928 87.97 87.963 87.955 87.963 87.985 88.013 88.095 88.138 88.173 88.17 88.208 88.243 88.293 88.338 88.37 88.383 88.395 88.4 88.405 88.523 88.733 88.98 89.183 89.323 89.41 89.48 89.528 89.578 89.67 89.758 89.825 89.905 89.97 90.043 90.11 90.213 90.31 90.375 90.488 90.57 90.708 90.845 90.993 91.125 91.245 91.393 91.538 91.655 91.78 91.918 92.035 92.13 92.183 92.25 92.273 92.3 92.348
83.908 83.966 83.966 83.936 83.963 83.988 84.013 84.031 84.008 83.826 83.683 83.653 83.513 83.543 83.578 83.608 83.611 83.643 83.656 83.676 83.683 83.693 83.711 83.721 83.738 83.761 83.798 83.803 83.838 83.846 83.848 83.888 83.901 83.908 83.943 83.943 83.943 83.983 84.006 84.026 84.041 84.116 84.268 84.333 84.398 84.431 84.428 84.458 84.516 84.596 84.641 84.641 84.651 84.656 84.656 84.663 84.683 84.733 84.723 84.736 84.733 84.706 84.666 84.676 84.668 84.653 84.613 84.601 84.593 84.631 84.651 84.656 84.681 84.688 84.708 84.741 84.763 84.743 84.753 84.773 84.776 84.808 84.848 84.866 84.883 84.931 84.966 84.991 85.008 85.018 85.048 85.051 85.043 85.021 85.483 87.361 88.606 86.226 86.281 86.378 87.743 87.971 87.566 87.086 86.796 87.381 87.096 87.271 86.671 86.043 89.536 91.801 92.728 91.836 90.016 86.213 85.853 85.883 86.066 86.016 85.941 85.931 85.923 86.018 86.236 86.958 86.283 87.566 88.851 87.913 88.476 87.411 86.138 86.035 86.583 86.855 89.16 87.82 86.533 85.893 85.813 85.955 88.05 88.248 87.76 85.66 85.618 85.435 85.373 85.378 85.315 85.235 85.15 85.138 85.39 85.96 86.658 87.808 87.743 86.223 85.298 85.283 86.523 85.345 85.155 85.17 86.435 86.94 86.048 85.48 85.608 85.765 85.238 85.235 85.208 85.35 85.428 85.38 85.895 88.843 88.523 88.408 87.9 86.015 85.948 85.8 85.878 87.238 87.48 86.4 86.11 86.19 86.408 86.62 86.673 89.833 92.483 92.56 92.273 90.34 86.615 86.695 86.47 86.39 86.33 86.68 87.08 86.643 86.278 90.615 92.15 92.678 92.183 89.638 86.37 86.28 86.993 88.038 88.515 89.12 90.983 90.398 87.7 87.51 87.135 87.143 87.13 87.235 87.383 88.648 90.755 87.508 87.63 87.808 87.21 87.218 87.203 88.215 87.995 88.618 87.598 86.995 87.035 87.063 88.278 88.9 93.225 92.84 89.855 87.368 87.8 87.263 87.035 87.043 87.045 87.008 87.158 87.003 86.93 88.973 92.683 93.14 92.663 90.208 87.038 86.838 86.843 86.848 86.825 86.83 86.888 86.845 87.19 87.388 86.77 86.733 86.74 87.573 89.17 91.02 90.855 88.123 86.615 86.548 86.59 86.723 87.02 86.978 86.858 86.84 86.883 86.975 87.005 86.958 86.84 86.765 86.72 86.705 86.893 86.653 86.558 86.498 86.448 86.39 86.385 86.375 86.355 86.405 86.423 86.433 86.45 86.463 86.463 86.44 86.43 86.428 86.433 86.455 86.463 86.5 86.523 86.51 86.483 86.503 86.518 86.538 86.575 86.603 86.62 86.635 86.668 86.645 86.668 86.683 86.68 86.678 86.66 86.673 86.675 86.683 86.678 86.663 86.67 86.665 86.69 86.678 86.673 86.66 86.66 86.673 86.67 86.68 86.695 86.705 86.738 86.773 86.835 86.895 86.998 87.088 87.188 87.315 87.498 87.695 87.82 87.838 88.735 88.93 87.8 87.845 88.405 88.678 87.895 87.88 87.925 87.975 87.993 87.935 87.915 87.925 87.963 87.98 87.988 87.973 87.98 87.97 88.04 88.05 88.088 88.108 88.148 88.183 88.235 88.278 88.323 88.343 88.363 88.385 88.408 88.518 88.71 88.96 89.16 89.288 89.323 89.375 89.445 89.513 89.59 89.67 89.748 89.858 89.948 90.038 90.088 90.185 90.275 90.395 90.483 90.59 90.705 90.823 90.953 91.078 91.225 91.37 91.493 91.618 91.763 91.88 91.983 92.098 92.203 92.293 92.33 92.373 92.428 92.47
83.868 83.926 83.968 84.006 84.026 84.043 84.068 84.081 83.981 83.706 83.556 83.546 83.543 83.551 83.586 83.598 83.621 83.658 83.678 83.671 83.698 83.688 83.716 83.716 83.741 83.773 83.798 83.816 83.836 83.846 83.851 83.883 83.883 83.913 83.928 83.933 83.971 83.988 84.016 84.023 84.053 84.073 84.131 84.226 84.366 84.496 84.563 84.613 84.653 84.703 84.721 84.708 84.701 84.693 84.691 84.688 84.693 84.748 84.748 84.763 84.748 84.743 84.716 84.726 84.731 84.706 84.661 84.663 84.666 84.676 84.696 84.698 84.691 84.721 84.746 84.761 84.813 84.773 84.811 84.828 84.821 84.841 84.873 84.868 84.951 84.971 85.018 85.036 85.031 85.071 85.071 85.063 85.091 85.113 85.303 89.063 89.963 87.861 86.301 86.393 87.073 88.198 88.216 87.738 86.798 86.953 86.648 86.618 86.466 86.131 87.521 90.946 90.591 89.023 88.126 86.316 86.086 86.088 86.401 86.128 86.071 86.006 86.016 86.121 86.568 86.971 86.361 88.196 91.943 91.861 90.391 88.641 85.993 85.853 85.865 86.73 89.06 86.675 85.958 85.905 85.805 86.375 88.035 88.315 88.84 88.21 86.885 85.718 85.49 85.465 85.623 85.283 85.2 85.208 85.51 86.3 86.33 86.978 86.778 86.318 85.835 85.708 86.175 85.91 85.988 85.885 85.6 85.635 85.523 85.57 85.775 85.853 85.628 85.34 85.313 85.39 85.3 85.218 85.48 90.203 91.615 91.498 89.473 85.513 85.253 85.605 86.058 85.963 86.348 86.845 86.92 86.445 86.593 86.618 86.635 89.873 92.613 92.928 92.095 88.25 86.763 86.543 87.105 86.61 86.43 86.425 88.663 86.668 86.435 86.733 90.91 92.223 91.683 86.9 86.265 86.408 88.345 88.978 88.385 90.743 93.145 92.628 91.89 89.805 87.553 87.088 87.09 87.178 87.723 88.36 89.705 88.278 88.23 87.523 87.333 87.295 87.545 88.373 88.923 87.6 87.043 86.985 87.055 88.203 89.36 89.388 89.538 89.355 87.725 87.728 87.743 87.033 87.003 87.06 87.048 86.983 87.068 87.01 86.94 89.735 93.095 93.148 93.008 92.435 91.248 87.538 86.808 86.823 86.838 86.885 86.905 86.9 86.885 87.26 86.813 86.775 86.753 86.705 88.235 88.648 87.055 87.263 86.685 86.633 86.725 86.823 86.96 86.928 86.863 86.873 86.928 86.945 86.983 86.993 86.903 86.84 86.723 86.688 86.95 87.003 86.603 86.553 86.52 86.46 86.408 86.383 86.368 86.423 86.445 86.465 86.473 86.48 86.495 86.465 86.458 86.44 86.465 86.445 86.465 86.47 86.513 86.525 86.503 86.533 86.543 86.555 86.573 86.6 86.62 86.64 86.665 86.673 86.695 86.68 86.653 86.65 86.663 86.65 86.648 86.645 86.643 86.65 86.678 86.678 86.688 86.68 86.69 86.67 86.658 86.673 86.675 86.703 86.738 86.76 86.808 86.873 86.93 87.033 87.13 87.22 87.315 87.42 87.575 87.725 87.835 89.1 91.053 90.745 88.678 87.838 87.898 88.453 88.425 87.935 87.953 87.973 88.018 88.038 88 87.968 87.98 87.975 87.998 87.978 87.985 87.98 88.018 88.043 88.058 88.085 88.12 88.143 88.193 88.275 88.305 88.375 88.375 88.393 88.505 88.71 88.913 89.11 89.21 89.278 89.33 89.385 89.435 89.51 89.608 89.67 89.765 89.858 89.975 90.065 90.163 90.25 90.37 90.49 90.595 90.703 90.808 90.92 91.04 91.163 91.333 91.485 91.615 91.74 91.868 91.978 92.088 92.17 92.285 92.355 92.415 92.475 92.523 92.55
83.911 83.858 83.936 83.988 84.053 84.086 84.096 84.088 83.936 83.701 83.608 83.548 83.568 83.571 83.611 83.633 83.653 83.653 83.688 83.701 83.681 83.721 83.748 83.753 83.751 83.793 83.798 83.843 83.841 83.878 83.891 83.908 83.886 83.916 83.933 83.953 83.963 84.001 84.026 84.046 84.061 84.076 84.091 84.136 84.281 84.541 84.641 84.696 84.748 84.766 84.753 84.723 84.726 84.748 84.753 84.738 84.758 84.753 84.776 84.771 84.763 84.766 84.743 84.758 84.761 84.736 84.718 84.713 84.698 84.706 84.736 84.736 84.746 84.766 84.791 84.788 84.851 84.821 84.823 84.856 84.896 84.898 84.928 84.941 84.963 85.011 85.036 85.068 85.076 85.088 85.081 85.096 85.101 85.131 85.183 86.628 88.046 89.163 86.658 86.453 86.576 87.346 87.021 86.773 86.678 86.683 86.726 86.648 86.523 86.313 86.096 87.953 88.206 87.343 85.941 86.241 86.351 86.293 86.256 86.206 86.198 86.121 86.156 86.281 86.331 86.811 86.648 88.891 92.321 93.098 92.661 90.856 86.806 86.255 85.958 85.88 86.595 86.685 86.453 86.053 85.978 85.82 85.923 88.418 89.43 90.205 89.845 88.875 85.86 85.638 85.515 85.328 85.295 85.278 85.535 86.063 85.953 85.913 85.878 85.818 86.355 85.958 85.91 86.223 86.508 86.638 85.768 85.77 86.073 85.983 85.98 85.805 86.338 85.43 85.34 85.55 85.345 85.275 86.4 90.173 91.695 91.368 87.895 85.323 85.25 85.578 86.133 86.038 86.085 86.313 87.09 86.78 86.908 86.76 87.225 89.59 92.73 92.898 91.008 86.745 86.77 86.813 87.345 86.658 86.525 86.52 86.958 87.205 86.505 86.493 86.585 87.413 87.755 86.34 86.335 86.7 89.085 88.175 89.113 92.548 93.823 93.63 93.153 92.68 91.825 88.045 87.003 87.103 87.865 87.358 87.283 87.485 87.375 87.455 87.505 87.698 88.805 88.238 88.878 88.13 86.985 87.145 88.73 91.69 92.908 92.443 90.835 89.315 86.805 86.933 87.168 86.96 86.99 87.028 86.965 86.943 87.02 87.023 86.963 87.275 89.105 91.79 92.92 93.153 92.848 91.878 88.16 86.823 86.843 86.88 86.855 86.873 87.39 88.968 87.378 86.855 86.805 86.815 86.725 86.625 87.948 87.305 87.533 86.853 86.913 87.165 86.92 86.855 86.865 86.89 86.893 86.9 86.925 87.01 86.945 86.865 86.923 86.84 86.973 87.005 86.638 86.613 86.6 86.55 86.478 86.42 86.39 86.41 86.425 86.45 86.468 86.485 86.493 86.485 86.455 86.46 86.433 86.448 86.498 86.508 86.525 86.53 86.505 86.538 86.533 86.55 86.555 86.598 86.645 86.645 86.693 86.693 86.703 86.695 86.665 86.685 86.663 86.665 86.663 86.643 86.625 86.65 86.683 86.688 86.673 86.688 86.688 86.665 86.668 86.703 86.718 86.765 86.818 86.85 86.908 86.99 87.055 87.155 87.26 87.365 87.443 87.56 87.665 87.745 89.91 91.143 91.183 91.19 90.608 88.02 87.923 87.97 88.91 88.313 87.973 88.008 88.045 88.108 88.118 88.03 88.02 87.998 87.993 87.998 88 88.003 88.008 88.053 88.068 88.088 88.108 88.14 88.183 88.28 88.31 88.36 88.39 88.513 88.69 88.878 89.025 89.153 89.22 89.28 89.35 89.383 89.445 89.505 89.595 89.69 89.798 89.888 90.005 90.118 90.215 90.363 90.453 90.58 90.713 90.843 90.95 91.048 91.168 91.303 91.443 91.583 91.718 91.843 91.973 92.1 92.205 92.278 92.368 92.448 92.513 92.565 92.608 92.625
85.393 84.418 83.916 83.908 84.006 84.086 84.131 84.111 83.908 83.853 83.688 83.561 83.571 83.601 83.623 83.641 83.661 83.658 83.708 83.698 83.703 83.746 83.753 83.743 83.778 83.798 83.813 83.838 83.848 83.873 83.893 83.906 83.903 83.911 83.923 83.966 83.986 84.018 84.028 84.051 84.073 84.081 84.093 84.121 84.188 84.561 84.658 84.736 84.758 84.771 84.771 84.758 84.753 84.778 84.781 84.776 84.743 84.748 84.783 84.783 84.773 84.786 84.811 84.803 84.808 84.768 84.761 84.751 84.761 84.791 84.768 84.753 84.793 84.831 84.841 84.861 84.871 84.863 84.878 84.883 84.928 84.963 84.993 84.993 84.996 85.033 85.051 85.076 85.113 85.126 85.118 85.143 85.146 85.171 85.188 85.961 88.221 89.411 86.601 86.496 86.553 87.318 87.431 86.753 86.676 86.748 86.706 86.656 86.571 86.633 87.148 87.116 86.368 86.708 86.853 87.541 86.653 86.416 86.643 86.371 86.206 86.223 86.216 86.313 87.553 86.936 86.231 88.833 92.323 93.106 92.658 90.701 88.633 86.96 86.06 86.02 86.303 86.945 86.543 86.113 86.078 86.16 85.858 88.305 89.605 90.235 89.695 88.903 86.443 85.683 85.695 85.373 85.355 85.333 85.935 85.918 85.92 85.923 85.895 86.06 86.063 85.775 86.065 86.065 88.653 88.423 88.273 87.503 86.638 86.373 85.98 85.783 85.69 85.505 85.458 85.658 85.4 85.31 86.635 90.973 91.705 91.243 87.008 85.265 85.243 85.73 86.635 86.245 86.185 86.2 86.32 87.325 86.615 86.643 87.275 90.17 92.868 92.855 90.755 87.03 86.938 86.748 86.603 86.605 86.583 86.548 86.685 87.81 87.998 87.313 87.125 86.985 88.885 87.245 87.488 87.208 88.26 87.59 89.785 92.39 93.198 93.695 93.998 93.66 93.178 90.82 88.733 87.118 87.165 87.245 87.275 87.305 87.443 88.18 87.915 88.038 89.598 88.275 87.6 87.778 88.21 88.065 90.713 92.58 93.353 93.37 92.59 88.275 86.775 86.96 86.99 86.97 86.978 86.983 86.91 86.935 87.008 87.063 87 86.985 86.958 87.645 91.11 92.655 93.055 88.903 87.113 87.173 87.848 87.01 86.83 86.848 88.405 92.78 92.045 88.758 86.85 86.85 86.81 86.773 88.403 88.033 86.988 87.438 87.408 87.05 87.1 86.798 86.845 86.87 86.855 87.65 86.973 86.928 86.968 86.928 86.87 86.718 86.91 86.805 86.81 86.688 86.698 86.645 86.523 86.455 86.408 86.423 86.435 86.465 86.483 86.493 86.498 86.485 86.485 86.465 86.475 86.46 86.48 86.495 86.498 86.548 86.538 86.528 86.54 86.555 86.568 86.595 86.66 86.655 86.705 86.705 86.71 86.718 86.69 86.67 86.678 86.658 86.655 86.638 86.613 86.64 86.663 86.66 86.668 86.68 86.7 86.713 86.7 86.755 86.765 86.815 86.89 86.948 87.02 87.09 87.175 87.305 87.405 87.503 87.56 87.653 87.743 87.868 89.105 90.8 91.155 91.183 91.215 90.69 87.908 88.008 88.05 88.765 88.325 88.02 88.073 88.1 88.158 88.12 88.073 88.03 87.993 88.028 88.028 88.028 88.03 88.065 88.08 88.098 88.113 88.153 88.203 88.26 88.305 88.368 88.485 88.69 88.863 88.985 89.058 89.17 89.25 89.3 89.325 89.38 89.453 89.52 89.613 89.718 89.83 89.948 90.04 90.163 90.293 90.425 90.555 90.695 90.83 90.955 91.105 91.2 91.31 91.438 91.56 91.705 91.823 91.948 92.08 92.2 92.295 92.393 92.45 92.533 92.595 92.655 92.7 92.725
