ncols 437
nrows 31
xllcorner    429022
yllcorner    544650
cellsize     2
NODATA_value -9999
55.148 54.628 54.306 57.308 56.516 54.338 54.038 53.881 54.746 58.393 60.106 57.501 53.453 52.973 52.898 52.911 52.771 52.708 53.046 53.181 52.711 52.768 57.448 57.693 60.443 56.641 55.221 61.613 56.761 55.566 52.318 53.553 51.446 50.648 50.381 50.176 49.258 48.433 48.208 48.173 47.808 47.088 46.521 46.043 45.481 44.861 44.641 46.706 42.888 40.956 38.286 36.668 35.261 33.618 32.173 31.191 30.073 29.556 29.096 29.071 29.043 29.481 29.786 29.193 28.756 28.291 28.036 27.571 26.736 27.208 30.166 34.318 27.216 34.673 32.748 -9999 -9999 -9999 -9999 -9999 -9999 -9999 -9999 -9999 -9999 -9999 -9999 27.073 26.901 25.256 33.738 30.941 26.673 26.323 26.498 27.056 28.168 28.578 28.376 28.281 28.148 28.071 28.001 27.831 27.776 27.618 27.453 27.313 27.308 27.408 27.521 27.751 27.998 28.276 28.718 29.128 29.603 29.938 30.228 30.513 30.823 31.273 31.776 32.376 32.811 33.333 33.686 33.911 34.138 34.446 34.613 34.748 34.946 35.238 35.463 35.741 36.136 36.493 36.901 37.203 37.436 37.831 38.496 39.348 39.461 40.266 41.223 43.268 43.398 44.573 45.828 46.916 47.971 49.238 50.901 52.093 52.201 52.816 53.056 53.438 53.743 53.786 53.903 54.023 54.141 54.241 54.336 54.493 54.646 54.838 55.023 55.206 55.388 55.548 55.701 55.823 55.941 56.046 56.153 56.246 56.343 56.448 56.568 56.663 56.743 56.826 56.948 57.041 57.126 57.188 57.258 57.321 57.381 57.411 57.441 57.486 57.511 57.546 57.623 57.673 57.751 57.823 57.908 57.956 57.986 58.008 58.023 58.011 58.001 57.998 57.991 57.978 57.963 57.976 57.983 58.016 58.073 58.128 58.196 58.238 58.303 58.333 58.336 58.336 58.291 58.266 58.256 58.226 58.223 58.191 58.186 58.168 58.171 58.143 58.121 58.103 58.093 58.061 58.056 58.028 58.033 57.973 57.953 57.951 57.921 57.921 57.918 57.923 57.966 58.021 58.083 58.141 58.213 58.283 58.388 58.476 58.558 58.631 58.721 58.766 58.821 58.876 58.898 58.943 59.013 59.041 59.083 59.101 59.116 59.136 59.131 59.143 59.126 59.113 59.106 59.106 59.108 59.063 59.043 59.021 58.946 58.838 58.748 58.708 58.686 58.688 58.716 58.756 58.811 58.933 59.013 59.111 59.206 59.263 59.338 59.396 59.421 59.478 59.538 59.541 59.591 59.648 59.658 59.666 59.658 59.673 59.666 59.691 59.683 59.731 59.906 60.083 60.393 60.761 61.178 61.528 61.668 61.878 62.146 62.413 62.718 63.021 63.321 63.623 63.898 64.211 64.448 64.723 64.936 65.153 65.308 65.481 65.623 65.771 65.878 65.983 66.088 66.168 66.216 66.281 66.313 66.373 66.416 66.508 66.638 66.733 66.861 67.008 67.176 67.356 67.538 67.743 67.901 68.083 68.246 68.428 68.561 68.698 68.811 68.946 69.058 69.196 69.328 69.468 69.556 69.636 69.756 69.868 69.978 70.073 70.206 70.293 70.341 70.423 70.506 70.586 70.648 70.756 70.836 70.868 70.921 70.981 71.033 71.091 71.153 71.221 71.276 71.311 71.353 71.413 71.473 71.551 71.598 71.651 71.691 71.746 71.793 71.833 71.858 71.908 71.938 71.948 71.986 72.016 72.023 72.043 72.046 72.048 72.068 72.071 72.088 72.116 72.156 72.131 72.128 72.121 72.121 72.156 72.191 72.228 72.263 72.276 72.283 72.298 72.326 72.368 72.433 72.493 72.531 72.576 72.598 72.658 72.693 72.751 72.746 72.793 72.823
56.173 56.043 55.101 57.288 56.466 55.301 54.888 55.886 59.193 63.943 62.106 60.533 55.256 54.216 53.476 53.726 53.231 53.628 53.428 53.261 53.328 53.266 53.186 55.986 58.163 56.513 53.636 55.296 55.013 52.778 53.553 54.986 52.133 51.458 51.023 50.446 50.341 49.146 52.963 50.443 48.408 47.681 47.018 49.661 46.061 45.531 46.701 49.198 45.806 42.898 41.453 40.633 37.248 35.113 33.628 32.253 31.296 30.163 29.031 28.571 28.186 28.346 29.058 28.641 28.221 28.131 27.931 27.281 26.526 26.206 25.146 30.893 28.688 31.656 32.526 34.633 -9999 -9999 -9999 -9999 -9999 -9999 -9999 -9999 -9999 -9999 -9999 28.363 27.533 27.191 32.013 25.516 25.713 26.193 26.961 27.408 28.061 28.413 28.286 28.213 28.138 28.066 27.936 27.756 27.696 27.536 27.366 27.233 27.371 27.473 27.631 27.861 28.151 28.518 29.013 29.456 29.838 30.141 30.623 30.676 30.996 31.433 31.956 32.453 32.968 33.451 33.838 34.008 34.321 34.533 34.671 34.793 35.016 35.276 35.598 35.928 36.253 36.611 36.926 37.148 37.503 37.886 38.343 38.893 39.638 40.436 41.511 44.411 43.828 45.043 46.653 47.006 48.181 49.498 50.751 51.666 52.378 52.891 53.133 53.626 53.776 53.831 53.978 54.053 54.226 54.331 54.436 54.578 54.758 54.938 55.116 55.296 55.483 55.648 55.781 55.911 56.021 56.123 56.238 56.311 56.386 56.498 56.601 56.693 56.788 56.913 57.018 57.126 57.226 57.311 57.373 57.426 57.478 57.536 57.558 57.593 57.628 57.666 57.693 57.763 57.816 57.893 57.948 57.993 58.053 58.068 58.103 58.088 58.096 58.108 58.086 58.098 58.081 58.083 58.098 58.131 58.181 58.231 58.278 58.351 58.413 58.441 58.451 58.443 58.421 58.413 58.386 58.343 58.331 58.316 58.311 58.306 58.298 58.298 58.263 58.243 58.246 58.216 58.188 58.176 58.158 58.116 58.116 58.108 58.093 58.113 58.113 58.131 58.168 58.206 58.258 58.338 58.393 58.458 58.566 58.651 58.733 58.801 58.893 58.963 59.051 59.133 59.173 59.201 59.276 59.293 59.326 59.331 59.341 59.366 59.351 59.338 59.323 59.298 59.233 59.238 59.228 59.206 59.168 59.143 59.091 59.013 58.926 58.896 58.873 58.881 58.931 58.951 58.981 59.066 59.151 59.243 59.331 59.408 59.458 59.526 59.563 59.591 59.613 59.671 59.723 59.763 59.811 59.821 59.813 59.806 59.786 59.801 59.821 59.841 59.961 60.076 60.306 60.666 61.013 61.363 61.521 61.703 61.973 62.243 62.526 62.836 63.121 63.393 63.721 64.011 64.286 64.553 64.806 65.026 65.216 65.411 65.558 65.703 65.833 65.953 66.063 66.171 66.241 66.283 66.313 66.361 66.408 66.481 66.606 66.701 66.808 66.978 67.156 67.321 67.501 67.678 67.868 68.068 68.238 68.396 68.541 68.683 68.803 68.936 69.048 69.183 69.333 69.441 69.526 69.618 69.728 69.836 69.933 70.066 70.161 70.246 70.313 70.393 70.458 70.563 70.651 70.736 70.791 70.846 70.888 70.948 70.988 71.053 71.121 71.193 71.246 71.268 71.338 71.411 71.481 71.543 71.581 71.628 71.681 71.731 71.768 71.803 71.846 71.858 71.893 71.928 71.953 71.966 71.986 71.998 71.991 72.016 72.043 72.063 72.048 72.106 72.138 72.118 72.121 72.121 72.128 72.163 72.191 72.216 72.248 72.266 72.278 72.296 72.328 72.371 72.408 72.481 72.526 72.563 72.621 72.663 72.711 72.743 72.773 72.821 72.831
55.881 56.278 55.788 55.821 56.571 55.498 57.951 59.286 61.338 63.206 64.263 62.541 56.123 54.553 54.021 53.961 53.588 53.781 53.806 53.703 53.783 53.688 53.538 53.373 58.021 60.088 53.088 53.001 53.926 54.746 52.988 52.968 52.426 52.018 51.643 51.128 50.621 49.348 48.381 48.363 48.761 48.458 47.646 47.126 46.563 46.966 50.416 51.013 50.416 47.338 47.103 47.128 40.961 36.656 35.211 33.653 32.358 32.661 30.668 31.128 28.253 27.976 27.776 27.906 28.043 28.023 27.826 28.803 31.866 33.451 29.456 35.493 33.746 34.263 31.456 31.663 -9999 -9999 -9999 -9999 -9999 -9999 -9999 -9999 -9999 -9999 -9999 28.088 26.576 27.758 25.778 25.598 25.836 26.661 28.356 27.951 28.438 28.398 28.268 28.196 28.101 28.026 27.846 27.716 27.591 27.461 27.288 27.298 27.441 27.536 27.761 27.998 28.321 28.773 29.196 29.618 29.951 30.253 30.911 30.828 31.168 31.733 32.136 32.631 33.186 33.586 33.916 34.198 34.406 34.583 34.686 34.881 35.091 35.401 35.718 36.068 36.371 36.673 36.896 37.151 38.446 38.373 38.501 39.073 39.886 40.778 41.888 43.133 43.943 44.931 46.118 47.261 48.493 49.621 50.708 51.731 52.546 53.031 53.233 53.753 53.798 53.881 54.023 54.111 54.268 54.371 54.506 54.651 54.836 55.023 55.213 55.388 55.558 55.703 55.848 55.971 56.086 56.176 56.278 56.366 56.453 56.548 56.666 56.766 56.876 56.966 57.073 57.183 57.296 57.376 57.453 57.528 57.596 57.656 57.688 57.716 57.733 57.771 57.811 57.816 57.891 57.963 58.001 58.078 58.121 58.141 58.146 58.156 58.176 58.181 58.196 58.173 58.186 58.193 58.186 58.218 58.273 58.331 58.381 58.448 58.506 58.551 58.546 58.556 58.546 58.521 58.501 58.491 58.463 58.433 58.428 58.406 58.426 58.421 58.408 58.388 58.383 58.351 58.326 58.321 58.316 58.308 58.306 58.268 58.266 58.291 58.311 58.326 58.366 58.401 58.458 58.521 58.568 58.623 58.733 58.803 58.906 58.988 59.066 59.163 59.223 59.308 59.353 59.438 59.488 59.508 59.541 59.573 59.581 59.568 59.561 59.538 59.488 59.471 59.408 59.338 59.341 59.346 59.316 59.281 59.226 59.166 59.093 59.056 59.071 59.076 59.106 59.121 59.143 59.201 59.278 59.383 59.463 59.568 59.626 59.693 59.741 59.748 59.761 59.758 59.783 59.823 59.863 59.906 59.936 59.933 59.908 59.893 59.843 59.896 59.963 60.066 60.273 60.561 60.836 61.183 61.363 61.556 61.791 62.051 62.326 62.628 62.906 63.198 63.521 63.813 64.066 64.376 64.603 64.851 65.096 65.301 65.476 65.623 65.783 65.908 66.018 66.121 66.221 66.263 66.311 66.346 66.391 66.456 66.541 66.641 66.768 66.953 67.131 67.286 67.456 67.656 67.831 68.016 68.198 68.363 68.511 68.633 68.793 68.903 69.026 69.158 69.291 69.393 69.501 69.591 69.703 69.798 69.918 70.023 70.108 70.213 70.306 70.358 70.436 70.533 70.641 70.721 70.756 70.791 70.846 70.918 70.968 71.031 71.086 71.158 71.191 71.251 71.313 71.396 71.438 71.508 71.558 71.603 71.653 71.703 71.751 71.781 71.808 71.863 71.876 71.923 71.926 71.961 71.956 71.953 71.973 71.981 71.996 72.038 72.051 72.101 72.113 72.111 72.103 72.096 72.121 72.146 72.201 72.213 72.238 72.253 72.268 72.291 72.341 72.386 72.441 72.498 72.541 72.578 72.636 72.683 72.738 72.751 72.783 72.781 72.828
59.688 58.558 55.818 55.691 55.558 55.721 57.008 60.153 57.136 57.853 59.576 60.566 55.081 54.988 55.331 54.561 54.388 54.368 54.638 54.176 54.096 53.973 53.858 53.696 53.586 53.441 53.351 53.273 53.828 54.668 53.288 52.736 52.471 52.246 51.886 51.428 50.218 51.141 49.303 48.533 49.291 49.111 48.496 47.673 47.541 47.238 50.596 49.866 47.341 47.748 50.228 49.031 42.951 39.183 36.826 34.863 33.448 32.391 31.926 32.121 28.646 27.998 27.791 27.471 27.778 27.936 27.521 26.653 31.543 32.891 26.458 31.971 33.066 28.906 28.631 30.201 -9999 -9999 -9999 -9999 -9999 -9999 -9999 -9999 -9999 -9999 -9999 -9999 28.448 27.246 25.581 28.541 26.061 26.868 27.411 28.066 28.441 28.396 28.228 28.166 28.098 27.968 27.736 27.606 27.513 27.363 27.201 27.313 27.478 27.668 27.861 28.123 28.506 29.013 29.391 29.786 30.088 30.371 30.671 30.993 31.363 31.833 32.301 32.803 33.346 33.586 33.921 34.306 34.476 34.641 34.778 34.971 35.216 35.536 35.858 36.211 36.476 36.686 36.876 37.361 39.393 40.118 38.686 39.373 40.213 41.166 42.321 44.278 44.178 45.188 46.316 47.541 48.716 49.766 50.883 51.901 52.668 53.073 53.353 53.763 53.843 53.928 54.063 54.161 54.291 54.408 54.541 54.706 54.901 55.098 55.271 55.461 55.621 55.751 55.896 56.026 56.126 56.228 56.316 56.403 56.496 56.603 56.711 56.826 56.933 57.046 57.138 57.261 57.371 57.448 57.543 57.628 57.696 57.751 57.793 57.836 57.858 57.881 57.886 57.921 57.958 58.001 58.066 58.128 58.166 58.193 58.221 58.216 58.223 58.246 58.261 58.238 58.258 58.263 58.273 58.283 58.358 58.423 58.481 58.571 58.616 58.638 58.641 58.671 58.648 58.643 58.633 58.608 58.601 58.583 58.591 58.571 58.581 58.546 58.551 58.528 58.526 58.501 58.488 58.471 58.458 58.456 58.463 58.466 58.486 58.483 58.518 58.536 58.578 58.613 58.656 58.716 58.766 58.823 58.898 58.953 59.066 59.156 59.246 59.308 59.391 59.476 59.533 59.591 59.658 59.688 59.746 59.743 59.773 59.753 59.723 59.678 59.651 59.603 59.568 59.496 59.466 59.441 59.438 59.376 59.353 59.321 59.266 59.221 59.186 59.208 59.258 59.301 59.331 59.358 59.391 59.498 59.593 59.698 59.776 59.853 59.901 59.903 59.916 59.916 59.883 59.883 59.898 59.921 59.963 59.988 59.991 59.976 59.941 59.966 59.976 60.028 60.233 60.423 60.896 61.051 61.216 61.418 61.663 61.863 62.143 62.423 62.713 63.006 63.318 63.616 63.876 64.166 64.438 64.703 64.951 65.158 65.353 65.526 65.693 65.833 65.951 66.076 66.166 66.241 66.291 66.323 66.373 66.428 66.513 66.613 66.753 66.916 67.078 67.251 67.446 67.596 67.801 67.988 68.176 68.328 68.491 68.636 68.748 68.871 69.001 69.148 69.246 69.353 69.451 69.543 69.641 69.773 69.871 69.988 70.063 70.191 70.263 70.311 70.393 70.508 70.613 70.673 70.728 70.763 70.816 70.878 70.936 71.011 71.061 71.111 71.166 71.213 71.276 71.376 71.421 71.483 71.538 71.581 71.638 71.691 71.738 71.758 71.806 71.838 71.876 71.888 71.893 71.911 71.938 71.928 71.936 71.946 71.958 72.013 72.038 72.066 72.063 72.071 72.033 72.061 72.113 72.121 72.176 72.188 72.208 72.238 72.261 72.298 72.353 72.411 72.466 72.506 72.553 72.566 72.616 72.668 72.753 72.756 72.773 72.753 72.806
59.983 58.241 56.356 56.031 55.878 56.416 57.718 60.603 61.301 59.471 58.446 57.151 55.146 55.026 55.108 54.986 54.911 54.838 54.866 54.891 54.741 54.653 54.386 56.181 57.018 57.103 54.078 53.873 53.526 53.608 53.223 53.098 53.111 52.481 51.846 51.078 50.213 49.868 49.031 48.551 49.581 50.016 49.516 49.066 49.001 48.691 48.876 49.051 47.463 48.461 47.933 46.926 43.938 42.713 41.013 36.881 34.623 33.418 32.186 30.756 29.473 29.123 27.851 27.473 27.361 27.346 26.966 26.216 30.791 25.643 29.766 30.008 29.273 30.443 32.696 -9999 -9999 -9999 -9999 -9999 -9999 -9999 -9999 -9999 -9999 -9999 -9999 -9999 30.015 29.183 25.798 25.861 26.241 27.073 28.053 28.146 28.378 28.321 28.263 28.161 28.103 27.886 27.651 27.521 27.408 27.258 27.181 27.346 27.531 27.756 27.993 28.323 28.703 29.213 29.538 29.896 30.176 30.466 30.786 31.101 31.561 32.031 32.483 32.953 33.361 33.626 34.031 34.371 34.486 34.678 34.833 35.026 35.298 35.618 35.998 36.348 36.511 36.708 36.921 37.308 38.338 38.478 38.943 39.771 40.531 41.536 42.621 43.908 44.431 45.473 46.653 47.898 48.968 49.998 51.068 52.561 53.808 53.078 53.508 53.821 53.863 53.973 54.078 54.221 54.348 54.471 54.593 54.781 54.983 55.168 55.336 55.511 55.653 55.793 55.921 56.053 56.141 56.258 56.336 56.441 56.556 56.666 56.771 56.883 57.003 57.151 57.236 57.353 57.451 57.538 57.633 57.718 57.781 57.858 57.908 57.928 57.953 57.961 57.976 57.993 58.023 58.063 58.128 58.191 58.218 58.246 58.268 58.286 58.291 58.313 58.326 58.311 58.346 58.353 58.348 58.356 58.438 58.506 58.581 58.646 58.728 58.758 58.763 58.758 58.743 58.728 58.756 58.751 58.746 58.743 58.731 58.718 58.713 58.698 58.696 58.678 58.678 58.673 58.661 58.596 58.611 58.608 58.628 58.651 58.661 58.683 58.731 58.736 58.763 58.796 58.846 58.893 58.943 58.998 59.068 59.106 59.191 59.311 59.373 59.468 59.538 59.626 59.683 59.761 59.808 59.883 59.896 59.908 59.923 59.901 59.886 59.863 59.796 59.741 59.671 59.613 59.578 59.573 59.566 59.531 59.503 59.471 59.411 59.383 59.336 59.348 59.383 59.413 59.466 59.518 59.566 59.631 59.696 59.836 59.926 59.993 60.021 60.048 60.051 60.036 60.031 60.008 59.996 59.988 59.991 60.031 60.043 59.986 59.983 59.998 59.986 60.018 60.166 60.376 60.643 60.903 61.068 61.243 61.483 61.706 61.966 62.236 62.521 62.828 63.128 63.391 63.678 63.968 64.271 64.553 64.778 65.001 65.221 65.408 65.588 65.741 65.873 66.018 66.126 66.211 66.268 66.333 66.353 66.418 66.506 66.626 66.746 66.921 67.018 67.206 67.396 67.581 67.761 67.966 68.116 68.278 68.461 68.598 68.683 68.826 68.963 69.101 69.198 69.311 69.386 69.521 69.591 69.723 69.823 69.938 70.041 70.131 70.198 70.266 70.346 70.463 70.568 70.618 70.671 70.706 70.778 70.853 70.923 70.991 71.073 71.081 71.118 71.203 71.261 71.318 71.391 71.446 71.506 71.541 71.586 71.646 71.703 71.728 71.771 71.796 71.816 71.838 71.861 71.871 71.886 71.888 71.893 71.898 71.931 71.946 72.006 72.011 72.016 72.031 72.028 72.041 72.093 72.136 72.163 72.181 72.211 72.221 72.256 72.286 72.363 72.408 72.456 72.516 72.556 72.583 72.651 72.698 72.726 72.736 72.746 72.731 72.786
63.351 57.768 56.631 56.491 56.718 58.188 58.336 58.583 57.038 58.501 59.078 57.303 57.253 55.576 55.413 55.431 55.408 55.331 55.276 55.216 55.261 55.068 55.063 55.971 55.896 55.971 54.668 54.533 54.248 53.768 53.441 54.663 54.123 52.338 51.626 50.988 50.456 49.913 49.276 48.518 49.563 51.291 50.833 50.343 50.201 50.036 50.086 50.461 48.666 48.098 48.016 46.586 44.658 43.496 41.643 38.771 35.891 34.116 32.988 31.576 30.346 30.468 32.256 27.908 27.703 27.206 26.228 26.311 25.841 26.308 25.433 26.968 29.561 30.303 33.371 -9999 -9999 -9999 -9999 -9999 -9999 -9999 -9999 -9999 -9999 -9999 -9999 -9999 28.758 29.821 28.578 26.001 26.606 27.641 27.911 28.253 28.381 28.348 28.266 28.158 29.058 27.931 27.606 27.468 27.376 27.228 27.283 27.433 27.646 27.883 28.141 28.551 28.948 29.423 29.688 30.021 30.306 30.633 30.933 31.273 31.731 32.216 32.723 33.061 33.373 33.713 34.276 34.298 34.476 34.671 34.881 35.081 35.421 35.776 36.166 36.496 36.581 36.741 37.028 37.556 37.938 38.531 39.211 39.941 40.941 41.818 42.731 43.631 44.708 45.821 46.923 48.043 49.143 50.643 51.243 52.313 53.006 53.096 53.628 53.826 53.908 54.028 54.123 54.256 54.376 54.501 54.666 54.848 55.021 55.228 55.396 55.551 55.686 55.823 55.928 56.028 56.143 56.248 56.348 56.468 56.568 56.716 56.828 56.951 57.063 57.201 57.313 57.436 57.546 57.641 57.718 57.803 57.881 57.948 57.993 58.021 58.051 58.026 58.071 58.073 58.068 58.111 58.183 58.223 58.266 58.296 58.333 58.326 58.353 58.376 58.378 58.396 58.388 58.391 58.426 58.436 58.526 58.586 58.681 58.753 58.801 58.848 58.853 58.863 58.868 58.838 58.836 58.846 58.846 58.863 58.848 58.858 58.871 58.841 58.831 58.821 58.813 58.801 58.811 58.773 58.751 58.753 58.781 58.796 58.843 58.886 58.923 58.948 58.976 58.981 59.026 59.048 59.093 59.153 59.223 59.263 59.328 59.426 59.493 59.588 59.666 59.733 59.793 59.863 59.918 59.973 60.011 60.031 60.026 60.028 60.026 60.001 59.968 59.901 59.818 59.748 59.688 59.666 59.656 59.633 59.601 59.596 59.581 59.526 59.491 59.483 59.483 59.523 59.568 59.603 59.658 59.736 59.806 59.921 60.041 60.111 60.148 60.183 60.188 60.181 60.158 60.131 60.093 60.071 60.066 60.068 60.048 60.038 60.013 60.011 60.028 60.008 60.118 60.371 60.508 60.793 60.951 61.126 61.318 61.543 61.791 62.061 62.348 62.641 62.921 63.206 63.473 63.806 64.091 64.376 64.621 64.843 65.053 65.261 65.463 65.636 65.796 65.961 66.053 66.148 66.216 66.266 66.343 66.423 66.513 66.643 66.761 66.888 67.016 67.181 67.356 67.543 67.721 67.866 68.038 68.233 68.373 68.498 68.626 68.746 68.886 69.033 69.123 69.248 69.343 69.441 69.531 69.651 69.786 69.878 69.991 70.093 70.146 70.208 70.326 70.428 70.516 70.553 70.616 70.666 70.733 70.801 70.878 70.963 71.033 71.056 71.096 71.163 71.206 71.296 71.351 71.396 71.456 71.511 71.548 71.571 71.611 71.688 71.733 71.736 71.793 71.823 71.831 71.808 71.838 71.856 71.873 71.871 71.906 71.921 71.981 71.978 71.986 71.973 71.978 72.018 72.068 72.116 72.143 72.168 72.213 72.221 72.248 72.288 72.346 72.408 72.468 72.508 72.543 72.581 72.661 72.701 72.721 72.738 72.736 72.731 72.776
64.436 57.531 57.093 56.823 57.088 57.373 57.021 57.191 56.823 56.621 59.966 61.073 58.541 57.606 56.058 55.876 55.881 55.803 55.701 57.326 56.913 55.618 55.811 57.441 56.841 55.658 55.348 55.213 55.313 54.958 55.683 53.451 52.966 51.956 51.126 50.796 50.626 50.128 50.016 48.716 49.623 51.493 51.611 51.193 50.691 50.491 49.888 49.483 49.841 50.623 49.758 45.996 45.453 46.091 49.843 42.933 36.341 34.601 33.333 31.853 30.851 29.391 28.218 27.998 27.853 27.636 27.001 28.936 25.438 25.536 26.031 27.168 28.576 29.758 -9999 -9999 -9999 -9999 -9999 -9999 -9999 -9999 -9999 -9999 -9999 -9999 -9999 -9999 30.381 26.483 25.976 26.148 26.816 27.508 27.928 28.218 28.321 28.296 28.201 28.136 27.978 27.711 27.551 27.386 27.281 27.221 27.361 27.646 28.038 27.973 28.296 28.713 29.133 29.598 29.823 30.126 30.406 30.721 31.038 31.416 31.911 32.271 32.688 33.061 33.371 33.778 34.136 34.271 34.408 34.696 34.948 35.428 35.651 35.998 36.331 36.536 36.658 36.891 37.261 38.776 38.936 38.788 39.501 40.253 41.106 42.006 42.951 43.963 44.973 46.136 47.156 48.103 49.171 50.416 51.376 52.271 52.833 53.111 53.728 53.891 53.951 54.078 54.176 54.306 54.428 54.573 54.751 54.926 55.108 55.273 55.446 55.596 55.693 55.846 55.951 56.063 56.176 56.273 56.381 56.483 56.593 56.751 56.896 57.018 57.151 57.251 57.381 57.503 57.606 57.713 57.823 57.933 58.006 58.048 58.086 58.121 58.123 58.116 58.146 58.158 58.156 58.191 58.251 58.273 58.326 58.356 58.376 58.391 58.413 58.416 58.431 58.456 58.433 58.463 58.506 58.526 58.598 58.673 58.721 58.823 58.863 58.913 58.921 58.941 58.946 58.938 58.963 58.948 58.958 58.988 58.986 59.003 58.976 59.001 58.993 58.973 58.956 58.941 58.946 58.926 58.933 58.941 58.978 58.988 59.033 59.073 59.093 59.128 59.131 59.138 59.211 59.211 59.258 59.298 59.346 59.386 59.453 59.516 59.596 59.683 59.766 59.856 59.921 59.961 60.021 60.078 60.103 60.101 60.133 60.136 60.131 60.091 60.056 60.011 59.953 59.873 59.848 59.806 59.758 59.746 59.716 59.688 59.693 59.671 59.656 59.623 59.621 59.618 59.623 59.656 59.723 59.778 59.903 60.031 60.126 60.218 60.258 60.306 60.306 60.321 60.306 60.266 60.218 60.198 60.146 60.106 60.081 60.033 59.998 60.003 60.061 60.056 60.073 60.293 60.443 60.703 60.841 61.016 61.221 61.406 61.651 61.896 62.178 62.466 62.728 63.011 63.333 63.623 63.896 64.211 64.468 64.696 64.928 65.138 65.328 65.511 65.696 65.858 65.968 66.061 66.141 66.223 66.311 66.403 66.516 66.636 66.758 66.886 67.011 67.178 67.326 67.503 67.663 67.843 68.021 68.171 68.291 68.423 68.548 68.678 68.838 68.948 69.071 69.173 69.288 69.361 69.473 69.593 69.736 69.831 69.933 69.996 70.046 70.156 70.291 70.401 70.448 70.501 70.563 70.583 70.653 70.746 70.836 70.903 70.981 71.013 71.058 71.121 71.196 71.276 71.303 71.373 71.421 71.453 71.493 71.546 71.578 71.651 71.676 71.693 71.736 71.783 71.791 71.801 71.811 71.811 71.821 71.866 71.886 71.928 71.941 71.946 71.946 71.923 71.946 71.993 72.048 72.086 72.143 72.156 72.186 72.223 72.241 72.303 72.361 72.398 72.466 72.523 72.548 72.561 72.646 72.693 72.726 72.741 72.728 72.753 72.813
59.991 58.378 58.408 57.873 57.703 57.911 58.166 58.828 58.453 60.243 63.081 63.041 60.556 57.101 56.538 56.346 56.431 56.418 57.728 59.006 58.943 55.901 56.408 57.703 56.061 56.166 58.161 57.081 57.708 59.601 56.308 54.161 52.943 51.823 51.391 51.053 50.841 50.343 49.776 49.008 48.801 51.003 52.483 50.728 50.263 50.423 49.683 48.336 48.618 50.858 49.401 45.668 45.556 50.246 49.246 41.893 36.416 34.721 33.291 31.808 30.501 29.441 28.453 28.508 27.891 29.091 32.218 26.426 28.063 24.831 28.781 27.986 -9999 -9999 -9999 -9999 -9999 -9999 -9999 -9999 -9999 -9999 -9999 -9999 -9999 32.918 31.781 32.993 34.758 30.071 25.913 29.051 27.111 27.728 28.071 28.173 28.206 28.246 28.126 27.983 27.811 27.681 27.488 27.356 27.278 27.201 27.371 27.553 28.008 28.556 28.486 28.856 29.313 29.593 29.926 30.236 30.508 30.788 31.161 31.546 32.106 32.401 32.846 33.136 33.431 33.816 34.131 34.276 34.443 34.781 34.983 35.778 35.968 36.148 36.423 36.588 36.796 37.111 37.478 38.611 38.928 39.158 39.778 40.463 41.271 42.236 43.268 44.246 45.263 46.356 47.328 48.168 49.223 50.408 51.448 52.348 52.823 53.226 53.821 53.928 54.021 54.121 54.218 54.358 54.478 54.628 54.776 54.981 55.166 55.316 55.483 55.601 55.721 55.856 55.956 56.063 56.186 56.281 56.403 56.536 56.616 56.773 56.943 57.076 57.211 57.338 57.466 57.566 57.681 57.801 57.918 58.038 58.111 58.168 58.193 58.228 58.231 58.213 58.223 58.253 58.278 58.291 58.303 58.353 58.386 58.391 58.418 58.451 58.428 58.461 58.488 58.521 58.528 58.558 58.576 58.596 58.671 58.736 58.821 58.871 58.908 58.953 58.983 59.008 59.041 59.026 59.041 59.046 59.083 59.106 59.108 59.118 59.101 59.118 59.131 59.116 59.111 59.098 59.091 59.086 59.098 59.108 59.121 59.156 59.188 59.238 59.276 59.308 59.321 59.323 59.328 59.371 59.381 59.436 59.473 59.526 59.558 59.631 59.716 59.796 59.868 59.958 60.016 60.086 60.091 60.151 60.171 60.211 60.223 60.206 60.191 60.173 60.138 60.098 60.048 59.998 59.958 59.928 59.888 59.861 59.823 59.811 59.803 59.796 59.783 59.758 59.728 59.723 59.713 59.733 59.786 59.853 59.963 60.046 60.188 60.276 60.318 60.396 60.411 60.443 60.411 60.396 60.333 60.301 60.251 60.191 60.158 60.108 60.071 60.026 60.068 60.116 60.096 60.198 60.433 60.593 60.741 60.911 61.123 61.293 61.516 61.746 61.998 62.276 62.563 62.813 63.121 63.426 63.738 64.026 64.293 64.531 64.786 64.998 65.196 65.383 65.606 65.748 65.876 65.953 66.083 66.178 66.278 66.383 66.496 66.621 66.741 66.841 66.993 67.148 67.311 67.466 67.616 67.811 67.936 68.073 68.213 68.343 68.438 68.608 68.771 68.858 68.973 69.068 69.176 69.266 69.416 69.551 69.663 69.766 69.878 69.938 69.993 70.111 70.218 70.333 70.383 70.438 70.498 70.536 70.611 70.708 70.786 70.861 70.926 70.973 71.021 71.103 71.166 71.213 71.276 71.321 71.368 71.413 71.463 71.503 71.543 71.621 71.648 71.651 71.701 71.723 71.728 71.753 71.776 71.798 71.811 71.823 71.838 71.906 71.923 71.943 71.923 71.918 71.916 71.948 71.991 72.051 72.076 72.136 72.141 72.198 72.246 72.318 72.381 72.396 72.461 72.488 72.526 72.568 72.626 72.663 72.711 72.738 72.733 72.776 72.853
59.656 59.608 59.696 58.971 58.746 59.946 59.521 59.651 59.501 60.226 66.296 64.163 64.901 60.603 57.851 60.026 58.728 57.428 58.263 59.256 57.898 56.808 56.481 56.778 56.498 56.698 57.878 57.833 59.318 58.783 56.168 53.738 52.651 53.471 52.691 51.561 51.043 50.548 49.641 49.076 48.301 51.136 53.038 52.883 49.816 53.193 47.456 47.116 47.076 48.288 46.523 44.721 43.996 49.318 48.776 40.156 35.961 34.391 32.963 31.683 30.436 29.111 28.473 28.198 27.958 28.171 35.973 35.141 31.253 31.323 32.538 26.328 -9999 -9999 -9999 -9999 -9999 -9999 -9999 -9999 -9999 -9999 -9999 -9999 33.858 35.098 32.938 32.018 35.036 28.331 27.498 28.896 27.853 28.151 28.328 28.193 28.081 27.986 27.981 27.913 27.751 27.593 27.418 27.346 27.246 27.268 27.421 27.658 27.986 28.296 28.636 29.078 29.433 29.731 30.041 30.346 30.611 30.963 31.316 31.753 32.231 32.623 32.976 33.216 33.511 33.903 34.116 34.291 34.491 34.853 35.101 35.416 35.838 36.201 36.473 36.716 37.058 37.386 37.816 38.316 38.846 39.431 40.041 40.731 41.546 42.603 44.431 44.836 45.511 46.438 47.391 48.383 49.396 50.461 51.518 52.456 52.923 53.518 53.916 53.986 54.081 54.176 54.298 54.413 54.528 54.686 54.866 55.033 55.211 55.338 55.493 55.628 55.758 55.866 55.958 56.076 56.216 56.311 56.416 56.558 56.686 56.828 56.986 57.141 57.283 57.421 57.548 57.663 57.776 57.893 58.026 58.136 58.218 58.288 58.328 58.343 58.341 58.333 58.353 58.356 58.371 58.386 58.396 58.421 58.431 58.463 58.471 58.491 58.498 58.531 58.566 58.573 58.623 58.648 58.696 58.733 58.766 58.838 58.913 58.961 58.981 59.036 59.046 59.078 59.121 59.126 59.166 59.158 59.191 59.233 59.226 59.241 59.248 59.228 59.243 59.236 59.248 59.241 59.221 59.228 59.233 59.266 59.296 59.293 59.338 59.361 59.446 59.456 59.468 59.478 59.458 59.506 59.536 59.548 59.593 59.633 59.668 59.743 59.816 59.886 59.973 60.033 60.093 60.131 60.146 60.211 60.241 60.266 60.293 60.283 60.271 60.251 60.203 60.181 60.113 60.096 60.076 60.016 59.986 59.961 59.933 59.921 59.906 59.913 59.878 59.861 59.838 59.801 59.811 59.833 59.886 59.966 60.056 60.141 60.221 60.288 60.378 60.451 60.521 60.543 60.531 60.521 60.468 60.403 60.366 60.318 60.286 60.198 60.143 60.091 60.113 60.156 60.148 60.158 60.366 60.488 60.696 60.823 61.013 61.173 61.358 61.608 61.833 62.103 62.398 62.648 62.941 63.246 63.528 63.816 64.103 64.358 64.606 64.846 65.076 65.261 65.461 65.608 65.746 65.886 66.003 66.118 66.218 66.348 66.461 66.586 66.703 66.821 66.953 67.121 67.248 67.426 67.588 67.751 67.876 68.003 68.118 68.223 68.378 68.531 68.676 68.763 68.881 68.963 69.056 69.176 69.343 69.466 69.583 69.701 69.783 69.851 69.946 70.081 70.191 70.238 70.296 70.363 70.421 70.473 70.528 70.633 70.733 70.811 70.841 70.903 70.973 71.056 71.128 71.178 71.231 71.306 71.361 71.386 71.428 71.471 71.516 71.533 71.578 71.631 71.678 71.678 71.696 71.721 71.733 71.746 71.776 71.776 71.806 71.868 71.888 71.876 71.878 71.891 71.901 71.931 71.978 72.023 72.048 72.091 72.143 72.171 72.223 72.296 72.373 72.413 72.498 72.503 72.518 72.566 72.618 72.641 72.708 72.756 72.771 72.823 72.893
62.158 61.223 60.306 60.466 61.033 61.791 60.211 61.573 62.863 62.523 66.586 64.748 63.471 61.678 62.561 63.876 60.431 58.758 58.758 59.748 58.778 58.243 57.971 57.848 57.508 56.871 56.756 56.533 56.856 56.078 54.706 53.436 52.643 52.378 52.451 51.966 51.306 50.388 49.541 48.886 48.076 49.718 49.911 47.861 50.478 50.306 45.463 45.031 45.801 46.283 45.608 44.056 43.048 44.131 42.463 36.653 35.141 33.871 32.618 31.253 29.931 28.898 28.208 28.048 28.023 27.838 33.666 35.561 36.051 26.803 26.486 -9999 -9999 -9999 -9999 -9999 -9999 -9999 -9999 -9999 -9999 -9999 -9999 31.498 31.966 31.888 32.873 32.278 30.856 32.186 26.246 26.806 27.571 28.496 28.571 28.366 28.476 28.143 27.953 27.796 27.733 27.701 27.453 27.316 27.273 27.396 27.556 27.798 28.111 28.521 29.188 29.226 29.596 29.838 30.116 30.398 30.701 31.113 31.561 32.071 32.568 32.736 33.038 33.291 33.541 33.883 34.148 34.406 34.648 34.956 35.183 35.538 35.988 36.281 36.626 37.071 37.213 37.646 38.156 38.693 39.271 39.741 40.321 41.018 41.858 42.931 44.651 45.116 45.588 46.546 47.586 48.703 49.716 50.783 51.706 52.551 53.068 53.671 53.968 54.033 54.146 54.273 54.366 54.473 54.593 54.736 54.901 55.073 55.216 55.376 55.523 55.641 55.798 55.888 55.998 56.106 56.221 56.333 56.453 56.586 56.733 56.893 57.063 57.218 57.366 57.503 57.621 57.746 57.866 57.988 58.088 58.218 58.303 58.378 58.398 58.441 58.441 58.456 58.456 58.466 58.486 58.493 58.508 58.518 58.531 58.501 58.533 58.556 58.586 58.611 58.638 58.681 58.706 58.761 58.818 58.868 58.906 58.961 59.038 59.073 59.108 59.131 59.133 59.146 59.208 59.243 59.273 59.293 59.306 59.316 59.323 59.338 59.366 59.363 59.363 59.351 59.371 59.353 59.361 59.341 59.381 59.368 59.401 59.458 59.476 59.498 59.553 59.583 59.608 59.606 59.638 59.646 59.671 59.693 59.718 59.731 59.786 59.848 59.893 59.991 60.046 60.106 60.136 60.188 60.208 60.248 60.278 60.306 60.321 60.338 60.308 60.296 60.278 60.246 60.193 60.166 60.151 60.096 60.038 60.053 60.008 60.028 60.018 60.011 59.981 59.981 59.961 59.963 59.941 59.943 60.003 60.076 60.153 60.236 60.298 60.386 60.453 60.523 60.603 60.641 60.653 60.648 60.598 60.581 60.506 60.456 60.431 60.356 60.263 60.181 60.163 60.173 60.206 60.221 60.311 60.463 60.593 60.718 60.911 61.053 61.226 61.426 61.676 61.968 62.228 62.493 62.763 63.063 63.363 63.643 63.936 64.201 64.453 64.696 64.936 65.153 65.348 65.498 65.648 65.788 65.903 66.053 66.181 66.293 66.398 66.526 66.661 66.786 66.906 67.051 67.191 67.378 67.523 67.678 67.791 67.921 68.006 68.146 68.293 68.456 68.566 68.678 68.781 68.851 68.981 69.096 69.238 69.366 69.478 69.616 69.713 69.791 69.903 70.026 70.126 70.186 70.253 70.301 70.361 70.403 70.483 70.573 70.648 70.723 70.758 70.821 70.911 70.996 71.071 71.131 71.216 71.281 71.303 71.331 71.376 71.438 71.473 71.518 71.553 71.566 71.616 71.638 71.646 71.671 71.668 71.686 71.718 71.756 71.786 71.813 71.848 71.841 71.846 71.853 71.881 71.931 71.971 72.006 72.036 72.088 72.118 72.161 72.213 72.276 72.351 72.416 72.446 72.481 72.531 72.556 72.598 72.643 72.691 72.723 72.773 72.871 72.918
61.793 61.126 61.086 61.988 62.016 63.423 62.923 61.343 65.281 66.001 65.121 60.808 61.266 63.971 62.606 60.933 60.188 60.978 63.436 63.221 61.506 58.931 58.971 58.486 58.316 58.336 57.471 57.108 56.733 55.888 54.653 53.511 52.841 52.736 52.461 52.183 51.316 50.221 49.376 48.736 47.918 48.066 47.876 46.783 45.823 46.151 44.016 43.101 43.091 41.871 42.781 39.483 39.471 37.308 36.823 35.361 34.366 33.403 32.146 30.703 29.548 28.681 28.223 28.013 28.006 27.866 26.953 28.716 32.766 31.893 24.268 24.608 -9999 -9999 -9999 -9999 -9999 -9999 -9999 -9999 -9999 -9999 -9999 -9999 29.521 30.456 30.451 28.491 27.916 28.631 28.618 26.986 27.818 28.526 28.618 28.438 28.473 28.213 27.983 27.758 27.638 27.613 27.458 27.273 27.331 27.461 27.661 27.931 28.393 28.613 28.908 29.368 29.668 29.971 30.253 30.483 30.831 31.276 31.676 32.423 32.826 32.858 33.113 33.363 33.656 33.983 34.251 34.521 34.753 35.083 35.326 35.693 36.086 36.426 36.741 37.271 37.388 37.838 38.343 38.918 39.536 39.998 40.883 41.386 42.131 42.961 43.953 44.806 45.806 46.806 47.851 49.058 50.048 51.058 51.958 52.671 53.198 53.861 54.028 54.101 54.226 54.343 54.468 54.576 54.686 54.786 54.951 55.101 55.273 55.426 55.561 55.688 55.806 55.898 55.993 56.126 56.253 56.348 56.491 56.608 56.781 56.953 57.118 57.303 57.448 57.571 57.718 57.841 57.981 58.086 58.213 58.301 58.366 58.481 58.523 58.546 58.581 58.588 58.583 58.596 58.621 58.638 58.623 58.611 58.623 58.631 58.641 58.646 58.666 58.706 58.743 58.788 58.848 58.888 58.963 58.988 59.043 59.096 59.153 59.208 59.221 59.256 59.281 59.296 59.336 59.341 59.368 59.383 59.428 59.438 59.468 59.458 59.483 59.473 59.488 59.473 59.463 59.478 59.486 59.488 59.498 59.513 59.521 59.553 59.573 59.638 59.656 59.686 59.728 59.761 59.756 59.778 59.803 59.833 59.828 59.843 59.881 59.941 59.996 60.066 60.131 60.181 60.206 60.226 60.238 60.296 60.343 60.368 60.366 60.381 60.376 60.341 60.336 60.341 60.283 60.233 60.241 60.201 60.163 60.123 60.093 60.086 60.083 60.103 60.101 60.091 60.048 60.086 60.073 60.078 60.118 60.203 60.271 60.331 60.401 60.458 60.546 60.628 60.666 60.711 60.743 60.748 60.736 60.698 60.656 60.621 60.578 60.493 60.396 60.326 60.238 60.211 60.256 60.303 60.311 60.418 60.538 60.678 60.823 60.928 61.076 61.291 61.531 61.786 62.061 62.298 62.601 62.903 63.201 63.491 63.773 64.046 64.303 64.548 64.793 65.013 65.226 65.368 65.548 65.691 65.833 65.976 66.083 66.213 66.333 66.481 66.601 66.723 66.863 66.986 67.163 67.291 67.458 67.576 67.708 67.823 67.921 68.073 68.218 68.346 68.461 68.576 68.653 68.776 68.901 69.011 69.136 69.291 69.388 69.511 69.581 69.693 69.838 69.963 70.066 70.123 70.186 70.223 70.291 70.356 70.451 70.543 70.606 70.641 70.661 70.753 70.843 70.943 70.988 71.078 71.156 71.201 71.253 71.303 71.348 71.416 71.436 71.481 71.511 71.551 71.543 71.611 71.606 71.613 71.641 71.651 71.666 71.701 71.738 71.776 71.816 71.798 71.791 71.818 71.863 71.911 71.973 71.983 72.013 72.046 72.071 72.131 72.218 72.278 72.348 72.396 72.421 72.463 72.496 72.528 72.581 72.626 72.663 72.698 72.756 72.866 72.931
61.583 62.918 66.811 67.006 65.271 62.433 62.686 60.751 64.528 61.053 61.823 60.156 60.001 61.521 59.718 59.578 59.483 59.298 59.723 63.303 65.006 59.338 59.231 58.816 58.478 58.203 57.931 57.581 57.168 56.123 54.846 54.583 53.068 52.923 52.071 51.538 50.943 50.148 49.311 49.231 47.708 47.821 47.306 46.118 45.046 43.978 43.066 42.178 41.238 39.978 42.241 37.351 36.478 35.978 35.448 34.608 33.846 33.003 31.948 30.728 29.621 28.706 28.206 28.138 28.046 27.956 27.111 31.673 32.416 31.071 24.503 -9999 -9999 -9999 -9999 -9999 -9999 -9999 -9999 -9999 -9999 -9999 -9999 -9999 31.113 30.386 29.163 34.148 29.001 32.493 27.301 27.243 28.113 28.668 28.598 28.421 28.311 28.188 27.968 27.708 27.613 27.511 27.446 27.328 27.463 27.548 27.751 28.016 28.371 28.731 29.036 29.491 30.361 30.101 30.361 30.663 30.993 31.408 31.798 32.176 32.578 32.903 33.218 33.521 33.888 34.228 34.408 34.683 34.906 35.241 35.496 35.813 36.226 36.526 36.836 37.161 37.486 37.943 38.446 39.088 39.736 40.288 41.416 41.671 42.323 43.058 43.931 44.928 46.556 47.176 48.293 49.366 50.263 51.151 52.166 52.836 53.246 53.993 54.068 54.156 54.303 54.416 54.536 54.633 54.743 54.881 55.026 55.191 55.331 55.448 55.588 55.703 55.826 55.933 56.046 56.166 56.286 56.408 56.528 56.673 56.856 57.021 57.181 57.341 57.521 57.641 57.793 57.908 58.043 58.151 58.286 58.401 58.486 58.568 58.633 58.663 58.706 58.721 58.726 58.741 58.733 58.746 58.733 58.736 58.743 58.751 58.746 58.758 58.768 58.806 58.866 58.901 58.953 59.023 59.081 59.126 59.188 59.256 59.308 59.331 59.371 59.408 59.428 59.473 59.478 59.518 59.516 59.516 59.536 59.556 59.581 59.568 59.598 59.581 59.583 59.581 59.598 59.601 59.606 59.596 59.613 59.616 59.638 59.676 59.681 59.711 59.733 59.766 59.808 59.846 59.871 59.901 59.918 59.926 59.973 59.983 60.006 60.046 60.091 60.143 60.183 60.226 60.251 60.248 60.268 60.321 60.368 60.388 60.436 60.421 60.436 60.423 60.401 60.371 60.353 60.336 60.301 60.273 60.271 60.221 60.191 60.178 60.131 60.158 60.158 60.166 60.168 60.201 60.193 60.213 60.233 60.298 60.373 60.436 60.483 60.558 60.653 60.716 60.733 60.781 60.828 60.826 60.833 60.838 60.773 60.763 60.696 60.616 60.528 60.451 60.376 60.323 60.311 60.343 60.358 60.331 60.466 60.603 60.743 60.851 60.978 61.191 61.388 61.643 61.886 62.136 62.436 62.766 63.043 63.341 63.613 63.888 64.151 64.416 64.641 64.881 65.086 65.251 65.433 65.611 65.748 65.876 65.993 66.123 66.273 66.401 66.528 66.641 66.798 66.943 67.103 67.233 67.386 67.501 67.613 67.758 67.871 67.983 68.118 68.266 68.386 68.458 68.558 68.681 68.796 68.921 69.043 69.166 69.293 69.383 69.478 69.603 69.748 69.881 69.963 70.033 70.103 70.158 70.236 70.326 70.386 70.478 70.551 70.571 70.608 70.701 70.783 70.868 70.953 71.021 71.093 71.136 71.211 71.266 71.296 71.366 71.401 71.456 71.491 71.513 71.541 71.548 71.556 71.596 71.598 71.586 71.618 71.671 71.688 71.733 71.738 71.761 71.751 71.796 71.828 71.881 71.941 71.963 71.993 72.043 72.073 72.126 72.183 72.251 72.291 72.358 72.383 72.431 72.466 72.503 72.563 72.611 72.651 72.663 72.736 72.838 72.918
61.598 61.448 65.363 63.196 61.621 60.896 60.793 60.668 60.703 60.436 60.298 60.146 60.008 59.913 59.741 59.603 59.486 59.303 59.198 59.961 59.013 58.981 58.988 59.108 58.773 58.343 58.073 57.708 58.258 56.993 55.701 55.918 53.628 53.591 52.323 51.546 50.846 50.198 49.091 48.306 47.683 47.078 46.828 45.591 44.371 43.331 42.536 41.751 40.838 39.808 38.928 37.243 36.001 35.066 34.278 33.636 33.221 32.701 32.026 31.301 32.193 29.506 28.596 28.153 28.233 28.018 27.211 31.286 32.223 33.001 26.371 24.503 -9999 -9999 -9999 -9999 -9999 -9999 -9999 -9999 -9999 -9999 -9999 -9999 34.633 30.401 30.176 28.718 25.458 26.161 26.601 27.416 28.386 28.721 28.513 28.371 28.278 28.136 27.903 27.648 27.513 27.386 27.261 27.248 27.456 27.641 27.816 28.118 28.403 28.788 29.188 29.573 29.983 30.163 30.451 30.773 31.121 31.496 32.168 32.333 32.668 33.038 33.348 33.728 34.283 34.348 34.493 34.761 35.071 35.353 35.596 36.013 36.331 36.623 36.916 37.261 37.638 38.073 38.603 39.156 39.803 41.041 41.083 41.726 42.378 43.088 43.981 45.126 46.228 47.261 48.671 50.018 50.458 51.386 52.436 53.001 53.468 54.061 54.123 54.196 54.371 54.478 54.593 54.666 54.796 54.938 55.078 55.246 55.408 55.533 55.661 55.746 55.851 55.948 56.066 56.186 56.291 56.456 56.588 56.761 56.913 57.091 57.283 57.433 57.608 57.723 57.848 58.013 58.118 58.228 58.348 58.476 58.553 58.666 58.746 58.798 58.828 58.856 58.856 58.876 58.871 58.883 58.881 58.883 58.856 58.861 58.868 58.861 58.901 58.948 58.991 59.046 59.123 59.161 59.211 59.281 59.326 59.391 59.451 59.496 59.538 59.548 59.601 59.601 59.641 59.641 59.648 59.658 59.686 59.681 59.686 59.668 59.681 59.671 59.683 59.703 59.706 59.706 59.681 59.676 59.711 59.716 59.736 59.771 59.781 59.793 59.818 59.853 59.881 59.923 59.948 59.978 60.011 60.023 60.058 60.081 60.116 60.148 60.193 60.226 60.286 60.286 60.301 60.323 60.338 60.371 60.426 60.448 60.463 60.471 60.476 60.466 60.468 60.461 60.466 60.438 60.443 60.403 60.358 60.323 60.263 60.256 60.213 60.218 60.208 60.246 60.263 60.278 60.293 60.301 60.346 60.378 60.453 60.488 60.531 60.603 60.678 60.776 60.848 60.891 60.911 60.921 60.913 60.916 60.913 60.893 60.846 60.736 60.636 60.521 60.471 60.423 60.406 60.423 60.408 60.348 60.386 60.491 60.683 60.781 60.908 61.083 61.286 61.511 61.728 61.973 62.283 62.598 62.898 63.181 63.473 63.756 64.013 64.266 64.521 64.771 64.986 65.166 65.331 65.476 65.621 65.753 65.896 66.026 66.178 66.303 66.423 66.551 66.731 66.871 67.031 67.178 67.298 67.416 67.543 67.671 67.788 67.903 68.036 68.146 68.251 68.346 68.458 68.566 68.686 68.826 68.953 69.063 69.191 69.273 69.408 69.523 69.666 69.786 69.868 69.946 70.038 70.091 70.171 70.256 70.311 70.398 70.456 70.486 70.551 70.651 70.731 70.786 70.886 70.966 71.038 71.083 71.148 71.211 71.273 71.326 71.361 71.416 71.456 71.488 71.498 71.533 71.541 71.531 71.556 71.541 71.573 71.633 71.638 71.668 71.676 71.693 71.701 71.776 71.828 71.881 71.911 71.948 71.961 72.003 72.041 72.098 72.173 72.246 72.281 72.336 72.351 72.408 72.471 72.501 72.533 72.576 72.603 72.653 72.746 72.811 72.893
61.376 61.281 61.206 61.116 61.046 60.971 60.873 60.748 60.606 60.488 60.358 60.226 60.088 59.948 59.826 59.658 59.533 59.376 59.241 59.106 59.018 58.941 58.903 58.928 58.906 58.523 58.136 57.946 58.618 56.918 56.981 55.931 53.673 52.651 52.273 51.501 50.853 50.173 48.933 49.373 49.218 46.423 46.106 45.036 43.936 42.986 42.308 41.668 40.668 39.561 38.426 37.276 35.931 34.743 33.623 33.028 32.673 32.356 32.036 31.551 32.323 30.296 29.073 28.301 28.246 28.103 27.458 32.831 25.903 28.806 28.078 25.291 -9999 -9999 -9999 -9999 -9999 -9999 -9999 -9999 -9999 -9999 -9999 -9999 30.403 30.958 33.761 27.568 25.203 25.936 26.701 27.808 28.563 28.711 28.478 28.391 28.418 28.111 27.833 27.591 27.511 27.336 27.188 27.358 27.431 27.641 27.871 28.216 28.553 28.898 29.291 29.726 30.033 30.288 30.531 30.871 31.516 31.753 33.191 32.498 32.766 33.163 33.558 33.976 34.156 34.298 34.608 34.886 35.266 35.701 35.706 36.031 36.398 36.703 37.021 37.348 37.723 38.818 38.723 39.231 39.761 40.426 41.016 41.728 42.563 43.106 44.056 45.286 46.378 47.486 51.036 51.131 50.663 51.638 52.546 53.106 53.581 54.081 54.153 54.283 54.393 54.506 54.623 54.728 54.858 54.968 55.123 55.286 55.451 55.573 55.691 55.816 55.898 55.991 56.091 56.221 56.353 56.506 56.648 56.841 57.003 57.176 57.346 57.521 57.671 57.818 57.976 58.088 58.203 58.331 58.433 58.533 58.633 58.741 58.838 58.901 58.936 58.998 59.001 59.028 59.021 59.021 59.018 59.028 58.996 58.981 58.991 59.013 59.048 59.091 59.141 59.216 59.261 59.323 59.378 59.391 59.476 59.526 59.601 59.633 59.691 59.736 59.776 59.788 59.813 59.778 59.791 59.808 59.823 59.808 59.821 59.806 59.788 59.778 59.756 59.768 59.768 59.781 59.783 59.781 59.813 59.798 59.806 59.821 59.848 59.873 59.906 59.946 59.948 59.988 60.048 60.096 60.131 60.143 60.161 60.176 60.216 60.236 60.273 60.316 60.351 60.388 60.406 60.383 60.411 60.456 60.478 60.521 60.536 60.516 60.536 60.531 60.541 60.553 60.543 60.548 60.543 60.518 60.483 60.456 60.421 60.358 60.311 60.308 60.328 60.318 60.336 60.348 60.358 60.366 60.386 60.441 60.511 60.566 60.626 60.676 60.703 60.796 60.876 60.921 60.973 60.981 60.971 60.958 60.966 60.961 60.911 60.856 60.756 60.648 60.561 60.516 60.471 60.461 60.423 60.398 60.323 60.406 60.641 60.741 60.866 61.013 61.181 61.373 61.601 61.868 62.146 62.448 62.756 63.048 63.318 63.593 63.878 64.138 64.381 64.648 64.881 65.076 65.238 65.388 65.516 65.666 65.808 65.941 66.078 66.208 66.323 66.506 66.653 66.798 66.933 67.076 67.213 67.336 67.453 67.586 67.698 67.823 67.951 68.048 68.156 68.258 68.351 68.448 68.566 68.723 68.846 69.001 69.113 69.188 69.321 69.443 69.593 69.698 69.781 69.876 69.946 70.028 70.106 70.186 70.258 70.346 70.373 70.416 70.498 70.581 70.673 70.768 70.843 70.926 70.976 71.058 71.113 71.166 71.236 71.278 71.328 71.361 71.431 71.456 71.461 71.476 71.483 71.488 71.508 71.508 71.543 71.601 71.621 71.611 71.616 71.623 71.678 71.731 71.788 71.826 71.876 71.916 71.941 71.976 72.023 72.086 72.176 72.231 72.271 72.318 72.341 72.398 72.436 72.458 72.513 72.558 72.571 72.631 72.713 72.791 72.878
61.356 61.313 61.246 61.163 61.106 61.046 60.911 60.796 60.671 60.548 60.413 60.271 60.141 60.026 59.908 59.753 59.621 59.466 59.306 59.178 59.081 58.951 58.906 58.853 58.791 58.716 58.143 57.553 57.116 56.598 57.158 56.261 55.116 53.633 52.713 51.728 50.901 50.111 48.846 47.521 46.701 45.993 45.523 44.921 43.823 42.696 42.096 41.243 40.258 39.138 37.981 37.058 35.998 34.763 33.546 32.813 32.416 32.191 32.033 32.108 31.743 30.893 29.086 28.358 28.313 28.173 27.728 26.776 25.913 25.661 27.878 27.531 -9999 -9999 -9999 -9999 -9999 -9999 -9999 -9999 -9999 -9999 -9999 31.788 29.273 30.146 29.058 29.598 25.003 25.946 26.926 28.071 28.806 28.683 28.441 28.338 28.311 28.071 27.766 27.586 27.426 27.286 27.191 27.366 27.463 27.706 27.986 28.266 28.626 29.053 29.456 29.856 30.176 30.423 30.661 30.948 31.608 32.266 32.238 32.531 32.911 33.298 33.758 34.163 34.308 34.341 34.713 34.981 35.291 35.583 35.796 36.103 36.486 36.751 37.113 37.406 37.763 38.363 38.778 39.323 39.813 40.373 40.986 41.741 42.516 43.316 44.326 45.546 46.638 47.591 49.188 50.048 50.831 51.841 52.643 53.136 53.613 54.126 54.201 54.328 54.446 54.546 54.671 54.766 54.906 55.036 55.173 55.318 55.456 55.596 55.701 55.826 55.918 56.043 56.158 56.278 56.441 56.578 56.751 56.933 57.086 57.258 57.438 57.633 57.778 57.931 58.066 58.173 58.301 58.413 58.543 58.616 58.726 58.838 58.943 59.011 59.073 59.131 59.153 59.168 59.166 59.146 59.183 59.173 59.153 59.146 59.131 59.163 59.196 59.241 59.281 59.351 59.436 59.483 59.543 59.561 59.613 59.658 59.718 59.801 59.861 59.876 59.933 59.946 59.943 59.961 59.953 59.966 59.956 59.956 59.946 59.921 59.901 59.873 59.831 59.836 59.826 59.851 59.858 59.856 59.851 59.863 59.896 59.916 59.921 59.946 59.963 60.003 60.021 60.043 60.093 60.153 60.196 60.238 60.253 60.298 60.318 60.338 60.363 60.398 60.421 60.448 60.468 60.481 60.501 60.553 60.553 60.586 60.576 60.586 60.601 60.611 60.613 60.646 60.633 60.651 60.643 60.616 60.623 60.593 60.563 60.468 60.458 60.411 60.408 60.403 60.411 60.426 60.433 60.413 60.451 60.481 60.543 60.583 60.648 60.706 60.763 60.821 60.868 60.951 61.003 61.041 61.038 61.026 61.021 60.993 60.968 60.898 60.846 60.761 60.661 60.573 60.541 60.478 60.476 60.428 60.361 60.388 60.601 60.728 60.848 60.961 61.111 61.291 61.498 61.753 62.056 62.328 62.626 62.898 63.191 63.468 63.741 64.006 64.273 64.543 64.783 64.958 65.151 65.268 65.443 65.583 65.716 65.843 65.978 66.108 66.251 66.396 66.561 66.713 66.866 67.001 67.141 67.261 67.381 67.513 67.631 67.751 67.848 67.966 68.073 68.153 68.246 68.338 68.476 68.623 68.761 68.866 68.988 69.108 69.233 69.373 69.516 69.606 69.693 69.776 69.853 69.923 70.008 70.096 70.188 70.261 70.293 70.346 70.423 70.521 70.626 70.711 70.788 70.878 70.936 70.998 71.053 71.108 71.171 71.223 71.293 71.331 71.371 71.368 71.416 71.448 71.436 71.456 71.453 71.471 71.508 71.538 71.563 71.563 71.568 71.568 71.633 71.671 71.716 71.761 71.833 71.866 71.896 71.936 71.986 72.096 72.161 72.203 72.266 72.303 72.316 72.353 72.406 72.451 72.481 72.503 72.558 72.621 72.716 72.781 72.838
61.403 61.366 61.293 61.231 61.173 61.076 61.006 60.853 60.723 60.603 60.476 60.331 60.231 60.101 59.996 59.873 59.721 59.573 59.406 59.276 59.121 59.011 58.943 58.851 58.856 58.898 58.666 58.626 57.991 61.266 58.066 56.906 55.793 53.638 53.421 52.203 51.308 50.461 49.578 47.623 46.671 45.893 45.251 44.796 43.993 42.611 41.458 40.516 39.471 38.331 37.473 36.563 35.538 34.276 33.351 32.681 32.283 32.138 32.081 31.908 31.756 30.768 28.953 28.396 28.373 28.403 28.083 26.866 25.871 25.148 27.113 26.713 -9999 -9999 -9999 -9999 -9999 -9999 -9999 -9999 -9999 -9999 -9999 32.148 30.051 28.933 28.531 32.673 27.161 26.163 27.283 28.953 28.793 28.651 28.426 28.293 28.146 27.948 27.703 27.546 27.398 27.266 27.226 27.358 27.526 27.738 27.973 28.311 28.653 29.246 29.513 29.951 30.283 30.561 30.821 31.081 31.468 31.996 32.281 32.631 33.016 33.396 33.811 34.131 34.116 34.478 34.778 35.231 35.558 35.678 35.911 36.221 36.551 36.776 37.078 37.433 37.818 38.321 38.836 39.406 39.901 40.446 41.093 41.846 42.646 43.613 44.708 46.008 46.716 48.286 48.876 49.978 51.041 52.056 52.763 53.296 56.133 54.216 54.256 54.381 54.511 54.631 54.726 54.831 54.933 55.063 55.203 55.328 55.453 55.578 55.736 55.838 55.916 56.043 56.168 56.323 56.486 56.666 56.846 57.041 57.223 57.418 57.576 57.756 57.901 58.046 58.173 58.303 58.403 58.516 58.636 58.761 58.848 58.961 59.058 59.121 59.198 59.268 59.296 59.316 59.303 59.313 59.311 59.318 59.308 59.293 59.313 59.321 59.353 59.418 59.458 59.526 59.573 59.641 59.688 59.713 59.751 59.808 59.876 59.946 59.988 60.038 60.058 60.108 60.111 60.108 60.116 60.091 60.091 60.071 60.063 60.033 60.021 59.973 59.936 59.903 59.901 59.888 59.931 59.948 59.938 59.923 59.961 59.961 59.978 60.028 60.038 60.051 60.088 60.106 60.171 60.216 60.243 60.283 60.346 60.368 60.386 60.418 60.431 60.458 60.478 60.516 60.553 60.588 60.608 60.638 60.648 60.656 60.658 60.663 60.656 60.693 60.696 60.723 60.726 60.738 60.736 60.738 60.718 60.691 60.653 60.608 60.566 60.543 60.516 60.506 60.493 60.516 60.503 60.486 60.493 60.513 60.551 60.588 60.648 60.708 60.796 60.836 60.883 60.963 61.038 61.078 61.088 61.056 61.073 61.036 61.001 60.918 60.863 60.791 60.741 60.661 60.593 60.516 60.491 60.468 60.391 60.408 60.523 60.676 60.828 60.938 61.066 61.231 61.423 61.688 61.963 62.231 62.503 62.788 63.053 63.321 63.603 63.878 64.166 64.438 64.646 64.831 65.003 65.173 65.336 65.478 65.623 65.748 65.891 66.023 66.148 66.306 66.448 66.616 66.748 66.918 67.066 67.163 67.286 67.433 67.541 67.658 67.788 67.896 67.963 68.061 68.158 68.273 68.386 68.521 68.653 68.788 68.908 68.988 69.146 69.296 69.421 69.483 69.616 69.681 69.771 69.848 69.916 69.993 70.088 70.148 70.203 70.276 70.361 70.471 70.591 70.668 70.758 70.818 70.888 70.951 71.003 71.058 71.126 71.201 71.248 71.283 71.326 71.351 71.366 71.393 71.393 71.421 71.426 71.421 71.471 71.486 71.508 71.518 71.513 71.531 71.568 71.641 71.676 71.721 71.768 71.788 71.828 71.886 71.968 72.063 72.138 72.188 72.233 72.273 72.308 72.358 72.376 72.423 72.456 72.478 72.523 72.606 72.686 72.766 72.831
61.463 61.433 61.381 61.338 61.248 61.171 61.058 60.928 60.788 60.686 60.578 60.436 60.303 60.193 60.086 59.951 59.828 59.633 59.506 59.336 59.221 59.041 58.981 58.946 58.963 58.781 58.131 57.373 57.993 58.403 59.871 58.101 55.006 54.158 52.983 52.351 51.641 50.816 49.691 47.933 46.853 45.616 45.198 44.781 43.833 42.496 41.131 39.963 38.471 37.626 36.968 37.106 40.003 33.711 32.943 32.493 32.201 31.993 31.901 31.691 32.011 31.533 28.801 28.406 28.366 28.698 28.261 26.833 25.943 25.028 28.068 25.903 28.898 -9999 -9999 -9999 -9999 -9999 -9999 -9999 -9999 -9999 -9999 30.955 30.378 30.871 30.853 27.886 25.786 26.403 27.248 28.313 28.703 28.613 28.393 28.253 28.118 27.901 27.718 27.521 27.393 27.256 27.266 27.388 27.543 28.026 28.046 28.373 28.731 29.201 29.618 29.958 30.293 30.601 30.961 31.251 31.541 31.988 32.323 32.698 33.068 33.446 33.801 34.001 33.996 34.581 34.903 35.323 35.658 35.773 36.063 36.328 36.608 36.843 37.131 37.456 37.916 38.388 38.901 39.476 40.021 40.568 41.243 42.008 42.801 43.831 44.933 46.238 46.841 47.951 48.918 50.093 51.243 52.266 52.908 53.421 54.416 54.218 54.298 54.446 54.543 54.668 54.756 54.891 54.991 55.128 55.251 55.398 55.518 55.646 55.721 55.856 55.928 56.053 56.196 56.353 56.513 56.718 56.943 57.158 57.343 57.538 57.703 57.853 58.031 58.178 58.296 58.433 58.531 58.651 58.753 58.871 58.981 59.081 59.203 59.263 59.326 59.381 59.441 59.478 59.478 59.471 59.476 59.458 59.461 59.468 59.491 59.503 59.538 59.561 59.631 59.686 59.741 59.796 59.836 59.868 59.918 59.981 60.041 60.101 60.158 60.181 60.216 60.241 60.261 60.253 60.251 60.238 60.216 60.193 60.196 60.146 60.106 60.053 60.028 59.966 59.978 59.976 59.983 59.991 59.981 59.971 60.006 60.006 60.028 60.081 60.091 60.113 60.156 60.206 60.236 60.271 60.316 60.353 60.393 60.411 60.428 60.443 60.471 60.501 60.538 60.596 60.628 60.661 60.676 60.711 60.736 60.733 60.718 60.746 60.761 60.766 60.778 60.831 60.836 60.853 60.851 60.858 60.846 60.798 60.788 60.733 60.698 60.648 60.633 60.631 60.596 60.613 60.601 60.581 60.568 60.588 60.598 60.616 60.663 60.716 60.776 60.841 60.896 60.961 61.001 61.098 61.113 61.118 61.088 61.041 61.011 60.948 60.886 60.836 60.751 60.698 60.636 60.558 60.523 60.493 60.433 60.401 60.501 60.608 60.778 60.921 61.038 61.183 61.373 61.606 61.876 62.176 62.406 62.686 62.963 63.236 63.496 63.791 64.056 64.308 64.498 64.723 64.913 65.066 65.218 65.381 65.513 65.636 65.803 65.933 66.083 66.223 66.366 66.531 66.686 66.833 66.963 67.101 67.218 67.336 67.451 67.591 67.718 67.821 67.888 67.973 68.063 68.173 68.306 68.443 68.548 68.676 68.796 68.911 69.058 69.201 69.311 69.416 69.508 69.593 69.668 69.748 69.808 69.888 69.988 70.041 70.108 70.176 70.283 70.421 70.543 70.638 70.708 70.778 70.853 70.913 70.973 71.026 71.106 71.166 71.198 71.246 71.281 71.311 71.316 71.333 71.326 71.361 71.341 71.391 71.423 71.436 71.451 71.451 71.468 71.476 71.536 71.593 71.651 71.683 71.718 71.741 71.783 71.856 71.946 72.023 72.086 72.133 72.183 72.238 72.283 72.313 72.328 72.383 72.398 72.446 72.501 72.586 72.666 72.748 72.806
61.583 61.541 61.458 61.406 61.331 61.248 61.123 61.001 60.876 60.756 60.651 60.511 60.386 60.293 60.156 60.023 59.896 59.696 59.561 59.421 59.271 59.118 59.003 58.986 58.968 58.583 57.936 57.421 56.991 56.433 61.188 58.308 54.398 53.513 53.046 52.506 51.856 51.036 50.171 48.191 46.973 45.533 45.158 45.046 43.931 42.566 40.708 39.131 37.553 36.908 36.318 36.461 39.563 35.583 32.608 32.096 31.813 31.748 31.471 31.328 30.941 30.038 28.673 28.406 28.476 28.771 28.178 27.366 25.966 28.811 30.846 32.293 34.201 -9999 -9999 -9999 -9999 -9999 -9999 -9999 -9999 -9999 -9999 29.911 30.633 31.723 31.003 28.448 25.576 26.633 27.238 28.018 28.626 28.541 28.378 28.221 28.046 27.856 27.673 27.538 27.413 27.251 27.303 27.413 27.586 27.853 28.111 28.406 28.776 29.223 29.756 30.038 30.253 30.608 31.023 31.411 31.666 32.091 32.488 32.783 33.128 33.508 33.858 34.033 34.276 34.653 35.006 35.336 35.596 35.806 36.116 36.396 36.666 36.913 37.268 37.583 38.003 38.458 38.986 39.521 40.131 40.758 41.421 42.168 43.003 44.423 47.776 47.956 47.078 47.961 49.246 50.336 51.383 52.336 53.151 53.441 54.146 54.226 54.353 54.483 54.571 54.701 54.798 54.913 55.026 55.176 55.313 55.456 55.566 55.676 55.791 55.876 55.968 56.076 56.226 56.373 56.573 56.776 56.981 57.196 57.403 57.616 57.806 57.988 58.166 58.301 58.438 58.556 58.658 58.791 58.898 59.018 59.106 59.221 59.318 59.411 59.468 59.508 59.571 59.611 59.616 59.628 59.626 59.633 59.638 59.638 59.648 59.658 59.681 59.728 59.756 59.833 59.896 59.941 59.986 60.023 60.056 60.138 60.178 60.241 60.301 60.336 60.361 60.401 60.411 60.408 60.391 60.376 60.356 60.321 60.298 60.243 60.176 60.143 60.101 60.071 60.063 60.073 60.063 60.043 60.066 60.063 60.068 60.093 60.088 60.111 60.161 60.193 60.238 60.276 60.311 60.353 60.373 60.408 60.423 60.433 60.476 60.503 60.493 60.558 60.586 60.618 60.678 60.723 60.726 60.751 60.771 60.796 60.788 60.793 60.841 60.871 60.891 60.938 60.936 60.936 60.938 60.943 60.946 60.908 60.886 60.838 60.811 60.776 60.718 60.711 60.706 60.681 60.681 60.666 60.656 60.636 60.658 60.673 60.696 60.751 60.773 60.821 60.881 60.946 61.006 61.073 61.123 61.121 61.083 61.018 60.978 60.941 60.893 60.831 60.778 60.711 60.663 60.603 60.563 60.561 60.496 60.451 60.506 60.628 60.761 60.888 61.023 61.148 61.318 61.556 61.813 62.066 62.308 62.591 62.858 63.146 63.406 63.666 63.928 64.176 64.383 64.611 64.791 64.956 65.106 65.261 65.418 65.561 65.698 65.811 65.973 66.118 66.283 66.436 66.593 66.726 66.878 67.013 67.133 67.243 67.376 67.528 67.641 67.726 67.808 67.888 67.981 68.093 68.218 68.321 68.443 68.561 68.688 68.806 68.948 69.111 69.216 69.303 69.406 69.513 69.568 69.651 69.738 69.806 69.896 69.946 70.023 70.106 70.228 70.348 70.463 70.551 70.663 70.738 70.808 70.886 70.933 71.001 71.068 71.133 71.148 71.186 71.236 71.243 71.253 71.243 71.276 71.273 71.296 71.338 71.378 71.391 71.416 71.403 71.398 71.441 71.491 71.496 71.563 71.616 71.653 71.696 71.753 71.786 71.888 71.973 72.031 72.096 72.156 72.198 72.246 72.291 72.313 72.351 72.356 72.398 72.498 72.563 72.633 72.708 72.773
61.708 61.638 61.583 61.508 61.416 61.331 61.203 61.071 60.961 60.836 60.733 60.586 60.471 60.353 60.226 60.083 59.928 59.758 59.618 59.446 59.296 59.143 59.038 59.038 60.128 59.076 58.458 59.368 59.196 56.613 57.596 55.471 53.656 53.391 53.036 52.528 52.068 51.366 50.393 48.396 47.181 45.853 45.051 45.208 44.211 42.786 40.971 39.526 37.611 36.468 35.738 34.556 33.113 32.283 31.776 31.481 31.398 31.148 31.033 30.993 30.498 29.783 28.658 28.381 28.508 28.726 28.091 26.886 25.993 27.013 30.423 30.406 33.488 33.238 -9999 -9999 -9999 -9999 -9999 -9999 -9999 -9999 -9999 30.406 30.461 31.466 30.036 28.078 25.708 26.483 27.133 28.038 28.606 28.441 28.343 28.176 27.996 27.786 27.658 27.511 27.396 27.263 27.331 27.441 27.628 27.893 28.173 28.803 28.876 29.336 30.051 30.306 30.308 30.716 31.078 31.506 31.878 32.183 32.566 32.881 33.226 33.628 33.891 34.938 34.558 34.798 35.056 35.471 35.676 35.931 36.193 36.401 36.746 37.048 37.361 37.638 38.066 38.546 39.256 39.578 40.253 40.908 41.568 42.421 43.311 45.891 47.698 47.168 47.216 48.268 49.466 50.583 51.663 52.533 53.228 53.536 54.226 54.251 54.383 54.526 54.611 54.731 54.811 54.946 55.068 55.206 55.316 55.478 55.628 55.731 55.846 55.928 56.026 56.146 56.281 56.423 56.613 56.818 57.053 57.266 57.476 57.691 57.901 58.068 58.251 58.411 58.551 58.718 58.818 58.926 59.036 59.131 59.256 59.343 59.433 59.558 59.613 59.666 59.721 59.751 59.771 59.798 59.796 59.773 59.808 59.803 59.818 59.818 59.851 59.871 59.896 59.963 60.016 60.066 60.101 60.141 60.218 60.263 60.318 60.398 60.433 60.471 60.506 60.553 60.553 60.553 60.553 60.518 60.478 60.426 60.391 60.338 60.261 60.218 60.178 60.143 60.158 60.161 60.166 60.118 60.153 60.161 60.151 60.166 60.168 60.191 60.226 60.271 60.298 60.328 60.361 60.386 60.436 60.453 60.498 60.488 60.526 60.548 60.563 60.591 60.661 60.701 60.721 60.766 60.786 60.841 60.861 60.868 60.866 60.898 60.921 60.976 61.001 61.008 61.026 61.023 61.036 61.011 61.018 60.996 60.963 60.936 60.881 60.878 60.833 60.836 60.816 60.801 60.773 60.763 60.723 60.698 60.731 60.736 60.748 60.786 60.816 60.863 60.928 60.951 60.993 61.063 61.088 61.096 61.061 61.003 60.958 60.943 60.883 60.856 60.823 60.776 60.688 60.636 60.598 60.586 60.576 60.531 60.513 60.606 60.743 60.888 61.018 61.131 61.293 61.496 61.743 61.993 62.223 62.501 62.768 63.048 63.308 63.553 63.806 64.046 64.281 64.468 64.653 64.826 64.978 65.136 65.313 65.441 65.586 65.743 65.881 66.026 66.208 66.351 66.508 66.666 66.801 66.928 67.023 67.178 67.328 67.451 67.551 67.626 67.713 67.808 67.888 67.996 68.086 68.208 68.336 68.446 68.596 68.706 68.848 68.983 69.093 69.201 69.296 69.373 69.448 69.546 69.658 69.748 69.806 69.848 69.946 70.026 70.151 70.266 70.391 70.486 70.591 70.668 70.761 70.853 70.908 70.976 71.013 71.088 71.128 71.168 71.198 71.201 71.198 71.203 71.213 71.226 71.228 71.273 71.303 71.321 71.331 71.338 71.371 71.401 71.456 71.471 71.513 71.551 71.593 71.641 71.681 71.766 71.831 71.908 71.996 72.056 72.106 72.143 72.216 72.233 72.253 72.306 72.336 72.371 72.478 72.568 72.621 72.698 72.751
61.823 61.756 61.698 61.606 61.513 61.403 61.273 61.143 61.038 60.911 60.796 60.643 60.526 60.396 60.258 60.118 59.948 59.791 59.616 59.466 59.313 59.146 59.096 59.146 60.583 61.293 58.683 61.973 61.763 56.056 54.401 53.798 53.646 53.376 52.963 52.548 52.176 51.491 50.493 48.731 47.228 45.806 44.853 45.128 44.396 43.381 41.398 39.496 37.728 36.216 35.216 34.213 32.621 31.438 30.781 30.511 30.648 30.646 34.311 32.581 30.293 28.981 28.563 28.373 28.378 28.658 28.226 27.166 26.153 26.203 34.556 35.441 33.186 31.851 -9999 -9999 -9999 -9999 -9999 -9999 -9999 -9999 -9999 30.171 30.593 30.383 31.276 24.701 26.526 26.741 27.173 28.556 28.626 28.431 28.311 28.241 28.063 27.793 27.656 27.506 27.416 27.286 27.391 27.498 27.646 27.961 28.223 29.458 28.978 29.393 29.748 30.046 30.323 30.733 31.076 31.486 31.956 32.333 32.668 33.008 33.403 33.751 33.973 34.643 34.658 34.828 35.078 35.431 35.773 36.053 36.308 36.523 36.856 37.113 37.426 37.698 38.066 38.531 38.956 39.596 40.398 41.043 41.748 42.606 43.563 45.946 46.276 46.768 47.751 48.648 49.723 50.833 51.843 52.696 53.411 53.616 54.261 54.276 54.411 54.551 54.633 54.738 54.831 54.958 55.073 55.216 55.333 55.496 55.646 55.778 55.898 56.008 56.126 56.233 56.353 56.523 56.733 56.913 57.131 57.351 57.553 57.768 57.961 58.148 58.331 58.488 58.638 58.823 58.973 59.081 59.211 59.306 59.408 59.493 59.583 59.676 59.743 59.818 59.853 59.898 59.931 59.946 59.948 59.946 59.958 59.966 59.966 59.958 59.983 59.981 60.041 60.086 60.131 60.178 60.228 60.273 60.336 60.378 60.423 60.491 60.553 60.593 60.638 60.671 60.701 60.706 60.688 60.673 60.608 60.546 60.466 60.393 60.371 60.288 60.258 60.231 60.238 60.258 60.251 60.236 60.228 60.268 60.291 60.273 60.296 60.301 60.336 60.328 60.348 60.401 60.396 60.446 60.486 60.518 60.533 60.558 60.558 60.593 60.618 60.651 60.686 60.731 60.778 60.826 60.856 60.896 60.936 60.951 60.973 61.003 61.031 61.056 61.091 61.071 61.108 61.106 61.093 61.081 61.081 61.066 61.056 61.028 60.981 60.971 60.973 60.961 60.931 60.893 60.868 60.833 60.793 60.791 60.783 60.783 60.811 60.831 60.856 60.896 60.948 60.953 60.968 61.026 61.038 61.056 61.026 60.983 60.968 60.926 60.896 60.863 60.846 60.828 60.771 60.713 60.681 60.656 60.641 60.598 60.586 60.573 60.686 60.863 61.013 61.141 61.276 61.466 61.683 61.913 62.146 62.391 62.683 62.938 63.178 63.451 63.723 63.928 64.168 64.343 64.523 64.698 64.866 65.031 65.193 65.328 65.476 65.628 65.786 65.976 66.121 66.248 66.403 66.553 66.686 66.803 66.956 67.118 67.268 67.381 67.496 67.541 67.608 67.696 67.796 67.908 68.006 68.103 68.216 68.328 68.451 68.591 68.736 68.871 68.986 69.106 69.208 69.288 69.376 69.468 69.558 69.651 69.703 69.778 69.871 69.983 70.083 70.178 70.306 70.413 70.518 70.611 70.698 70.781 70.868 70.931 71.003 71.046 71.091 71.111 71.131 71.136 71.131 71.121 71.148 71.151 71.163 71.211 71.228 71.238 71.241 71.281 71.308 71.336 71.386 71.406 71.463 71.516 71.531 71.573 71.641 71.728 71.781 71.856 71.933 71.988 72.051 72.098 72.153 72.178 72.206 72.276 72.291 72.373 72.446 72.528 72.606 72.681 72.721
61.938 61.838 61.768 61.686 61.573 61.443 61.311 61.203 61.078 60.943 60.791 60.676 60.536 60.421 60.258 60.111 59.938 59.788 59.623 59.478 59.293 59.171 59.176 59.481 59.086 58.948 58.816 61.196 57.623 54.921 54.203 53.791 53.563 53.321 52.968 53.901 52.448 51.641 51.116 49.183 48.983 51.941 44.688 44.993 44.541 43.331 41.803 39.623 37.793 36.011 34.826 33.623 32.101 30.816 30.306 30.166 29.996 30.006 30.263 29.603 29.173 28.768 28.531 28.293 28.386 28.653 28.278 27.483 26.343 27.216 29.893 33.628 33.391 31.203 -9999 -9999 -9999 -9999 -9999 -9999 -9999 -9999 -9999 -9999 30.748 29.821 30.393 25.693 26.691 26.866 27.338 28.356 28.583 28.403 28.376 28.293 28.033 27.836 27.728 27.543 27.381 27.326 27.386 27.546 27.711 28.036 28.271 28.613 29.011 29.441 30.008 30.078 30.366 30.826 31.151 31.558 32.016 32.418 32.778 33.181 33.598 33.868 34.068 34.306 34.598 34.973 35.218 35.531 35.868 36.103 36.426 36.636 36.963 37.876 37.478 37.691 37.978 38.436 39.006 39.698 40.471 41.186 42.046 42.963 43.876 44.708 45.703 46.843 47.893 48.928 49.968 50.973 51.936 52.821 53.453 53.683 54.303 54.328 54.473 54.578 54.668 54.786 54.853 54.986 55.108 55.233 55.383 55.513 55.671 55.806 55.953 56.076 56.188 56.318 56.458 56.621 56.828 57.026 57.226 57.448 57.653 57.856 58.056 58.243 58.421 58.576 58.748 58.911 59.066 59.223 59.366 59.476 59.596 59.678 59.756 59.821 59.888 59.913 59.998 60.046 60.061 60.106 60.116 60.116 60.098 60.126 60.101 60.096 60.138 60.153 60.178 60.236 60.248 60.298 60.333 60.383 60.446 60.486 60.541 60.573 60.618 60.691 60.723 60.788 60.821 60.833 60.808 60.793 60.736 60.653 60.586 60.536 60.456 60.381 60.351 60.303 60.338 60.356 60.351 60.321 60.353 60.363 60.391 60.396 60.398 60.421 60.411 60.416 60.441 60.451 60.453 60.503 60.518 60.551 60.576 60.593 60.603 60.646 60.676 60.736 60.773 60.826 60.858 60.893 60.911 60.943 61.003 61.033 61.058 61.108 61.123 61.166 61.171 61.173 61.166 61.158 61.161 61.156 61.168 61.138 61.116 61.088 61.038 61.043 61.036 61.021 61.021 60.976 60.923 60.908 60.893 60.858 60.888 60.868 60.848 60.876 60.888 60.918 60.956 60.986 61.011 61.026 61.018 60.983 60.976 60.956 60.926 60.911 60.876 60.858 60.896 60.886 60.851 60.798 60.763 60.691 60.708 60.691 60.656 60.618 60.636 60.781 61.003 61.146 61.283 61.451 61.641 61.866 62.083 62.298 62.568 62.811 63.068 63.358 63.606 63.816 64.028 64.211 64.391 64.568 64.743 64.906 65.048 65.191 65.373 65.513 65.708 65.863 66.006 66.156 66.328 66.453 66.586 66.718 66.886 67.033 67.156 67.306 67.401 67.471 67.536 67.631 67.711 67.778 67.896 68.001 68.121 68.243 68.338 68.466 68.633 68.761 68.876 68.983 69.096 69.196 69.271 69.361 69.471 69.536 69.608 69.688 69.808 69.926 70.011 70.121 70.236 70.356 70.423 70.546 70.643 70.721 70.788 70.856 70.938 70.983 71.036 71.071 71.083 71.098 71.076 71.066 71.071 71.066 71.098 71.128 71.156 71.156 71.181 71.198 71.246 71.291 71.338 71.386 71.416 71.461 71.468 71.538 71.591 71.656 71.753 71.816 71.883 71.923 71.981 72.036 72.096 72.131 72.168 72.203 72.241 72.331 72.428 72.483 72.563 72.641 72.673
62.011 61.936 61.826 61.731 61.613 61.491 61.346 61.206 61.101 60.953 60.793 60.686 60.538 60.403 60.243 60.083 59.923 59.761 59.616 59.466 59.296 59.203 59.253 59.621 58.408 57.963 58.916 56.581 55.623 54.706 54.093 53.781 53.538 53.323 53.673 54.628 52.208 51.051 50.068 49.528 49.806 50.746 50.668 47.673 44.546 43.353 42.356 40.983 39.681 37.926 35.646 33.011 31.616 30.538 30.098 29.891 29.658 29.558 29.401 29.051 28.731 28.653 28.406 28.253 28.348 28.366 28.291 27.568 26.108 25.403 29.658 32.821 31.646 -9999 -9999 -9999 -9999 -9999 -9999 -9999 -9999 -9999 -9999 -9999 28.198 28.101 26.601 26.956 26.551 26.818 27.573 28.483 28.526 28.401 28.276 28.218 28.016 27.796 27.638 27.523 27.356 27.386 27.461 27.563 27.713 28.006 28.303 28.646 29.106 29.578 29.858 30.136 30.478 30.806 31.183 31.603 32.036 32.513 32.971 33.311 33.631 33.933 34.133 34.378 34.728 35.001 35.328 35.598 35.943 36.181 36.473 36.681 37.098 37.306 37.486 37.626 37.891 38.371 38.993 39.723 40.531 41.288 42.218 43.131 44.041 44.883 45.956 47.173 48.136 49.133 50.146 51.056 52.043 52.938 53.463 53.953 54.353 54.376 54.511 54.626 54.723 54.833 54.916 55.003 55.126 55.266 55.413 55.556 55.713 55.833 55.993 56.106 56.266 56.408 56.576 56.743 56.948 57.146 57.368 57.576 57.753 57.961 58.176 58.358 58.516 58.678 58.856 59.008 59.186 59.346 59.486 59.586 59.728 59.876 59.923 59.993 60.086 60.136 60.171 60.193 60.228 60.241 60.261 60.271 60.251 60.246 60.243 60.241 60.263 60.283 60.308 60.328 60.366 60.401 60.456 60.491 60.526 60.593 60.636 60.688 60.728 60.788 60.846 60.868 60.876 60.913 60.906 60.863 60.846 60.761 60.713 60.623 60.558 60.473 60.466 60.443 60.443 60.441 60.453 60.448 60.468 60.478 60.486 60.486 60.506 60.511 60.523 60.523 60.538 60.541 60.518 60.543 60.558 60.576 60.606 60.656 60.676 60.713 60.763 60.798 60.848 60.913 60.931 60.978 61.016 61.031 61.078 61.103 61.151 61.191 61.221 61.233 61.243 61.251 61.253 61.228 61.241 61.231 61.221 61.203 61.181 61.183 61.108 61.133 61.113 61.106 61.071 61.036 61.018 60.991 60.986 60.963 60.951 60.931 60.921 60.938 60.946 60.951 60.973 61.023 61.036 61.056 61.028 60.971 60.981 60.998 60.963 60.946 60.896 60.893 60.908 60.923 60.933 60.916 60.853 60.781 60.778 60.751 60.701 60.673 60.663 60.753 60.913 61.111 61.271 61.421 61.593 61.803 62.038 62.221 62.463 62.703 62.946 63.216 63.478 63.691 63.896 64.101 64.281 64.463 64.608 64.766 64.921 65.086 65.236 65.426 65.603 65.758 65.908 66.093 66.253 66.361 66.508 66.653 66.811 66.971 67.116 67.221 67.311 67.393 67.478 67.528 67.626 67.698 67.788 67.906 68.016 68.118 68.251 68.371 68.541 68.653 68.781 68.891 68.976 69.066 69.168 69.276 69.381 69.443 69.518 69.631 69.728 69.838 69.963 70.078 70.163 70.278 70.368 70.493 70.573 70.676 70.738 70.806 70.878 70.921 70.983 71.016 71.021 71.033 71.018 71.008 71.016 71.008 71.051 71.076 71.083 71.088 71.108 71.123 71.168 71.243 71.281 71.331 71.356 71.393 71.416 71.473 71.548 71.591 71.673 71.768 71.828 71.891 71.931 71.991 72.028 72.053 72.118 72.138 72.201 72.296 72.376 72.446 72.526 72.576 72.656
62.071 61.963 61.883 61.748 61.643 61.483 61.351 61.216 61.093 60.958 60.798 60.673 60.526 60.398 60.231 60.073 59.923 59.773 59.583 59.433 59.306 59.268 59.288 59.306 58.726 59.718 61.418 58.028 55.193 54.378 54.018 53.706 53.528 57.018 53.138 54.863 52.518 50.361 49.461 48.266 46.471 44.906 44.078 44.263 49.716 51.576 44.161 42.578 42.668 40.003 34.916 32.138 31.231 30.556 29.991 29.718 29.653 29.406 29.138 28.863 28.641 28.526 28.341 28.163 28.196 28.186 28.083 27.556 28.778 26.116 29.946 35.913 -9999 -9999 -9999 -9999 -9999 -9999 -9999 -9999 -9999 -9999 -9999 -9999 26.313 27.901 29.253 27.851 26.181 27.026 28.573 28.533 28.516 28.423 28.256 28.141 27.956 27.783 27.633 27.558 27.383 27.398 27.558 27.593 27.793 28.028 28.326 28.711 29.213 29.631 29.903 30.196 30.536 30.883 31.226 31.646 32.078 32.573 33.023 33.366 33.781 34.168 34.323 34.493 34.836 35.046 35.358 35.676 35.966 36.233 36.576 36.756 37.051 37.341 37.478 37.588 37.828 38.286 38.913 39.783 40.493 41.418 42.283 43.328 44.178 45.038 46.143 47.283 48.363 49.361 50.278 51.261 52.193 53.038 53.516 54.648 54.428 54.406 54.556 54.656 54.758 54.861 54.951 55.041 55.176 55.323 55.463 55.606 55.756 55.883 56.033 56.168 56.361 56.516 56.701 56.881 57.063 57.268 57.488 57.703 57.901 58.103 58.291 58.498 58.676 58.816 58.998 59.148 59.303 59.476 59.608 59.741 59.868 59.953 60.043 60.148 60.238 60.308 60.328 60.361 60.386 60.396 60.398 60.398 60.378 60.383 60.363 60.383 60.366 60.398 60.431 60.458 60.478 60.528 60.563 60.608 60.653 60.706 60.728 60.786 60.806 60.886 60.908 60.931 60.966 60.981 60.978 60.958 60.928 60.848 60.793 60.733 60.658 60.583 60.566 60.548 60.543 60.556 60.558 60.563 60.568 60.598 60.586 60.598 60.631 60.623 60.636 60.628 60.618 60.616 60.618 60.596 60.646 60.641 60.638 60.703 60.723 60.801 60.848 60.898 60.936 60.991 61.028 61.061 61.106 61.121 61.156 61.216 61.253 61.266 61.288 61.291 61.301 61.316 61.298 61.278 61.281 61.251 61.231 61.258 61.241 61.213 61.181 61.203 61.188 61.183 61.148 61.086 61.063 61.038 61.046 61.036 61.043 61.031 61.003 60.998 60.983 61.018 61.006 61.063 61.108 61.108 61.083 61.023 61.013 61.026 61.046 61.021 60.971 60.948 60.986 60.993 61.023 61.001 60.933 60.868 60.808 60.781 60.783 60.751 60.701 60.661 60.861 61.113 61.271 61.411 61.571 61.766 61.953 62.153 62.396 62.616 62.851 63.123 63.351 63.563 63.781 63.983 64.146 64.331 64.511 64.673 64.806 64.948 65.123 65.333 65.488 65.703 65.853 66.023 66.146 66.296 66.451 66.571 66.736 66.891 67.058 67.148 67.241 67.316 67.388 67.456 67.518 67.601 67.703 67.806 67.906 68.038 68.138 68.288 68.416 68.553 68.683 68.786 68.876 68.986 69.093 69.183 69.298 69.366 69.446 69.571 69.656 69.773 69.873 69.996 70.111 70.211 70.313 70.436 70.518 70.611 70.681 70.741 70.793 70.846 70.916 70.941 70.931 70.956 70.941 70.941 70.943 70.943 70.971 71.018 71.016 71.033 71.038 71.053 71.086 71.173 71.221 71.271 71.306 71.311 71.361 71.416 71.488 71.548 71.638 71.721 71.766 71.808 71.871 71.913 71.968 71.998 72.051 72.071 72.146 72.266 72.333 72.413 72.473 72.536 72.598
62.078 61.981 61.888 61.763 61.628 61.466 61.341 61.216 61.083 60.941 60.788 60.676 60.556 60.378 60.226 60.063 59.893 59.763 59.626 59.458 59.351 59.331 59.521 58.588 58.066 58.656 59.206 56.838 54.848 54.283 53.808 53.526 53.263 52.938 52.148 51.386 50.583 49.823 48.988 47.991 46.638 44.878 44.046 44.473 48.828 46.693 40.388 37.896 39.741 37.258 33.831 32.036 31.246 30.593 29.986 29.778 29.663 29.413 29.183 28.833 28.608 28.528 28.288 28.078 28.223 28.308 27.916 27.876 29.551 30.601 41.726 -9999 -9999 -9999 -9999 -9999 -9999 -9999 -9999 -9999 -9999 -9999 -9999 30.088 31.078 28.738 30.848 26.203 26.106 27.238 28.151 28.576 28.516 28.421 28.321 28.153 27.983 27.818 27.653 27.556 27.373 27.418 27.488 27.608 27.838 28.048 28.328 28.721 29.323 29.621 29.938 30.251 30.793 31.053 31.293 31.746 32.193 32.613 33.088 33.478 33.843 34.146 34.443 34.626 35.226 35.126 35.423 35.736 36.008 36.238 36.566 36.796 37.033 37.398 37.516 37.621 37.863 38.301 38.901 39.731 40.433 41.341 42.296 43.908 44.321 45.221 46.241 47.373 48.473 49.478 50.433 51.388 52.306 53.133 53.596 54.598 54.391 54.458 54.618 54.713 54.813 54.918 55.001 55.093 55.223 55.388 55.513 55.648 55.806 55.943 56.116 56.268 56.451 56.618 56.811 57.001 57.191 57.408 57.618 57.828 58.028 58.228 58.461 58.636 58.828 59.013 59.161 59.328 59.466 59.628 59.768 59.881 60.008 60.116 60.201 60.281 60.376 60.438 60.493 60.508 60.536 60.538 60.533 60.513 60.508 60.498 60.496 60.491 60.513 60.528 60.523 60.563 60.583 60.628 60.666 60.701 60.753 60.798 60.856 60.878 60.923 60.943 60.981 61.023 61.036 61.031 61.048 61.028 60.986 60.941 60.898 60.841 60.768 60.716 60.686 60.678 60.666 60.671 60.663 60.698 60.698 60.688 60.736 60.733 60.741 60.746 60.731 60.726 60.706 60.711 60.723 60.691 60.698 60.743 60.738 60.788 60.826 60.868 60.921 60.978 61.013 61.071 61.126 61.153 61.201 61.246 61.256 61.306 61.313 61.326 61.341 61.323 61.363 61.326 61.336 61.308 61.301 61.276 61.271 61.288 61.261 61.286 61.261 61.268 61.261 61.236 61.221 61.188 61.178 61.128 61.146 61.146 61.123 61.111 61.071 61.071 61.081 61.061 61.101 61.138 61.168 61.196 61.181 61.141 61.098 61.111 61.106 61.098 61.071 61.068 61.078 61.086 61.096 61.091 61.006 60.941 60.876 60.831 60.821 60.823 60.743 60.676 60.758 61.041 61.271 61.433 61.571 61.746 61.916 62.111 62.328 62.551 62.786 63.033 63.251 63.483 63.666 63.866 64.038 64.208 64.363 64.528 64.698 64.858 65.061 65.231 65.428 65.598 65.756 65.911 66.073 66.233 66.386 66.508 66.688 66.851 66.991 67.083 67.176 67.253 67.323 67.358 67.433 67.516 67.631 67.721 67.836 67.926 68.063 68.208 68.358 68.491 68.581 68.696 68.786 68.893 68.993 69.123 69.208 69.253 69.358 69.478 69.573 69.696 69.796 69.913 70.058 70.168 70.258 70.358 70.461 70.536 70.611 70.661 70.733 70.788 70.843 70.856 70.868 70.876 70.871 70.856 70.856 70.891 70.916 70.938 70.948 70.956 70.956 70.988 71.038 71.078 71.138 71.173 71.223 71.238 71.278 71.366 71.436 71.511 71.598 71.676 71.726 71.771 71.833 71.871 71.893 71.943 71.996 72.051 72.126 72.218 72.303 72.353 72.426 72.481 72.543
62.093 62.006 61.891 61.753 61.608 61.481 61.331 61.216 61.093 60.933 60.796 60.708 60.551 60.411 60.238 60.083 59.916 59.763 59.628 59.468 59.396 59.396 60.218 61.401 57.523 56.586 56.051 55.318 54.548 53.883 53.528 53.186 52.713 52.211 52.506 50.521 50.013 49.173 48.438 47.788 49.491 46.453 43.771 43.498 44.453 41.273 39.938 38.556 35.768 34.561 33.371 32.283 31.458 30.751 30.083 29.848 29.641 29.391 29.151 28.846 28.603 31.128 28.408 33.211 27.961 27.913 34.916 32.733 30.851 29.001 38.388 34.898 -9999 -9999 -9999 -9999 -9999 -9999 -9999 -9999 -9999 -9999 -9999 30.375 28.746 30.061 29.526 25.778 26.688 27.476 28.496 28.948 28.506 28.431 28.526 28.196 27.953 27.763 27.643 27.526 27.378 27.453 27.518 27.636 27.848 28.113 28.383 28.811 29.331 29.636 29.946 30.243 30.611 31.028 31.368 31.793 32.198 32.748 33.141 33.543 33.911 34.191 34.443 34.693 35.111 35.201 35.486 35.793 36.058 36.266 36.558 36.783 37.096 37.323 37.416 37.633 37.906 38.351 38.883 39.603 40.396 41.356 42.678 43.183 44.116 45.178 46.253 47.418 48.508 49.421 50.541 51.483 52.383 53.211 53.648 54.551 54.608 54.493 54.656 54.743 54.876 54.973 55.033 55.143 55.261 55.421 55.563 55.726 55.886 56.031 56.198 56.363 56.546 56.718 56.903 57.118 57.306 57.498 57.708 57.908 58.113 58.341 58.563 58.766 58.958 59.143 59.326 59.491 59.661 59.808 59.926 60.058 60.148 60.233 60.308 60.388 60.476 60.546 60.583 60.636 60.638 60.671 60.668 60.671 60.653 60.613 60.613 60.601 60.616 60.633 60.641 60.683 60.691 60.728 60.778 60.813 60.848 60.898 60.948 60.973 61.003 61.043 61.073 61.096 61.113 61.108 61.096 61.073 61.068 60.988 60.946 60.908 60.883 60.846 60.813 60.793 60.808 60.811 60.833 60.841 60.843 60.828 60.851 60.843 60.838 60.836 60.833 60.818 60.786 60.798 60.776 60.766 60.783 60.806 60.843 60.891 60.948 60.971 61.038 61.066 61.103 61.158 61.186 61.241 61.276 61.318 61.308 61.368 61.368 61.403 61.411 61.403 61.398 61.366 61.348 61.336 61.323 61.331 61.336 61.353 61.331 61.316 61.313 61.333 61.326 61.326 61.293 61.283 61.276 61.253 61.256 61.263 61.243 61.221 61.168 61.151 61.123 61.158 61.181 61.213 61.243 61.268 61.303 61.276 61.276 61.258 61.258 61.208 61.191 61.183 61.186 61.191 61.181 61.176 61.093 61.006 60.931 60.861 60.836 60.861 60.796 60.728 60.761 60.921 61.263 61.373 61.568 61.733 61.896 62.073 62.248 62.481 62.708 62.918 63.156 63.368 63.538 63.726 63.898 64.053 64.231 64.401 64.598 64.773 64.941 65.153 65.338 65.513 65.668 65.848 65.998 66.146 66.328 66.478 66.633 66.793 66.933 67.021 67.101 67.178 67.233 67.296 67.341 67.443 67.518 67.646 67.758 67.841 67.981 68.123 68.258 68.388 68.488 68.593 68.703 68.803 68.903 69.013 69.101 69.173 69.296 69.383 69.486 69.621 69.736 69.838 69.966 70.103 70.186 70.291 70.376 70.448 70.526 70.593 70.668 70.713 70.736 70.761 70.753 70.771 70.766 70.753 70.798 70.821 70.848 70.868 70.888 70.886 70.888 70.933 70.986 71.021 71.068 71.113 71.138 71.161 71.221 71.311 71.373 71.468 71.558 71.611 71.683 71.733 71.763 71.801 71.853 71.893 71.946 71.983 72.083 72.171 72.261 72.313 72.376 72.433 72.491
62.096 61.991 61.888 61.748 61.601 61.458 61.358 61.221 61.076 60.951 60.818 60.718 60.546 60.396 60.256 60.068 59.933 59.793 59.618 59.496 59.463 61.163 64.401 63.078 57.258 56.303 55.638 55.233 53.896 53.583 53.596 54.143 54.226 57.563 53.381 50.088 49.521 48.626 47.583 46.938 47.778 46.618 44.138 43.506 48.391 43.081 50.253 38.061 35.933 34.723 33.646 32.566 31.668 30.873 30.081 29.698 29.541 29.323 29.033 28.776 28.633 41.191 33.088 30.143 27.923 27.848 27.591 33.073 33.716 35.996 36.388 30.218 -9999 -9999 -9999 -9999 -9999 -9999 -9999 -9999 -9999 -9999 -9999 27.715 27.911 29.936 27.936 25.341 26.681 27.763 28.588 28.728 28.498 28.516 28.726 28.258 28.003 27.786 27.626 27.506 27.398 27.513 27.533 27.676 27.858 28.121 28.418 28.806 29.308 29.653 29.931 30.243 30.616 31.026 31.411 31.886 32.316 32.791 33.261 33.626 34.023 34.348 34.536 34.846 34.996 35.256 35.548 35.833 36.126 36.313 36.583 36.871 37.101 37.306 37.471 37.676 37.926 38.343 38.826 39.538 40.366 41.418 43.548 43.416 44.071 45.141 46.286 47.463 48.458 49.381 50.498 51.606 52.766 53.363 53.701 56.116 54.436 54.571 54.721 54.798 54.911 55.006 55.108 55.206 55.313 55.456 55.611 55.768 55.933 56.098 56.293 56.451 56.626 56.806 57.001 57.208 57.386 57.603 57.796 58.031 58.233 58.458 58.658 58.856 59.071 59.268 59.458 59.651 59.828 59.973 60.123 60.241 60.333 60.378 60.443 60.511 60.556 60.616 60.668 60.723 60.726 60.768 60.758 60.793 60.771 60.721 60.721 60.728 60.708 60.738 60.761 60.773 60.803 60.848 60.886 60.923 60.946 60.978 61.013 61.046 61.066 61.108 61.138 61.148 61.171 61.176 61.143 61.116 61.098 61.073 61.038 60.978 60.973 60.941 60.923 60.926 60.926 60.943 60.956 60.963 60.956 60.963 60.953 60.941 60.948 60.938 60.913 60.908 60.886 60.866 60.853 60.858 60.893 60.926 60.956 60.993 61.051 61.111 61.138 61.181 61.188 61.241 61.281 61.306 61.331 61.388 61.413 61.431 61.446 61.473 61.473 61.456 61.443 61.408 61.396 61.376 61.356 61.361 61.393 61.406 61.393 61.396 61.371 61.406 61.366 61.358 61.323 61.348 61.351 61.361 61.343 61.353 61.333 61.296 61.268 61.241 61.226 61.238 61.271 61.296 61.333 61.351 61.381 61.411 61.421 61.421 61.406 61.383 61.318 61.283 61.278 61.301 61.276 61.266 61.211 61.106 61.011 60.933 60.896 60.883 60.861 60.833 60.811 60.883 61.223 61.501 61.513 61.666 61.868 62.018 62.216 62.401 62.598 62.846 63.048 63.248 63.413 63.606 63.748 63.906 64.103 64.303 64.511 64.696 64.873 65.071 65.251 65.426 65.623 65.781 65.936 66.083 66.246 66.396 66.551 66.736 66.848 66.968 67.056 67.101 67.153 67.193 67.273 67.371 67.451 67.548 67.666 67.766 67.931 68.061 68.171 68.296 68.411 68.523 68.626 68.728 68.836 68.933 68.988 69.101 69.203 69.321 69.418 69.533 69.658 69.771 69.896 70.013 70.116 70.226 70.293 70.373 70.461 70.521 70.573 70.626 70.648 70.663 70.658 70.661 70.681 70.666 70.686 70.731 70.758 70.783 70.826 70.846 70.851 70.893 70.931 70.991 71.013 71.048 71.071 71.121 71.166 71.241 71.306 71.401 71.481 71.548 71.606 71.646 71.733 71.751 71.793 71.833 71.891 71.936 72.038 72.123 72.191 72.271 72.326 72.381 72.451
62.091 61.991 61.881 61.731 61.583 61.461 61.351 61.216 61.088 60.981 60.878 60.728 60.556 60.416 60.241 60.083 59.928 59.788 59.623 59.533 60.618 64.166 63.371 59.923 57.191 56.063 55.123 54.903 53.666 53.578 55.526 59.493 55.701 51.051 50.048 50.193 49.193 48.878 49.508 46.728 45.921 45.058 46.911 49.731 52.746 49.328 47.976 38.426 35.983 34.658 33.733 32.796 32.061 31.343 30.171 29.608 29.313 29.046 28.811 28.716 28.588 28.413 29.266 27.836 27.801 27.681 27.388 32.608 34.606 28.961 31.323 28.116 -9999 -9999 -9999 -9999 -9999 -9999 -9999 -9999 -9999 -9999 -9999 -9999 31.288 31.243 29.051 30.463 28.388 27.901 28.676 28.721 28.556 28.458 28.481 28.236 27.956 27.776 27.636 27.516 27.428 27.526 27.583 27.688 27.891 28.113 28.416 28.851 29.401 29.648 30.013 30.271 30.631 31.191 31.541 32.006 32.378 32.798 33.316 33.781 34.118 34.476 34.636 34.866 35.196 35.366 35.656 36.018 36.266 36.376 36.613 36.826 37.021 37.248 37.473 37.701 38.001 38.393 38.921 39.636 40.453 41.523 44.403 43.971 45.021 46.946 46.753 47.416 48.481 49.941 50.563 51.651 52.578 53.373 53.758 56.353 54.478 54.613 54.753 54.853 54.968 55.081 55.153 55.258 55.378 55.521 55.668 55.813 55.983 56.156 56.353 56.541 56.716 56.911 57.106 57.311 57.506 57.721 57.898 58.103 58.341 58.543 58.761 58.971 59.176 59.361 59.581 59.771 59.941 60.091 60.256 60.378 60.463 60.543 60.591 60.613 60.643 60.701 60.733 60.788 60.796 60.796 60.806 60.828 60.841 60.831 60.846 60.853 60.833 60.856 60.851 60.881 60.903 60.921 60.978 61.003 61.036 61.066 61.083 61.116 61.146 61.176 61.193 61.213 61.218 61.218 61.206 61.193 61.176 61.136 61.123 61.103 61.043 61.031 61.018 61.023 61.048 61.051 61.071 61.071 61.116 61.111 61.081 61.068 61.046 61.021 61.021 61.023 60.968 60.941 60.963 60.968 60.988 61.021 61.078 61.113 61.168 61.188 61.248 61.278 61.326 61.363 61.358 61.391 61.401 61.436 61.443 61.501 61.511 61.523 61.521 61.491 61.476 61.461 61.458 61.441 61.438 61.431 61.453 61.446 61.443 61.436 61.463 61.436 61.411 61.401 61.376 61.356 61.416 61.418 61.426 61.431 61.408 61.383 61.376 61.321 61.336 61.328 61.361 61.411 61.458 61.448 61.491 61.521 61.543 61.558 61.541 61.526 61.493 61.436 61.391 61.373 61.356 61.361 61.276 61.196 61.121 61.036 60.966 60.936 60.933 60.871 60.826 60.828 60.916 62.091 61.603 61.598 61.846 61.988 62.186 62.356 62.566 62.753 62.936 63.131 63.323 63.478 63.623 63.816 64.016 64.213 64.391 64.601 64.798 64.986 65.191 65.373 65.563 65.716 65.861 66.016 66.166 66.348 66.526 66.673 66.793 66.876 66.968 67.038 67.083 67.131 67.223 67.301 67.386 67.493 67.603 67.733 67.866 67.978 68.123 68.243 68.323 68.451 68.521 68.673 68.781 68.853 68.918 69.008 69.113 69.223 69.343 69.453 69.573 69.701 69.806 69.916 70.036 70.133 70.228 70.308 70.376 70.446 70.501 70.541 70.568 70.576 70.588 70.568 70.601 70.586 70.606 70.646 70.688 70.706 70.706 70.751 70.791 70.831 70.906 70.913 70.966 70.983 70.996 71.056 71.123 71.193 71.246 71.338 71.411 71.493 71.563 71.626 71.658 71.698 71.758 71.768 71.823 71.931 72.008 72.081 72.151 72.231 72.286 72.343 72.406
62.091 61.986 61.856 61.721 61.581 61.496 61.383 61.238 61.108 60.996 60.861 60.723 60.566 60.406 60.231 60.083 59.938 59.791 59.671 59.591 60.913 62.671 60.233 59.978 56.293 55.553 54.561 53.808 53.551 53.143 52.581 53.806 51.356 50.563 49.746 49.526 48.573 48.223 48.271 46.696 46.091 44.636 43.623 46.446 45.288 43.536 39.948 37.268 35.906 34.611 33.471 32.671 31.923 31.293 30.418 29.593 29.283 28.978 28.811 29.721 28.638 30.518 29.978 27.853 27.801 27.606 27.208 27.618 28.933 27.943 31.463 31.923 -9999 -9999 -9999 -9999 -9999 -9999 -9999 -9999 -9999 -9999 -9999 -9999 33.543 29.931 27.461 28.048 26.911 27.851 28.691 28.716 28.583 28.466 28.451 28.196 27.958 27.766 27.636 27.506 27.398 27.523 27.641 27.791 27.911 28.131 28.456 28.851 29.311 29.671 30.031 30.316 30.728 31.156 31.616 32.061 32.488 32.938 33.416 33.861 34.191 34.546 34.761 34.898 35.193 35.451 35.761 36.101 36.283 36.416 36.653 36.836 36.988 37.213 37.443 37.723 38.051 38.486 39.043 39.776 40.423 41.498 42.183 44.721 47.156 45.803 47.131 47.568 48.538 49.568 50.686 51.671 52.681 53.418 53.821 54.916 54.541 54.696 54.816 54.906 55.023 55.141 55.243 55.338 55.461 55.598 55.723 55.858 56.041 56.208 56.411 56.591 56.798 56.993 57.173 57.383 57.586 57.798 58.013 58.206 58.426 58.643 58.846 59.051 59.296 59.488 59.688 59.891 60.083 60.226 60.356 60.476 60.566 60.633 60.673 60.716 60.733 60.783 60.793 60.818 60.843 60.838 60.868 60.876 60.891 60.896 60.926 60.931 60.946 60.938 60.988 61.016 61.018 60.996 61.058 61.093 61.096 61.143 61.161 61.171 61.211 61.218 61.238 61.263 61.278 61.266 61.276 61.263 61.248 61.218 61.213 61.188 61.138 61.141 61.131 61.126 61.116 61.128 61.163 61.136 61.191 61.206 61.186 61.158 61.161 61.176 61.138 61.143 61.111 61.091 61.088 61.083 61.118 61.138 61.188 61.221 61.263 61.291 61.313 61.371 61.406 61.438 61.458 61.488 61.478 61.518 61.546 61.548 61.551 61.553 61.526 61.533 61.508 61.506 61.511 61.503 61.523 61.541 61.523 61.521 61.536 61.516 61.516 61.483 61.441 61.441 61.441 61.446 61.461 61.481 61.508 61.508 61.516 61.508 61.466 61.451 61.438 61.441 61.476 61.516 61.558 61.571 61.616 61.633 61.643 61.683 61.641 61.661 61.636 61.576 61.513 61.501 61.458 61.423 61.358 61.303 61.226 61.126 61.073 61.016 60.966 60.953 60.886 60.823 60.763 60.938 61.536 63.686 61.776 61.978 62.148 62.326 62.511 62.661 62.841 63.006 63.218 63.366 63.503 63.726 63.911 64.113 64.303 64.508 64.716 64.936 65.126 65.298 65.501 65.656 65.823 65.966 66.098 66.281 66.431 66.586 66.698 66.796 66.881 66.958 67.001 67.081 67.148 67.238 67.331 67.431 67.521 67.656 67.786 67.908 68.031 68.153 68.268 68.356 68.451 68.581 68.711 68.783 68.861 68.956 69.058 69.173 69.268 69.383 69.503 69.618 69.718 69.836 69.943 70.048 70.156 70.213 70.296 70.356 70.406 70.438 70.478 70.488 70.478 70.493 70.503 70.481 70.526 70.566 70.583 70.623 70.626 70.661 70.698 70.768 70.828 70.873 70.903 70.918 70.941 71.016 71.093 71.136 71.223 71.288 71.356 71.438 71.486 71.541 71.593 71.651 71.693 71.716 71.791 71.881 71.961 72.023 72.078 72.148 72.226 72.271 72.346
62.078 61.968 61.828 61.703 61.598 61.501 61.403 61.266 61.146 61.023 60.906 60.728 60.566 60.408 60.236 60.106 59.968 59.823 59.693 59.643 60.756 59.318 57.818 58.088 55.911 55.098 54.128 54.348 53.348 52.706 52.198 51.558 50.741 49.923 49.421 49.213 48.336 48.066 48.641 47.178 45.626 44.201 42.931 42.413 42.098 40.613 39.128 37.198 35.778 34.431 33.388 33.098 31.961 31.303 30.361 29.546 29.241 32.693 30.721 29.666 28.778 28.426 28.076 27.813 27.763 27.701 27.483 27.348 27.978 33.211 38.566 36.258 40.028 -9999 -9999 -9999 -9999 -9999 -9999 -9999 -9999 -9999 -9999 -9999 32.255 29.728 25.261 25.993 26.996 28.071 28.641 28.718 28.633 28.676 28.476 28.158 27.963 27.766 27.643 27.516 27.453 27.531 27.691 27.776 27.936 28.161 28.508 28.916 29.351 29.736 30.123 30.388 30.778 31.176 31.681 32.173 32.763 33.063 33.551 33.946 34.271 34.601 34.803 34.998 35.281 35.543 35.836 36.118 36.338 36.458 36.666 36.846 36.991 37.261 37.653 37.738 38.133 38.553 39.121 39.821 40.428 41.146 42.016 43.806 46.003 46.171 46.838 49.031 48.701 49.618 50.708 51.701 52.668 53.501 53.878 54.911 54.606 54.753 54.886 54.993 55.091 55.206 55.311 55.441 55.568 55.683 55.828 55.963 56.116 56.293 56.468 56.668 56.873 57.068 57.253 57.486 57.681 57.868 58.093 58.308 58.516 58.743 58.958 59.143 59.363 59.573 59.783 59.976 60.143 60.306 60.458 60.571 60.641 60.723 60.746 60.801 60.793 60.823 60.858 60.876 60.886 60.898 60.926 60.916 60.898 60.951 60.958 60.993 61.018 61.036 61.046 61.096 61.111 61.158 61.158 61.188 61.191 61.211 61.226 61.236 61.261 61.276 61.291 61.288 61.306 61.331 61.333 61.328 61.306 61.301 61.283 61.288 61.276 61.256 61.228 61.243 61.228 61.231 61.226 61.253 61.261 61.271 61.268 61.286 61.263 61.281 61.258 61.253 61.251 61.211 61.208 61.193 61.228 61.261 61.298 61.348 61.358 61.411 61.441 61.473 61.498 61.526 61.541 61.561 61.588 61.606 61.618 61.598 61.608 61.593 61.588 61.583 61.563 61.586 61.593 61.586 61.613 61.626 61.626 61.623 61.633 61.608 61.588 61.538 61.508 61.513 61.516 61.523 61.516 61.563 61.588 61.563 61.578 61.553 61.553 61.556 61.556 61.551 61.583 61.628 61.656 61.688 61.723 61.748 61.788 61.818 61.793 61.793 61.773 61.731 61.663 61.611 61.561 61.488 61.461 61.373 61.276 61.213 61.156 61.086 61.028 60.973 60.941 60.871 60.813 60.803 61.998 62.483 63.803 61.936 62.106 62.276 62.433 62.598 62.746 62.946 63.111 63.248 63.411 63.603 63.826 64.023 64.216 64.411 64.638 64.848 65.043 65.248 65.416 65.581 65.743 65.878 66.056 66.208 66.368 66.516 66.606 66.721 66.793 66.876 66.943 67.018 67.116 67.193 67.273 67.361 67.486 67.578 67.733 67.871 67.988 68.088 68.188 68.298 68.388 68.513 68.648 68.678 68.791 68.896 68.993 69.111 69.226 69.328 69.413 69.531 69.641 69.748 69.858 69.926 70.041 70.111 70.193 70.251 70.318 70.353 70.381 70.386 70.366 70.386 70.416 70.403 70.461 70.483 70.498 70.531 70.536 70.583 70.641 70.706 70.756 70.806 70.833 70.866 70.903 70.963 71.018 71.083 71.163 71.243 71.306 71.351 71.418 71.498 71.516 71.551 71.628 71.658 71.728 71.828 71.916 71.973 72.048 72.108 72.201 72.231 72.291
62.056 61.958 61.821 61.706 61.583 61.513 61.403 61.278 61.178 61.036 60.893 60.726 60.561 60.388 60.266 60.136 59.991 59.813 59.738 59.723 60.378 59.443 59.928 56.538 55.821 54.816 54.068 54.241 53.341 52.503 51.946 51.161 50.313 49.711 49.433 49.038 49.211 49.646 49.786 48.201 47.708 44.816 42.748 42.041 43.893 44.518 46.178 37.111 35.536 34.221 33.283 32.633 32.031 31.418 30.506 29.616 29.253 29.061 28.978 29.016 28.976 28.496 30.358 27.846 27.778 28.638 27.538 28.273 31.136 31.738 36.031 35.048 39.878 -9999 -9999 -9999 -9999 -9999 -9999 -9999 -9999 -9999 -9999 -9999 32.515 28.173 25.246 26.311 27.136 27.621 28.308 28.763 28.648 28.473 28.333 28.156 27.966 27.781 27.681 27.531 27.456 27.568 27.678 27.783 28.211 28.151 28.513 28.986 29.368 29.753 30.063 30.386 30.791 31.193 31.651 32.131 32.596 33.073 33.571 33.986 34.323 34.621 34.898 35.093 35.298 35.581 35.858 36.186 36.461 36.463 36.696 36.866 37.001 37.258 37.483 37.788 38.233 38.658 39.198 39.756 40.361 41.666 43.213 43.221 44.006 44.996 46.418 47.918 48.463 49.596 50.743 51.766 52.708 53.596 54.026 54.576 54.716 54.838 54.963 55.051 55.156 55.283 55.396 55.538 55.658 55.793 55.938 56.058 56.218 56.401 56.578 56.753 56.938 57.126 57.328 57.523 57.751 57.953 58.176 58.411 58.618 58.856 59.081 59.286 59.471 59.681 59.861 60.066 60.223 60.373 60.526 60.633 60.706 60.778 60.818 60.826 60.853 60.901 60.898 60.941 60.958 60.961 60.953 60.956 60.966 61.003 61.011 61.043 61.068 61.071 61.141 61.186 61.188 61.223 61.276 61.298 61.283 61.286 61.286 61.288 61.316 61.291 61.331 61.341 61.346 61.371 61.363 61.378 61.378 61.358 61.388 61.391 61.371 61.341 61.341 61.316 61.321 61.303 61.323 61.328 61.303 61.321 61.353 61.366 61.351 61.356 61.343 61.366 61.348 61.351 61.358 61.353 61.343 61.388 61.388 61.426 61.473 61.501 61.536 61.546 61.568 61.593 61.623 61.673 61.696 61.696 61.693 61.693 61.693 61.683 61.676 61.661 61.651 61.661 61.673 61.673 61.688 61.723 61.736 61.708 61.721 61.663 61.641 61.616 61.571 61.531 61.556 61.581 61.591 61.618 61.656 61.613 61.643 61.613 61.643 61.658 61.661 61.681 61.716 61.736 61.763 61.826 61.856 61.868 61.906 61.916 61.926 61.926 61.903 61.883 61.823 61.748 61.676 61.598 61.503 61.448 61.348 61.308 61.238 61.156 61.106 61.061 61.021 60.988 60.923 60.881 61.553 65.401 62.431 61.961 62.081 62.243 62.398 62.526 62.721 62.856 62.991 63.133 63.338 63.526 63.736 63.918 64.111 64.296 64.526 64.738 64.936 65.163 65.341 65.506 65.673 65.818 66.003 66.168 66.323 66.456 66.553 66.646 66.726 66.788 66.866 66.948 67.061 67.141 67.223 67.293 67.418 67.561 67.678 67.831 67.916 68.033 68.146 68.248 68.348 68.476 68.556 68.608 68.728 68.826 68.938 69.043 69.161 69.273 69.371 69.463 69.556 69.663 69.751 69.823 69.936 70.013 70.098 70.138 70.211 70.243 70.281 70.281 70.288 70.306 70.313 70.356 70.396 70.421 70.446 70.468 70.458 70.488 70.558 70.621 70.688 70.746 70.768 70.813 70.851 70.918 70.973 71.051 71.133 71.193 71.251 71.298 71.363 71.406 71.458 71.501 71.571 71.601 71.696 71.773 71.848 71.916 71.998 72.081 72.128 72.178 72.241
62.063 61.953 61.828 61.708 61.608 61.513 61.391 61.281 61.193 61.058 60.926 60.758 60.591 60.423 60.288 60.146 60.018 59.866 59.781 60.066 59.843 60.146 58.198 56.406 55.453 54.263 53.623 53.491 53.041 52.293 51.676 50.653 49.718 49.551 49.496 50.263 50.643 52.313 51.943 50.718 50.601 45.048 42.796 42.073 44.066 48.193 47.478 42.378 35.923 34.383 33.351 32.608 31.943 31.551 30.788 30.093 29.363 29.248 29.083 29.203 29.156 31.508 28.271 27.973 27.836 27.733 28.683 30.466 30.206 26.681 33.468 35.808 -9999 -9999 -9999 -9999 -9999 -9999 -9999 -9999 -9999 -9999 -9999 -9999 -9999 28.791 25.596 25.988 26.378 27.436 28.438 28.713 28.683 28.513 28.381 28.203 28.003 27.841 27.708 27.593 27.513 27.601 27.708 27.848 28.071 28.181 28.583 28.926 29.271 29.711 30.243 30.458 30.838 31.288 31.731 32.228 32.781 34.136 34.191 34.066 34.378 34.666 34.941 35.233 35.448 35.688 35.928 36.221 36.558 36.506 36.696 36.838 36.953 37.161 37.471 37.826 38.328 38.841 39.283 39.786 40.668 41.408 44.333 43.121 43.818 44.928 46.096 47.326 48.458 49.651 50.846 51.918 52.971 53.701 54.061 55.038 54.816 54.903 54.993 55.128 55.241 55.358 55.473 55.616 55.756 55.876 56.011 56.161 56.321 56.503 56.668 56.861 57.021 57.208 57.406 57.628 57.823 58.063 58.291 58.513 58.748 58.968 59.188 59.396 59.601 59.783 59.963 60.141 60.321 60.448 60.571 60.683 60.738 60.811 60.833 60.863 60.921 60.936 60.958 60.986 61.003 61.008 61.021 61.001 60.991 61.038 61.026 61.088 61.106 61.151 61.191 61.268 61.293 61.331 61.358 61.398 61.421 61.398 61.398 61.376 61.363 61.343 61.353 61.371 61.386 61.406 61.438 61.441 61.468 61.458 61.478 61.463 61.476 61.456 61.461 61.416 61.428 61.426 61.408 61.423 61.383 61.403 61.416 61.411 61.428 61.453 61.443 61.441 61.468 61.458 61.468 61.468 61.508 61.498 61.498 61.526 61.561 61.583 61.611 61.631 61.636 61.673 61.713 61.743 61.753 61.773 61.771 61.783 61.798 61.778 61.776 61.756 61.771 61.771 61.773 61.776 61.808 61.806 61.826 61.816 61.808 61.743 61.748 61.683 61.638 61.601 61.631 61.661 61.663 61.696 61.711 61.706 61.708 61.711 61.716 61.731 61.761 61.798 61.828 61.858 61.906 61.956 61.988 61.963 62.028 62.036 62.026 62.018 62.026 61.968 61.933 61.876 61.781 61.691 61.596 61.483 61.418 61.381 61.281 61.221 61.163 61.118 61.096 61.051 61.018 60.991 60.928 61.166 61.726 61.766 62.021 62.188 62.338 62.513 62.678 62.761 62.908 63.071 63.266 63.456 63.643 63.831 64.011 64.228 64.428 64.666 64.873 65.073 65.251 65.428 65.588 65.771 65.943 66.136 66.238 66.398 66.521 66.593 66.686 66.743 66.843 66.921 67.033 67.101 67.211 67.301 67.403 67.513 67.636 67.753 67.861 67.978 68.086 68.196 68.306 68.423 68.476 68.551 68.668 68.756 68.858 68.993 69.101 69.203 69.303 69.396 69.486 69.576 69.666 69.726 69.833 69.906 69.978 70.051 70.131 70.141 70.168 70.183 70.203 70.228 70.218 70.281 70.318 70.346 70.383 70.393 70.418 70.438 70.476 70.546 70.571 70.631 70.671 70.701 70.781 70.843 70.921 71.003 71.081 71.146 71.201 71.258 71.298 71.346 71.408 71.463 71.496 71.521 71.628 71.721 71.796 71.863 71.953 72.036 72.081 72.143 72.196
