ncols 443
nrows 31
xllcorner    429024
yllcorner    541222
cellsize     2
NODATA_value -9999
35.692 35.689 35.704 35.702 35.709 35.709 35.689 35.663 35.652 35.651 35.677 35.689 35.7 35.755 35.582 35.437 35.479 35.569 35.542 35.555 35.6 35.947 36.047 36.06 35.967 35.752 35.633 35.756 35.769 35.993 36.208 36.245 36.253 36.069 35.965 35.897 35.92 35.82 35.832 35.837 35.85 35.75 35.717 35.757 35.745 35.77 35.825 35.957 36.717 35.557 35.385 35.287 35.345 35.36 35.392 35.407 35.44 35.445 35.492 35.525 35.54 35.557 35.565 35.547 35.572 35.57 35.585 35.592 35.6 35.552 35.595 35.6 35.607 35.625 35.602 35.627 35.635 35.615 35.635 35.66 35.69 35.675 35.697 35.725 35.747 35.772 35.787 35.825 35.842 35.875 35.897 35.912 35.915 35.925 35.96 35.98 36.007 36 36.042 36.045 36.062 36.085 36.095 36.14 36.157 36.172 36.205 36.232 36.262 36.265 36.277 36.267 36.28 36.27 36.337 36.405 36.467 36.53 36.605 36.745 36.865 37.032 37.212 37.437 37.615 37.802 37.932 38.105 38.297 38.53 38.65 38.882 39.542 39.38 39.307 39.012 38.71 38.692 38.65 38.71 38.785 38.81 38.825 38.895 38.96 38.94 38.937 38.927 38.935 38.887 38.84 38.8 38.755 38.695 38.602 38.557 38.467 38.392 38.302 38.232 38.122 38.037 37.917 37.827 37.747 37.672 37.595 37.535 37.485 37.435 37.387 37.37 37.347 37.302 37.3 37.24 37.242 37.225 37.207 37.207 37.197 37.18 37.157 37.13 37.125 37.112 37.115 37.062 37.07 37.052 37.042 37.07 37.055 37.1 37.135 37.145 37.175 37.205 37.25 37.217 37.197 37.225 37.252 37.27 37.265 37.3 37.302 37.315 37.337 37.362 37.347 37.36 37.352 37.36 37.325 37.335 37.335 37.365 37.37 37.362 37.38 37.36 37.382 37.412 37.457 37.472 37.462 37.422 37.435 37.457 37.442 37.465 37.485 37.482 37.487 37.485 37.522 37.57 37.602 37.585 37.597 37.6 37.627 37.64 37.615 37.604 37.599 37.617 37.601 37.571 37.591 37.587 37.567 37.556 37.556 37.558 37.51 37.523 37.541 37.519 37.549 37.545 37.567 37.607 37.615 37.63 37.662 37.732 37.71 37.725 37.775 37.76 37.79 37.775 37.815 37.822 37.865 37.837 37.877 37.895 37.93 37.962 37.992 38.007 38.042 38.112 38.12 38.162 38.2 38.255 38.26 38.31 38.337 38.345 38.355 38.315 38.307 38.35 38.425 38.477 38.537 38.582 38.667 38.737 38.75 38.747 38.767 38.802 38.842 38.9 38.955 39.057 39.122 39.217 39.322 39.42 39.512 39.595 39.64 39.677 39.727 39.737 39.787 39.815 39.947 40.13 41.257 42.625 41.057 41.232 42.312 46.932 48.475 46.967 42.12 42.195 42.247 45.957 49.7 50.932 45.572 43.947 43.825 45.722 47.195 42.927 41.322 41.58 42.43 40.89 40.965 40.602 40.447 40.377 41.11 40.957 41.13 42.722 42.712 42.77 42.772 42.722 42.732 42.7 42.662 42.765 42.675 42.707 42.61 42.652 42.677 42.722 42.632 42.725 42.687 42.662 42.677 42.64 42.697 42.705 42.582 42.61 42.705 42.647 42.605 42.62 42.562 42.555 42.657 42.495 40.56 40.262 40.255 40.312 40.382 40.402 40.44 40.465 40.472 40.502 40.555 40.945 40.772 40.667 40.68 40.7 40.73 40.752 40.787 40.777 40.812 40.86 40.892 40.907 40.922 40.942 40.972 40.992 41.037 41.062 41.12 41.147 41.185 41.217 41.255 41.3 41.297 41.292 41.31 41.357 41.41 41.45 41.477 41.52 41.552 41.565 41.6 41.61 41.625 41.615 41.652 41.737 41.735
35.691 35.686 35.686 35.701 35.707 35.708 35.664 35.652 35.662 35.678 35.682 35.673 35.71 35.74 35.485 35.409 35.51 35.538 35.527 35.585 35.81 36.186 35.949 35.842 35.533 35.528 35.583 35.693 36.045 36.231 36.166 36.163 36.193 36.253 36.215 35.809 35.717 35.713 35.734 35.752 35.74 35.715 35.73 35.705 35.715 35.72 35.722 35.85 36.72 35.567 35.415 35.29 35.32 35.337 35.395 35.412 35.43 35.447 35.485 35.505 35.535 35.542 35.572 35.545 35.535 35.572 35.577 35.597 35.58 35.557 35.552 35.585 35.612 35.63 35.635 35.617 35.61 35.6 35.625 35.64 35.67 35.682 35.69 35.707 35.715 35.757 35.765 35.82 35.84 35.87 35.887 35.905 35.935 35.915 35.952 35.942 36 36.01 36.065 36.1 36.077 36.077 36.1 36.11 36.155 36.177 36.21 36.245 36.29 36.315 36.305 36.327 36.332 36.272 36.35 36.42 36.467 36.562 36.657 36.787 36.93 37.092 37.265 37.457 37.667 37.89 38.032 38.19 38.362 38.565 38.735 38.867 39.515 39.605 39.482 39.295 38.805 38.77 38.71 38.732 38.792 38.832 38.847 38.91 38.91 38.907 38.935 38.922 38.897 38.87 38.817 38.75 38.727 38.67 38.587 38.512 38.452 38.347 38.242 38.142 38.045 37.955 37.857 37.807 37.7 37.615 37.58 37.502 37.44 37.417 37.392 37.367 37.315 37.312 37.28 37.237 37.232 37.202 37.207 37.182 37.182 37.147 37.142 37.117 37.12 37.107 37.1 37.06 37.07 37.052 37.042 37.067 37.07 37.097 37.117 37.157 37.17 37.207 37.23 37.202 37.245 37.232 37.257 37.267 37.275 37.285 37.307 37.335 37.322 37.352 37.35 37.387 37.365 37.315 37.377 37.33 37.34 37.35 37.355 37.36 37.357 37.38 37.387 37.412 37.437 37.445 37.452 37.44 37.437 37.422 37.47 37.465 37.437 37.467 37.482 37.485 37.522 37.537 37.557 37.557 37.565 37.607 37.587 37.625 37.597 37.605 37.603 37.617 37.59 37.609 37.612 37.583 37.568 37.562 37.545 37.522 37.516 37.516 37.508 37.54 37.55 37.577 37.547 37.577 37.605 37.627 37.672 37.68 37.7 37.71 37.737 37.802 37.767 37.765 37.76 37.8 37.83 37.835 37.865 37.885 37.895 37.912 37.955 37.98 38.015 38.047 38.08 38.142 38.177 38.235 38.227 38.252 38.255 38.272 38.292 38.315 38.322 38.37 38.437 38.51 38.59 38.63 38.637 38.672 38.715 38.73 38.792 38.84 38.862 38.902 39.02 39.1 39.175 39.267 39.362 39.47 39.565 39.612 39.697 39.747 39.782 39.84 39.872 39.912 40.037 40.185 41.177 40.985 41.042 41.515 41.51 43.197 43.27 43.33 42.757 42.06 42.447 44.922 46.17 45.205 43.222 44.237 43.967 46.127 47.292 42.7 41.59 40.705 40.512 40.982 41.035 40.85 41.24 40.377 40.37 40.832 40.672 42.692 42.715 42.737 42.732 42.727 42.76 42.77 42.712 42.705 42.715 42.705 42.715 42.745 42.705 42.662 42.67 42.757 42.647 42.72 42.685 42.66 42.65 42.615 42.74 42.672 42.615 42.595 42.687 42.645 42.565 42.612 42.625 42.552 42.067 40.77 40.25 40.297 40.382 40.392 40.422 40.462 40.48 40.515 40.645 41.11 40.88 40.64 40.677 40.707 40.762 40.78 40.79 40.797 40.832 40.865 40.9 40.895 40.91 40.94 40.982 41.017 41.03 41.055 41.115 41.15 41.192 41.225 41.362 41.33 41.332 41.335 41.352 41.387 41.422 41.48 41.52 41.565 41.577 41.562 41.585 41.622 41.65 41.757 41.945 41.955 41.867
35.671 35.682 35.683 35.688 35.699 35.692 35.675 35.649 35.644 35.665 35.653 35.677 35.78 35.645 35.467 35.403 35.442 35.464 35.53 35.564 35.62 35.638 35.487 35.457 35.501 35.489 35.603 35.877 36.226 36.107 36.237 36.202 36.1 36.204 36.295 35.87 35.622 35.657 35.657 35.686 35.701 35.718 35.847 35.312 35.332 35.5 35.502 35.955 37.37 35.58 35.405 35.3 35.302 35.322 35.365 35.387 35.42 35.427 35.467 35.492 35.502 35.517 35.57 35.58 35.562 35.587 35.585 35.587 35.572 35.542 35.572 35.61 35.615 35.622 35.617 35.595 35.617 35.607 35.632 35.635 35.632 35.65 35.68 35.712 35.73 35.747 35.797 35.792 35.842 35.825 35.895 35.912 35.927 35.945 35.955 35.957 36 36.035 36.057 36.077 36.082 36.087 36.1 36.125 36.15 36.202 36.225 36.265 36.32 36.307 36.327 36.332 36.33 36.37 36.382 36.407 36.477 36.55 36.655 36.785 36.96 37.135 37.337 37.56 37.745 37.985 38.152 38.267 38.42 38.64 38.802 38.932 39.287 39.962 39.605 39.477 39.06 38.822 38.8 38.807 38.807 38.867 38.927 38.907 38.92 38.94 38.965 38.927 38.905 38.88 38.825 38.75 38.715 38.627 38.54 38.472 38.38 38.29 38.187 38.075 38.005 37.912 37.81 37.735 37.642 37.597 37.52 37.48 37.44 37.41 37.367 37.357 37.3 37.292 37.25 37.24 37.235 37.195 37.19 37.147 37.145 37.16 37.135 37.117 37.122 37.097 37.09 37.092 37.07 37.05 37.055 37.07 37.097 37.097 37.12 37.15 37.175 37.182 37.212 37.215 37.237 37.262 37.26 37.262 37.287 37.312 37.315 37.342 37.33 37.347 37.362 37.375 37.372 37.33 37.352 37.325 37.342 37.347 37.355 37.362 37.365 37.382 37.395 37.41 37.457 37.485 37.475 37.477 37.467 37.44 37.435 37.452 37.42 37.452 37.465 37.495 37.502 37.517 37.54 37.582 37.59 37.592 37.58 37.597 37.605 37.617 37.591 37.59 37.611 37.604 37.592 37.556 37.555 37.556 37.525 37.532 37.523 37.516 37.504 37.512 37.52 37.542 37.522 37.53 37.597 37.61 37.61 37.632 37.675 37.725 37.725 37.76 37.75 37.745 37.765 37.795 37.815 37.84 37.857 37.852 37.842 37.88 37.912 37.97 37.97 38.015 38.057 38.072 38.095 38.195 38.19 38.237 38.267 38.262 38.305 38.32 38.325 38.392 38.47 38.5 38.57 38.585 38.605 38.667 38.707 38.79 38.792 38.865 38.897 38.972 39.037 39.112 39.21 39.34 39.417 39.522 39.622 39.662 39.75 39.857 39.887 39.927 39.95 40.015 40.077 40.242 40.925 41.195 41.232 41.285 41.447 41.517 46.29 46.325 43.87 42.112 42.352 43.725 47.315 50.29 46.882 44.15 43.895 45.63 47.52 44.417 41.64 40.93 40.47 40.447 40.582 40.492 40.425 41.325 40.84 40.427 40.44 42.527 42.737 42.752 42.795 42.717 42.7 42.732 42.73 42.757 42.755 42.677 42.65 42.637 42.732 42.67 42.77 42.667 42.685 42.72 42.64 42.745 42.645 42.642 42.612 42.592 42.607 42.632 42.677 42.58 42.657 42.685 42.57 42.625 42.55 40.33 40.252 40.325 40.382 40.382 40.415 40.46 40.467 40.512 40.572 41.032 41.03 40.685 40.697 40.732 40.772 40.795 40.8 40.812 40.832 40.855 40.875 40.895 40.93 40.955 40.985 41.012 41.025 41.052 41.107 41.155 41.2 41.267 41.77 41.53 41.38 41.385 41.42 41.445 41.442 41.38 42.725 41.977 41.592 41.68 41.717 41.94 45.385 41.762 41.747 41.78 41.952
35.663 35.66 35.679 35.693 35.693 35.671 35.649 35.649 35.666 35.679 35.669 35.682 35.716 35.458 35.42 35.367 35.422 35.454 35.495 35.572 35.544 35.43 35.523 35.485 35.452 35.441 35.581 36.006 36.223 36.077 36.15 36.13 36.158 36.197 36.306 35.912 35.582 35.605 35.635 35.644 35.702 35.753 35.698 35.281 35.236 35.093 35.08 35.81 37.172 35.815 35.422 35.302 35.295 35.29 35.365 35.427 35.442 35.445 35.48 35.492 35.52 35.527 35.565 35.587 35.567 35.58 35.542 35.592 35.6 35.562 35.587 35.61 35.61 35.612 35.627 35.62 35.627 35.642 35.647 35.63 35.622 35.662 35.69 35.7 35.735 35.737 35.76 35.78 35.82 35.842 35.87 35.882 35.922 35.952 35.97 35.972 36.005 36.025 36.057 36.077 36.112 36.132 36.122 36.127 36.162 36.187 36.227 36.26 36.287 36.3 36.312 36.33 36.332 36.36 36.402 36.445 36.49 36.585 36.662 36.802 36.945 37.177 37.417 37.602 37.797 38.007 38.19 38.327 38.455 38.655 38.832 38.98 39.17 39.84 39.75 39.685 39.447 38.905 38.88 38.847 38.875 38.91 38.96 38.962 38.957 38.995 38.997 38.997 38.927 38.88 38.822 38.76 38.685 38.61 38.525 38.442 38.337 38.25 38.145 38.032 37.95 37.847 37.75 37.7 37.61 37.55 37.5 37.445 37.4 37.36 37.345 37.315 37.277 37.267 37.22 37.222 37.17 37.17 37.187 37.157 37.17 37.15 37.137 37.132 37.115 37.12 37.097 37.055 37.07 37.062 37.055 37.08 37.102 37.117 37.142 37.147 37.195 37.185 37.225 37.245 37.237 37.242 37.247 37.292 37.307 37.322 37.327 37.362 37.355 37.377 37.352 37.365 37.377 37.38 37.35 37.37 37.367 37.367 37.38 37.392 37.407 37.44 37.422 37.445 37.472 37.477 37.487 37.485 37.46 37.467 37.482 37.457 37.465 37.447 37.465 37.48 37.505 37.502 37.55 37.557 37.545 37.57 37.57 37.57 37.552 37.599 37.602 37.618 37.604 37.581 37.586 37.582 37.557 37.542 37.548 37.558 37.506 37.484 37.489 37.509 37.482 37.49 37.477 37.515 37.532 37.545 37.555 37.585 37.637 37.652 37.712 37.742 37.742 37.757 37.755 37.752 37.765 37.792 37.81 37.8 37.81 37.865 37.925 37.932 37.942 37.98 38.002 38.022 38.09 38.152 38.195 38.227 38.28 38.255 38.312 38.315 38.385 38.385 38.412 38.422 38.507 38.542 38.587 38.69 38.725 38.78 38.847 38.885 38.937 38.992 39.075 39.18 39.277 39.387 39.505 39.61 39.687 39.762 39.842 39.955 39.952 39.982 40.027 40.072 40.105 40.31 40.597 41.662 44.51 45.145 43.185 46.27 42.075 44.322 46.71 44.842 47.105 43.677 45.19 47.735 44.63 43.967 43.927 45.295 47.662 44.51 41.695 41.015 41.41 42.115 40.445 41.092 40.427 40.407 40.49 41.625 40.487 41.505 42.745 42.73 42.755 42.795 42.732 42.772 42.71 42.695 42.77 42.667 42.722 42.655 42.7 42.725 42.745 42.67 42.727 42.695 42.627 42.665 42.625 42.747 42.685 42.627 42.62 42.71 42.595 42.592 42.675 42.597 42.607 42.347 41.415 40.565 41.877 40.777 40.382 40.39 40.417 40.455 40.457 40.492 40.555 40.877 41.12 40.775 40.707 40.725 40.755 40.78 40.805 40.82 40.837 40.857 40.87 40.9 40.92 40.95 40.992 41.047 41.057 41.085 41.132 41.177 41.212 41.257 41.592 41.697 41.455 41.467 41.477 41.52 41.9 42.085 45.492 43.757 42.745 43.162 42.277 41.977 42.992 41.79 45.565 43.277 42.05
35.66 35.677 35.693 35.687 35.695 35.656 35.64 35.647 35.655 35.663 35.658 35.726 35.672 35.372 35.296 35.292 35.385 35.521 35.554 35.496 35.494 35.61 35.646 35.624 35.494 35.42 35.587 36.067 36.217 36.12 36.107 36.13 36.154 36.338 36.291 35.909 35.58 35.641 35.785 35.857 36.027 36.081 35.939 35.751 35.56 35.283 35.196 35.669 37.04 36.079 35.4 35.285 35.297 35.267 35.355 35.425 35.442 35.445 35.48 35.495 35.525 35.552 35.572 35.565 35.607 35.602 35.612 35.627 35.597 35.587 35.587 35.612 35.597 35.61 35.59 35.602 35.612 35.632 35.64 35.63 35.622 35.645 35.657 35.677 35.73 35.747 35.762 35.822 35.825 35.86 35.895 35.9 35.927 35.962 35.977 36.012 36.03 36.03 36.055 36.097 36.12 36.102 36.122 36.16 36.177 36.195 36.222 36.28 36.302 36.287 36.322 36.322 36.352 36.382 36.417 36.447 36.51 36.59 36.71 36.847 37.022 37.212 37.427 37.652 37.852 38.072 38.282 38.417 38.54 38.685 38.875 38.972 39.16 39.542 40.025 39.757 39.602 39.162 39 38.962 38.942 38.972 38.96 38.98 39.017 38.99 39.015 39.005 38.957 38.892 38.835 38.77 38.687 38.605 38.505 38.4 38.305 38.212 38.105 37.985 37.895 37.825 37.72 37.645 37.567 37.53 37.457 37.397 37.367 37.35 37.335 37.305 37.287 37.25 37.212 37.197 37.182 37.167 37.152 37.132 37.16 37.142 37.14 37.127 37.12 37.092 37.097 37.072 37.087 37.082 37.062 37.095 37.092 37.11 37.107 37.145 37.165 37.187 37.217 37.215 37.272 37.267 37.255 37.295 37.292 37.327 37.325 37.36 37.377 37.4 37.405 37.425 37.422 37.42 37.4 37.417 37.395 37.405 37.42 37.465 37.442 37.44 37.452 37.475 37.49 37.482 37.502 37.482 37.46 37.475 37.515 37.472 37.457 37.457 37.495 37.482 37.487 37.497 37.517 37.557 37.537 37.55 37.575 37.595 37.592 37.6 37.583 37.591 37.599 37.608 37.599 37.556 37.563 37.542 37.56 37.523 37.484 37.486 37.462 37.454 37.45 37.455 37.48 37.515 37.512 37.537 37.555 37.61 37.642 37.67 37.692 37.722 37.722 37.745 37.727 37.697 37.74 37.74 37.752 37.755 37.785 37.835 37.842 37.87 37.917 37.927 37.965 37.995 38.082 38.117 38.145 38.202 38.222 38.295 38.297 38.315 38.33 38.33 38.38 38.432 38.46 38.53 38.617 38.647 38.712 38.79 38.81 38.86 38.942 39.04 39.135 39.26 39.325 39.457 39.55 39.655 39.74 39.832 39.92 40.012 40.04 40.09 40.112 40.165 40.192 40.307 40.51 41.805 41.765 41.385 41.457 42 45.415 46.732 46.837 43.512 42.462 42.6 46.185 49.47 44.532 43.63 43.935 44.252 47.455 45.807 41.812 41.09 40.525 40.427 40.972 40.482 41.165 40.89 40.462 40.395 40.912 40.78 42.447 42.752 42.74 42.742 42.782 42.727 42.8 42.697 42.732 42.707 42.66 42.792 42.687 42.73 42.677 42.67 42.737 42.692 42.835 42.697 42.71 42.69 42.66 42.75 42.727 42.675 42.642 42.687 42.12 41.317 40.957 40.447 40.352 40.467 42.627 42.295 40.437 40.385 40.407 40.452 40.472 40.492 40.517 40.647 41.075 40.847 40.717 40.732 40.765 40.765 40.812 40.84 40.842 40.845 40.872 40.905 40.95 40.975 41.02 41.057 41.085 41.112 41.15 41.177 41.225 41.28 41.327 41.432 41.53 41.6 41.627 41.645 41.92 42.927 42.227 43.102 43.952 41.767 41.777 41.882 41.867 41.892 41.867 41.877 43.54
35.685 35.684 35.695 35.695 35.665 35.662 35.669 35.64 35.642 35.656 35.645 35.73 35.58 35.336 35.268 35.264 35.383 35.491 35.482 35.456 35.554 35.546 35.662 35.902 35.709 35.467 35.548 36.062 36.283 36.209 36.129 36.12 36.164 36.412 36.318 35.975 35.662 36.149 36.508 36.636 36.746 36.804 36.664 36.599 36.32 36.084 35.748 35.885 37.109 35.9 35.429 35.282 35.275 35.265 35.357 35.41 35.412 35.407 35.467 35.502 35.522 35.532 35.552 35.575 35.582 35.6 35.59 35.605 35.59 35.587 35.587 35.595 35.605 35.6 35.607 35.587 35.595 35.622 35.63 35.622 35.645 35.64 35.65 35.705 35.735 35.75 35.76 35.797 35.797 35.825 35.862 35.927 35.942 35.937 35.982 36.022 36.052 36.1 36.092 36.102 36.115 36.112 36.132 36.16 36.187 36.187 36.21 36.257 36.317 36.332 36.335 36.352 36.347 36.387 36.417 36.47 36.527 36.607 36.732 36.877 37.052 37.272 37.482 37.71 37.905 38.09 38.327 38.505 38.57 38.71 38.9 39.057 39.192 39.437 40.137 39.865 39.742 39.37 39.057 39.045 39.002 39.01 38.997 39.017 39.085 39.05 39.062 39.057 39.005 38.96 38.895 38.802 38.702 38.615 38.492 38.395 38.307 38.182 38.085 37.972 37.887 37.767 37.67 37.61 37.56 37.46 37.435 37.39 37.362 37.332 37.31 37.287 37.272 37.247 37.232 37.217 37.207 37.177 37.185 37.167 37.135 37.14 37.142 37.135 37.125 37.12 37.115 37.102 37.097 37.115 37.065 37.082 37.092 37.097 37.097 37.132 37.152 37.197 37.242 37.242 37.242 37.29 37.297 37.287 37.325 37.327 37.37 37.367 37.395 37.417 37.452 37.457 37.46 37.452 37.48 37.477 37.482 37.46 37.452 37.477 37.445 37.452 37.452 37.485 37.497 37.5 37.51 37.502 37.492 37.47 37.525 37.495 37.47 37.457 37.475 37.462 37.497 37.492 37.51 37.545 37.515 37.565 37.597 37.612 37.6 37.589 37.594 37.611 37.598 37.58 37.567 37.572 37.581 37.553 37.504 37.508 37.504 37.472 37.44 37.447 37.447 37.452 37.455 37.48 37.495 37.557 37.592 37.605 37.632 37.647 37.662 37.702 37.71 37.69 37.69 37.677 37.72 37.72 37.732 37.745 37.79 37.797 37.81 37.84 37.875 37.922 37.977 38.027 38.057 38.067 38.165 38.232 38.26 38.287 38.312 38.277 38.295 38.32 38.365 38.427 38.462 38.502 38.56 38.632 38.725 38.802 38.867 38.925 38.987 39.085 39.18 39.285 39.37 39.507 39.587 39.687 39.825 39.912 39.99 40.052 40.132 40.195 40.2 40.265 40.287 40.38 40.512 41.732 41.557 41.377 41.832 41.697 42.695 42.915 43.04 42.092 42.357 42.502 44.332 45.235 43.5 44.045 43.97 44.015 47.405 46.04 41.987 41.31 40.59 40.675 41.93 40.577 40.45 40.947 41.745 41.01 40.807 40.407 41.872 42.805 42.78 42.77 42.757 42.712 42.702 42.792 42.705 42.812 42.655 42.665 42.672 42.745 42.697 42.772 42.662 42.792 42.72 42.73 42.785 42.675 42.662 42.65 42.16 41.59 41.345 40.95 40.335 40.365 40.377 40.37 40.352 40.315 42.997 43.43 40.49 40.42 40.417 40.425 40.442 40.475 40.505 40.59 40.647 40.717 40.705 40.727 40.765 40.8 40.817 40.84 40.847 40.865 40.917 40.935 40.987 41.007 41.025 41.075 41.092 41.14 41.182 41.21 42.612 42.6 42.187 41.53 41.635 41.75 41.802 41.84 41.827 47.02 42.012 41.99 42.955 41.9 41.897 41.892 42.11 42.417 41.927 42.685 46.842
35.682 35.685 35.678 35.659 35.664 35.672 35.669 35.652 35.638 35.645 35.653 35.684 35.515 35.354 35.356 35.369 35.344 35.44 35.481 35.496 35.788 35.942 35.975 36.012 35.861 35.41 35.465 36.001 36.253 36.344 36.178 36.118 36.244 36.295 36.296 35.926 35.736 36.38 36.785 36.4 35.841 36.17 36.722 37.107 37.155 36.88 36.525 36.121 37.067 36.077 35.426 35.29 35.283 35.28 35.341 35.414 35.422 35.425 35.475 35.49 35.532 35.545 35.572 35.56 35.577 35.605 35.59 35.617 35.617 35.605 35.602 35.607 35.61 35.612 35.635 35.582 35.59 35.602 35.627 35.625 35.657 35.662 35.68 35.672 35.73 35.76 35.795 35.82 35.847 35.86 35.882 35.925 35.935 35.955 36 36 36.055 36.077 36.122 36.12 36.13 36.147 36.15 36.162 36.187 36.217 36.22 36.262 36.297 36.345 36.352 36.362 36.362 36.405 36.42 36.47 36.532 36.617 36.74 36.885 37.035 37.29 37.52 37.757 37.962 38.19 38.377 38.547 38.642 38.745 38.895 39.067 39.23 39.407 40.07 40.037 39.87 39.705 39.162 39.162 39.062 39.065 39.09 39.107 39.135 39.145 39.145 39.102 39.055 39.01 38.915 38.84 38.717 38.61 38.492 38.4 38.277 38.167 38.062 37.94 37.845 37.747 37.657 37.592 37.51 37.445 37.397 37.365 37.355 37.33 37.277 37.3 37.26 37.242 37.23 37.23 37.235 37.195 37.185 37.162 37.16 37.147 37.127 37.155 37.117 37.102 37.115 37.11 37.115 37.12 37.057 37.085 37.097 37.11 37.12 37.137 37.18 37.212 37.225 37.272 37.28 37.327 37.322 37.34 37.372 37.37 37.4 37.435 37.425 37.472 37.472 37.5 37.507 37.517 37.51 37.48 37.492 37.492 37.49 37.49 37.52 37.497 37.485 37.51 37.505 37.525 37.545 37.54 37.515 37.487 37.497 37.477 37.442 37.445 37.467 37.48 37.495 37.525 37.515 37.54 37.562 37.585 37.587 37.597 37.603 37.624 37.607 37.592 37.594 37.579 37.579 37.568 37.557 37.524 37.498 37.496 37.494 37.449 37.438 37.442 37.425 37.447 37.47 37.475 37.512 37.535 37.55 37.547 37.592 37.61 37.65 37.677 37.687 37.677 37.68 37.695 37.682 37.702 37.7 37.737 37.765 37.792 37.807 37.842 37.87 37.92 37.95 37.975 38.09 38.145 38.18 38.215 38.215 38.235 38.247 38.305 38.317 38.36 38.367 38.365 38.462 38.49 38.585 38.667 38.747 38.805 38.917 38.97 39.037 39.135 39.225 39.347 39.432 39.547 39.67 39.79 39.885 39.99 40.06 40.147 40.217 40.255 40.275 40.342 40.377 40.45 40.61 41.427 41.892 41.485 41.525 41.782 42.35 46.267 44.537 42.055 42.287 42.667 44.072 47.92 46.79 43.84 43.99 44.5 47.732 45.79 42.22 41.592 40.78 41.02 41.257 40.652 41.407 40.48 40.455 40.807 41.282 40.977 41.4 42.712 42.735 42.72 42.787 42.765 42.755 42.697 42.707 42.727 42.737 42.71 42.757 42.667 42.745 42.692 42.697 42.797 42.695 42.787 42.497 42.225 41.502 40.53 40.4 40.4 40.365 40.37 40.362 40.357 40.362 40.37 40.362 40.342 40.652 43.592 40.862 40.41 40.417 40.452 40.462 40.487 40.495 40.552 40.617 40.63 40.715 40.727 40.75 40.795 40.812 40.847 40.855 40.89 40.927 40.97 40.992 41.02 41.07 41.11 41.155 41.202 41.762 42.74 45.022 46.642 41.6 41.785 41.815 41.927 41.982 42.055 42.065 43.237 42.427 43.032 43.732 42.427 43.372 42.3 42.925 45.397 45.97 45.042 47.45
35.692 35.67 35.682 35.65 35.662 35.662 35.66 35.648 35.662 35.658 35.695 35.568 35.389 35.462 35.544 35.315 35.343 35.782 35.614 35.907 36.104 35.99 35.712 35.807 35.788 35.414 35.427 35.983 36.27 36.292 36.195 36.111 36.117 36.24 36.346 35.926 35.775 36.337 36.714 36.136 35.588 35.314 36.341 37.341 38.94 38.066 37.037 36.505 36.901 36.37 35.395 35.253 35.281 35.268 35.353 35.38 35.414 35.42 35.453 35.499 35.53 35.56 35.585 35.577 35.61 35.607 35.602 35.595 35.615 35.61 35.605 35.632 35.625 35.62 35.622 35.65 35.617 35.617 35.652 35.627 35.625 35.67 35.677 35.702 35.697 35.75 35.777 35.797 35.807 35.855 35.882 35.902 35.952 35.965 35.977 36.03 36.042 36.085 36.117 36.127 36.155 36.172 36.165 36.195 36.192 36.215 36.24 36.262 36.292 36.317 36.365 36.357 36.362 36.4 36.447 36.46 36.537 36.64 36.755 36.902 37.117 37.34 37.56 37.767 37.982 38.24 38.417 38.6 38.715 38.812 38.95 39.122 39.267 39.397 39.777 40.397 40.002 39.935 39.482 39.205 39.192 39.13 39.13 39.192 39.177 39.18 39.157 39.14 39.107 39.05 38.94 38.86 38.745 38.625 38.505 38.397 38.312 38.197 38.062 37.925 37.837 37.722 37.625 37.545 37.502 37.445 37.385 37.352 37.3 37.312 37.302 37.292 37.245 37.245 37.232 37.217 37.215 37.217 37.195 37.175 37.16 37.185 37.152 37.16 37.15 37.137 37.127 37.132 37.11 37.112 37.132 37.112 37.1 37.117 37.142 37.147 37.202 37.237 37.262 37.32 37.352 37.345 37.37 37.392 37.407 37.415 37.45 37.47 37.49 37.532 37.537 37.545 37.56 37.557 37.56 37.567 37.562 37.545 37.502 37.53 37.567 37.507 37.515 37.522 37.512 37.535 37.55 37.552 37.522 37.525 37.502 37.472 37.5 37.487 37.47 37.48 37.492 37.507 37.512 37.552 37.585 37.58 37.59 37.596 37.61 37.623 37.602 37.617 37.58 37.569 37.57 37.572 37.564 37.536 37.517 37.51 37.489 37.485 37.431 37.43 37.422 37.43 37.452 37.465 37.502 37.517 37.547 37.537 37.57 37.6 37.62 37.625 37.67 37.69 37.687 37.675 37.68 37.68 37.687 37.73 37.747 37.765 37.79 37.795 37.85 37.942 37.982 38.03 38.065 38.095 38.097 38.162 38.197 38.245 38.252 38.28 38.3 38.315 38.36 38.395 38.44 38.507 38.587 38.685 38.755 38.82 38.94 39.035 39.072 39.212 39.265 39.377 39.51 39.615 39.71 39.845 39.977 40.065 40.15 40.2 40.31 40.335 40.365 40.407 40.482 40.502 40.752 41.182 42.102 44.42 42.375 42.827 42.42 42.697 43.33 47.25 43.15 44.342 45.452 49.177 45.85 44.115 44.002 44.897 46.625 44.757 42.48 41.805 41.03 40.477 40.62 40.725 40.615 41.705 40.382 40.442 40.45 40.877 41.027 42.825 42.77 42.707 42.712 42.782 42.742 42.772 42.735 42.72 42.692 42.675 42.805 42.705 42.767 42.695 42.667 42.3 41.88 40.597 40.44 40.417 40.39 40.4 40.397 40.38 40.357 40.372 40.367 40.345 40.34 40.375 40.385 40.352 40.442 42.595 41.635 40.4 40.415 40.457 40.457 40.472 40.497 40.545 40.61 40.835 40.805 40.745 40.76 40.812 40.85 40.865 40.882 40.915 40.952 40.98 40.98 41.075 41.08 41.18 41.195 41.24 41.637 41.492 41.392 41.7 41.91 42.085 42.032 42.137 42.2 42.275 42.327 43.472 45.32 46.525 46.83 46.36 46.775 46.857 47.037 47.467 47.852 48.12 47.605
35.682 35.675 35.655 35.66 35.652 35.67 35.662 35.677 35.657 35.645 35.623 35.391 35.322 35.416 35.33 35.373 35.314 35.46 35.552 35.951 35.722 35.233 35.232 35.267 35.138 35.302 35.377 35.935 36.3 36.221 36.157 36.181 36.243 36.304 36.438 36.274 36.133 36.385 36.709 36.088 35.26 35.136 36.597 37.365 39.133 38.712 37.983 37.127 37.3 36.531 35.429 35.26 35.269 35.252 35.309 35.378 35.407 35.396 35.427 35.45 35.508 35.554 35.573 35.587 35.59 35.59 35.585 35.627 35.627 35.605 35.622 35.625 35.61 35.607 35.59 35.62 35.597 35.635 35.645 35.637 35.645 35.64 35.657 35.687 35.72 35.762 35.8 35.8 35.837 35.867 35.897 35.935 35.975 35.99 36.022 36.017 36.052 36.117 36.117 36.157 36.17 36.162 36.167 36.167 36.17 36.2 36.24 36.257 36.265 36.305 36.365 36.38 36.417 36.435 36.442 36.482 36.522 36.622 36.775 36.937 37.122 37.345 37.572 37.777 38.037 38.27 38.477 38.657 38.795 38.865 38.967 39.112 39.28 39.382 39.61 40.435 40.107 40.08 39.805 39.292 39.297 39.177 39.177 39.212 39.267 39.225 39.207 39.17 39.15 39.1 39.017 38.91 38.775 38.647 38.537 38.437 38.287 38.192 38.08 37.947 37.847 37.735 37.62 37.55 37.505 37.425 37.367 37.337 37.287 37.305 37.275 37.28 37.26 37.277 37.242 37.232 37.212 37.207 37.175 37.157 37.187 37.195 37.182 37.192 37.185 37.157 37.14 37.17 37.135 37.115 37.095 37.12 37.13 37.147 37.132 37.182 37.205 37.237 37.282 37.322 37.382 37.387 37.402 37.417 37.43 37.482 37.49 37.507 37.537 37.6 37.612 37.622 37.612 37.585 37.627 37.61 37.595 37.582 37.567 37.585 37.595 37.55 37.552 37.557 37.547 37.555 37.587 37.565 37.522 37.542 37.545 37.505 37.487 37.487 37.455 37.477 37.487 37.502 37.522 37.542 37.562 37.592 37.626 37.639 37.596 37.639 37.633 37.635 37.607 37.588 37.587 37.573 37.565 37.544 37.537 37.519 37.517 37.449 37.437 37.422 37.442 37.425 37.442 37.455 37.487 37.502 37.57 37.557 37.585 37.59 37.547 37.625 37.667 37.68 37.665 37.67 37.7 37.68 37.725 37.712 37.752 37.75 37.787 37.832 37.892 37.937 37.967 37.94 38.027 38.072 38.095 38.132 38.182 38.21 38.25 38.302 38.277 38.317 38.357 38.38 38.435 38.52 38.587 38.662 38.762 38.832 38.942 39.045 39.13 39.217 39.317 39.435 39.547 39.655 39.812 39.937 40.055 40.167 40.195 40.305 40.367 40.415 40.455 40.507 40.55 40.57 40.77 40.885 42.092 41.85 41.735 41.72 41.755 45.997 48.362 46.712 42.322 42.512 42.74 46.655 44.13 43.815 44.02 45.07 45.157 44.267 43.432 41.975 41.365 40.625 41.472 41.7 40.43 40.502 41.3 41.775 40.49 41.197 40.52 42.797 42.775 42.752 42.735 42.765 42.72 42.722 42.817 42.78 42.905 42.69 42.702 42.777 41.802 41.602 40.415 40.41 40.437 40.44 40.422 40.41 40.412 40.38 40.395 40.387 40.36 40.372 40.357 40.352 40.35 40.375 40.382 40.34 40.685 43.295 42.137 40.427 40.44 40.465 40.482 40.477 40.507 40.537 40.707 41.192 41.042 40.747 40.797 40.845 40.86 40.877 40.912 40.942 40.982 41.022 41.087 42.98 41.21 41.272 41.225 41.247 44.53 43.65 44.337 42.187 42.28 42.747 43.112 42.375 42.447 42.512 42.61 44.385 45.877 47.397 47.15 47.457 47.215 46.932 47.07 47.345 47.225 47.575 45.202
35.682 35.677 35.665 35.675 35.665 35.667 35.67 35.655 35.645 35.65 35.582 35.407 35.447 35.353 35.378 35.335 35.259 35.389 35.657 36.179 35.9 35.083 34.595 34.399 34.714 35.25 35.38 35.964 36.255 36.228 36.114 36.041 36.164 36.327 36.544 36.412 36.328 36.356 36.623 36.081 35.721 35.577 37.044 37.905 37.842 38.389 39.93 37.888 37.394 36.464 35.434 35.262 35.27 35.232 35.278 35.356 35.402 35.411 35.454 35.48 35.502 35.524 35.569 35.596 35.601 35.605 35.629 35.602 35.6 35.607 35.63 35.63 35.62 35.622 35.61 35.615 35.627 35.635 35.64 35.607 35.622 35.65 35.657 35.7 35.747 35.747 35.78 35.835 35.86 35.89 35.912 35.96 35.975 35.98 36.015 36.027 36.097 36.12 36.11 36.162 36.162 36.192 36.207 36.222 36.207 36.2 36.25 36.262 36.272 36.337 36.37 36.357 36.402 36.397 36.442 36.487 36.547 36.67 36.812 36.995 37.185 37.397 37.617 37.85 38.07 38.285 38.487 38.66 38.857 38.925 38.995 39.117 39.32 39.43 39.552 40.192 40.285 40.172 39.917 39.48 39.357 39.257 39.19 39.24 39.315 39.275 39.25 39.22 39.19 39.13 39.087 38.932 38.802 38.695 38.567 38.42 38.33 38.172 38.062 37.965 37.837 37.762 37.627 37.545 37.485 37.415 37.367 37.345 37.297 37.305 37.305 37.3 37.27 37.277 37.26 37.245 37.207 37.202 37.195 37.212 37.202 37.192 37.197 37.182 37.195 37.175 37.177 37.165 37.14 37.165 37.135 37.152 37.165 37.17 37.185 37.217 37.227 37.265 37.302 37.36 37.4 37.445 37.46 37.505 37.49 37.527 37.547 37.582 37.607 37.665 37.665 37.652 37.662 37.66 37.662 37.667 37.65 37.642 37.625 37.592 37.62 37.582 37.592 37.59 37.582 37.587 37.597 37.525 37.54 37.577 37.552 37.517 37.522 37.505 37.47 37.485 37.492 37.522 37.52 37.565 37.577 37.577 37.636 37.658 37.627 37.652 37.648 37.632 37.638 37.628 37.602 37.569 37.572 37.554 37.514 37.466 37.456 37.446 37.445 37.435 37.412 37.437 37.472 37.447 37.48 37.527 37.502 37.515 37.547 37.577 37.59 37.58 37.645 37.72 37.68 37.68 37.69 37.7 37.672 37.717 37.74 37.75 37.79 37.872 37.867 37.872 37.897 37.947 38.005 38.06 38.07 38.132 38.165 38.22 38.235 38.27 38.28 38.327 38.337 38.39 38.425 38.5 38.565 38.635 38.765 38.85 38.955 39.09 39.197 39.287 39.387 39.525 39.64 39.737 39.872 40.007 40.117 40.205 40.295 40.36 40.435 40.532 40.527 40.59 40.632 40.685 40.8 40.985 42.05 41.787 41.827 41.855 41.895 42.442 43.537 47.852 46.045 42.615 42.717 44.325 46.16 43.81 44.002 45.032 44.712 45.217 43.775 42.215 41.587 40.78 41.252 40.905 41.582 41.13 40.535 40.572 41.112 40.992 41.417 41.722 42.737 42.73 42.775 42.75 42.855 42.735 42.73 42.755 42.377 42.277 40.997 40.81 40.467 40.462 40.452 40.437 40.44 40.435 40.435 40.417 40.392 40.4 40.387 40.377 40.385 40.375 40.357 40.372 40.365 40.355 40.347 40.347 40.362 41.392 42.602 40.542 40.477 40.487 40.487 40.49 40.522 40.57 40.622 41.067 41.082 40.797 40.825 40.862 40.885 40.93 40.982 41.615 40.975 41.57 41.112 41.952 41.612 41.247 41.35 41.292 43.095 44.572 47.212 44.312 43.61 45.997 47.035 43.365 42.71 42.745 42.81 43.197 43.657 43.842 43.735 43.77 43.782 44.387 44.105 44.277 44.892 44.86 44.53
35.687 35.672 35.682 35.677 35.68 35.66 35.675 35.672 35.647 35.725 35.575 35.42 35.537 35.555 35.392 35.385 35.269 35.225 35.296 35.789 36.014 35.71 35.08 35.109 35.236 35.281 35.418 35.841 36.239 36.094 36.134 36.136 36.171 36.304 36.455 36.208 36.14 36.308 36.702 36.524 36.107 36.022 36.697 38.409 38.121 37.312 37.806 36.283 36.178 35.966 35.396 35.267 35.275 35.269 35.28 35.331 35.362 35.413 35.452 35.471 35.496 35.521 35.556 35.573 35.575 35.603 35.606 35.622 35.626 35.616 35.622 35.622 35.64 35.625 35.627 35.63 35.607 35.605 35.612 35.615 35.612 35.66 35.665 35.685 35.73 35.747 35.79 35.812 35.835 35.87 35.932 35.957 35.992 36.022 36.035 36.022 36.095 36.122 36.13 36.145 36.137 36.167 36.19 36.197 36.212 36.235 36.257 36.287 36.3 36.342 36.382 36.385 36.387 36.432 36.475 36.51 36.6 36.697 36.827 36.987 37.192 37.402 37.642 37.875 38.09 38.335 38.525 38.697 38.872 38.985 39.06 39.13 39.285 39.457 39.545 39.817 40.352 40.222 40.072 39.722 39.4 39.355 39.272 39.272 39.315 39.272 39.275 39.262 39.22 39.182 39.12 38.992 38.915 38.745 38.585 38.462 38.332 38.205 38.082 37.962 37.84 37.727 37.645 37.572 37.467 37.427 37.365 37.327 37.335 37.327 37.325 37.312 37.277 37.252 37.235 37.24 37.242 37.232 37.215 37.2 37.212 37.202 37.185 37.205 37.187 37.182 37.187 37.17 37.17 37.205 37.167 37.177 37.187 37.195 37.202 37.22 37.247 37.292 37.342 37.392 37.422 37.485 37.512 37.55 37.57 37.625 37.622 37.65 37.655 37.68 37.712 37.702 37.73 37.727 37.722 37.732 37.7 37.715 37.672 37.65 37.642 37.64 37.642 37.625 37.62 37.615 37.617 37.605 37.592 37.592 37.55 37.527 37.517 37.515 37.485 37.505 37.5 37.522 37.507 37.55 37.582 37.612 37.603 37.638 37.645 37.651 37.657 37.646 37.646 37.624 37.592 37.601 37.57 37.565 37.532 37.498 37.471 37.445 37.472 37.43 37.452 37.43 37.472 37.467 37.442 37.492 37.515 37.502 37.54 37.567 37.62 37.607 37.655 37.73 37.712 37.695 37.655 37.682 37.697 37.722 37.8 37.795 37.8 37.787 37.83 37.855 37.91 37.96 37.96 38.015 38.067 38.15 38.17 38.212 38.272 38.255 38.265 38.28 38.325 38.412 38.43 38.487 38.555 38.62 38.77 38.895 38.997 39.11 39.245 39.362 39.507 39.607 39.717 39.81 39.955 40.072 40.16 40.287 40.39 40.455 40.54 40.612 40.662 40.682 40.717 40.78 40.81 40.992 41.407 42.112 41.892 41.88 44.242 43.345 50.125 49.962 45.142 42.477 42.737 45.027 50.507 44.465 44.027 45.565 44.932 46.987 45.485 42.945 41.88 41.192 40.685 40.55 40.52 40.845 41.255 40.485 40.622 40.5 40.497 41.38 42.745 42.832 42.767 42.75 42.662 42.452 41.477 41.257 40.497 40.497 40.51 40.51 40.487 40.47 40.452 40.455 40.47 40.432 40.43 40.415 40.41 40.405 40.4 40.382 40.382 40.372 40.37 40.35 40.357 40.345 40.337 40.335 40.35 40.922 43.85 41.572 40.49 40.497 40.522 40.535 40.56 40.62 40.652 40.81 40.777 40.822 40.857 40.917 41.035 40.982 41.022 41.035 41.015 41.08 41.13 42.037 41.6 41.355 41.335 41.38 42.685 44.89 42.877 45.875 47.39 47.265 45.055 43.755 42.98 43.04 43.047 43.15 43.282 43.372 43.467 43.562 44.552 50.375 49.36 50.667 44.042 44.017 44.09
35.69 35.702 35.68 35.682 35.677 35.672 35.685 35.697 35.665 35.712 35.53 35.587 35.47 35.55 35.355 35.245 35.222 35.257 35.407 36.135 36.334 35.851 35.438 35.361 35.337 35.458 35.39 35.748 36.147 36.257 36.205 36.166 36.169 36.356 36.189 35.895 35.912 35.999 36.341 36.53 36.56 36.569 36.546 36.429 35.972 36.07 36.127 35.671 36.521 35.997 35.538 35.275 35.244 35.233 35.278 35.344 35.375 35.403 35.437 35.46 35.475 35.51 35.545 35.556 35.582 35.6 35.589 35.614 35.618 35.598 35.599 35.612 35.635 35.625 35.62 35.612 35.622 35.63 35.64 35.657 35.63 35.677 35.672 35.687 35.73 35.765 35.78 35.822 35.845 35.88 35.935 35.975 35.99 36.027 36.012 36.06 36.102 36.117 36.15 36.147 36.137 36.1 36.21 36.167 36.202 36.227 36.262 36.28 36.295 36.342 36.355 36.385 36.4 36.43 36.475 36.542 36.627 36.727 36.857 37.02 37.237 37.417 37.68 37.912 38.122 38.362 38.537 38.722 38.875 38.967 39.05 39.165 39.29 39.455 39.547 39.73 40.507 40.325 40.245 39.935 39.49 39.48 39.327 39.325 39.325 39.325 39.282 39.28 39.26 39.22 39.145 39.005 38.905 38.767 38.657 38.505 38.372 38.245 38.11 37.975 37.872 37.747 37.66 37.562 37.477 37.425 37.37 37.332 37.327 37.352 37.325 37.297 37.307 37.3 37.267 37.275 37.235 37.255 37.225 37.195 37.237 37.232 37.237 37.242 37.215 37.217 37.2 37.24 37.227 37.222 37.227 37.212 37.205 37.23 37.275 37.297 37.332 37.335 37.377 37.425 37.46 37.535 37.552 37.597 37.637 37.68 37.687 37.695 37.73 37.735 37.76 37.757 37.795 37.795 37.797 37.777 37.722 37.747 37.732 37.717 37.702 37.687 37.667 37.652 37.665 37.655 37.655 37.675 37.647 37.64 37.595 37.575 37.537 37.54 37.532 37.505 37.502 37.535 37.52 37.547 37.557 37.618 37.62 37.653 37.647 37.651 37.663 37.664 37.647 37.642 37.626 37.611 37.577 37.563 37.554 37.503 37.472 37.475 37.44 37.44 37.437 37.44 37.46 37.442 37.46 37.487 37.502 37.525 37.557 37.552 37.56 37.595 37.652 37.69 37.67 37.675 37.675 37.712 37.725 37.742 37.762 37.762 37.797 37.79 37.8 37.827 37.905 37.917 37.942 37.997 38.037 38.092 38.17 38.207 38.217 38.265 38.257 38.315 38.332 38.35 38.405 38.487 38.567 38.642 38.797 38.917 39.052 39.19 39.327 39.39 39.547 39.665 39.802 39.915 40.015 40.157 40.257 40.342 40.472 40.547 40.607 40.65 40.737 40.765 40.797 40.85 40.857 41.007 41.175 42.315 46.51 46.77 47.8 42.435 42.947 45.967 47.6 45.457 43.875 47.63 46.77 44.162 44.01 44.597 43.805 45.715 47.132 44.497 42.632 41.8 41.3 40.822 40.505 40.575 40.467 41.345 41.495 40.91 41.112 40.43 42.48 42.56 41.875 41.295 40.742 40.542 40.557 40.54 40.462 40.5 40.505 40.482 40.497 40.452 40.472 40.46 40.452 40.445 40.435 40.417 40.41 40.42 40.382 40.385 40.365 40.377 40.367 40.35 40.37 40.365 40.342 40.357 40.342 40.492 42.3 41.115 40.52 40.535 40.565 40.622 40.66 40.677 41.065 43.097 41.662 41.08 40.915 40.965 40.987 41.007 41.045 41.157 41.147 41.165 41.23 42.81 48.35 43.065 41.412 41.732 43.377 44.952 45.312 46.89 47.21 44.367 43.215 43.197 43.222 43.265 43.277 43.325 43.432 43.6 43.722 43.777 43.867 45.112 49.32 45.617 44.072 44.045 44.072
35.71 35.712 35.705 35.712 35.707 35.675 35.692 35.677 35.675 35.61 35.625 35.5 35.517 35.497 35.297 35.237 35.24 35.252 35.345 35.635 36.22 35.977 35.447 35.44 35.482 35.634 35.514 35.564 35.805 36.151 36.272 36.292 36.266 36.242 35.862 35.688 35.648 35.638 35.746 35.951 35.872 35.764 35.731 35.717 35.695 35.783 35.988 36.527 37.421 36.419 35.434 35.255 35.223 35.225 35.281 35.349 35.373 35.387 35.413 35.445 35.491 35.496 35.536 35.548 35.561 35.581 35.602 35.619 35.625 35.621 35.619 35.616 35.622 35.628 35.62 35.587 35.6 35.629 35.63 35.63 35.64 35.645 35.66 35.69 35.757 35.757 35.792 35.825 35.852 35.885 35.947 35.982 35.972 36.025 36.06 36.082 36.12 36.117 36.097 36.11 36.167 36.137 36.19 36.182 36.21 36.242 36.272 36.285 36.292 36.342 36.362 36.402 36.43 36.472 36.517 36.582 36.645 36.757 36.885 37.032 37.242 37.43 37.685 37.945 38.167 38.372 38.572 38.72 38.897 39.042 39.125 39.195 39.3 39.452 39.585 39.722 40.082 40.575 40.342 40.095 39.69 39.49 39.407 39.345 39.35 39.352 39.292 39.327 39.29 39.227 39.152 39.032 38.965 38.81 38.677 38.545 38.422 38.272 38.17 38.027 37.92 37.805 37.7 37.572 37.512 37.472 37.415 37.375 37.347 37.347 37.312 37.31 37.3 37.302 37.295 37.292 37.302 37.31 37.275 37.265 37.265 37.272 37.265 37.247 37.26 37.297 37.275 37.285 37.282 37.277 37.287 37.247 37.255 37.277 37.29 37.355 37.345 37.38 37.437 37.47 37.512 37.56 37.597 37.637 37.695 37.727 37.735 37.755 37.777 37.797 37.822 37.81 37.872 37.857 37.847 37.815 37.795 37.805 37.785 37.777 37.747 37.735 37.72 37.722 37.722 37.7 37.702 37.725 37.69 37.69 37.655 37.6 37.597 37.58 37.56 37.565 37.54 37.545 37.53 37.57 37.587 37.631 37.652 37.656 37.658 37.676 37.675 37.684 37.671 37.666 37.647 37.629 37.604 37.595 37.579 37.537 37.513 37.48 37.497 37.482 37.452 37.415 37.457 37.457 37.472 37.492 37.52 37.525 37.537 37.547 37.567 37.617 37.657 37.702 37.725 37.752 37.75 37.752 37.75 37.727 37.727 37.735 37.767 37.79 37.79 37.827 37.872 37.915 37.957 37.987 38.022 38.09 38.142 38.21 38.235 38.26 38.272 38.285 38.325 38.37 38.42 38.502 38.59 38.675 38.842 38.967 39.077 39.215 39.345 39.482 39.617 39.725 39.877 39.99 40.085 40.207 40.34 40.465 40.54 40.625 40.7 40.752 40.807 40.837 40.867 40.912 40.96 41.017 41.202 42.2 43.392 43.747 43 42.002 46.402 48.305 45.172 43.975 48.952 44.3 44.09 44.092 43.982 44.217 44.01 43.9 46.547 47.092 44.065 42.692 42.055 41.515 41.092 40.68 40.545 40.957 40.46 40.712 40.602 41.142 40.947 40.827 40.53 40.527 40.532 40.517 40.585 40.54 40.517 40.502 40.53 40.512 40.482 40.485 40.477 40.447 40.46 40.462 40.44 40.422 40.4 40.395 40.39 40.387 40.38 40.382 40.36 40.362 40.365 40.35 40.35 40.35 40.347 40.377 40.54 40.575 40.547 40.577 40.632 40.652 40.75 41.827 41.845 42.895 41.37 40.867 40.89 41.005 41.087 41.252 41.145 41.172 42.482 42.652 41.262 41.68 45.325 43.82 41.877 42.565 45.842 46.377 46.055 44.597 43.557 43.315 43.375 43.435 43.387 43.457 43.492 43.527 43.58 43.7 43.8 43.83 43.912 43.875 44.422 44.072 44.037 43.975 44.09
35.72 35.725 35.732 35.73 35.717 35.71 35.702 35.677 35.75 36.402 35.547 35.412 35.56 35.48 35.327 35.23 35.232 35.207 35.195 35.275 35.782 35.812 35.705 35.635 35.825 35.532 35.407 35.451 35.598 35.706 35.855 35.926 35.868 35.714 35.651 35.724 35.762 35.791 35.868 35.923 35.848 35.702 35.738 35.736 35.76 35.783 35.924 36.856 35.869 37.005 36.053 35.353 35.242 35.265 35.265 35.325 35.352 35.376 35.419 35.465 35.469 35.516 35.517 35.556 35.571 35.572 35.588 35.618 35.619 35.599 35.594 35.59 35.598 35.593 35.594 35.582 35.602 35.617 35.623 35.61 35.612 35.652 35.677 35.682 35.722 35.74 35.775 35.835 35.87 35.877 35.897 35.95 35.985 35.992 36.02 36.057 36.095 36.117 36.122 36.16 36.162 36.152 36.172 36.16 36.197 36.22 36.245 36.302 36.32 36.345 36.35 36.397 36.425 36.487 36.54 36.615 36.7 36.822 36.952 37.097 37.277 37.495 37.745 37.987 38.2 38.435 38.62 38.782 38.912 39.095 39.16 39.2 39.275 39.432 39.577 39.657 39.887 40.75 40.375 40.302 39.892 39.517 39.487 39.367 39.382 39.395 39.377 39.36 39.32 39.242 39.195 39.11 39.02 38.895 38.712 38.562 38.425 38.3 38.175 38.062 37.915 37.817 37.722 37.627 37.542 37.482 37.432 37.382 37.34 37.322 37.315 37.352 37.32 37.332 37.327 37.33 37.32 37.317 37.31 37.302 37.31 37.285 37.31 37.325 37.327 37.327 37.315 37.315 37.307 37.312 37.302 37.332 37.345 37.34 37.345 37.34 37.37 37.41 37.49 37.512 37.572 37.592 37.655 37.72 37.742 37.772 37.797 37.825 37.837 37.862 37.857 37.865 37.902 37.902 37.892 37.892 37.887 37.872 37.835 37.83 37.825 37.82 37.785 37.79 37.77 37.757 37.755 37.745 37.73 37.737 37.692 37.662 37.63 37.62 37.567 37.567 37.55 37.525 37.56 37.615 37.6 37.619 37.639 37.673 37.677 37.698 37.709 37.678 37.675 37.656 37.624 37.638 37.618 37.592 37.565 37.579 37.515 37.532 37.532 37.472 37.507 37.467 37.48 37.477 37.502 37.492 37.527 37.522 37.517 37.572 37.6 37.605 37.65 37.707 37.777 37.785 37.752 37.722 37.707 37.717 37.72 37.722 37.747 37.757 37.797 37.84 37.867 37.897 37.927 37.967 38.037 38.092 38.127 38.172 38.242 38.265 38.275 38.28 38.362 38.382 38.455 38.517 38.6 38.7 38.822 38.987 39.12 39.257 39.44 39.55 39.687 39.802 39.947 40.037 40.155 40.267 40.422 40.525 40.62 40.702 40.767 40.847 40.865 40.91 40.922 40.977 41.017 41.085 41.252 42.217 42.265 41.992 42.047 42.05 42.12 45.137 46.66 45.797 44.327 45.905 44.267 44.012 43.987 44.305 45.042 44.385 44.622 46.16 46.855 45.15 43.567 42.325 41.767 41.395 41.02 40.635 40.535 40.85 40.61 40.572 40.567 40.562 40.55 40.527 40.49 40.487 40.452 40.492 40.392 40.46 40.365 40.44 40.497 40.472 40.47 40.445 40.447 40.45 40.442 40.445 40.422 40.397 40.377 40.387 40.397 40.38 40.375 40.367 40.34 40.362 40.38 40.407 40.457 40.542 40.547 40.615 40.61 40.625 40.687 40.79 40.81 40.735 40.785 40.88 44.915 44.897 40.935 42.042 41.18 41.202 41.252 41.49 43.595 45.56 45.727 46.622 47.047 46.435 46.705 46.707 47.02 44.367 43.707 43.475 43.485 43.477 43.52 43.595 43.545 43.605 43.635 43.667 43.732 43.737 43.812 43.865 43.887 43.927 44.642 43.95 44.035 44.047 44.1
35.747 35.742 35.755 35.74 35.702 35.72 35.7 35.735 35.412 35.242 36.3 35.535 35.642 35.572 35.312 35.202 35.227 35.22 35.24 35.542 35.785 35.532 35.54 35.755 36.015 35.57 35.555 35.612 35.452 35.525 35.597 35.609 35.594 35.535 35.578 35.591 35.56 35.672 35.829 35.793 35.692 35.649 35.645 35.601 35.609 35.711 35.815 35.689 35.812 36.922 36.21 35.417 35.217 35.212 35.226 35.288 35.359 35.382 35.401 35.442 35.473 35.513 35.54 35.547 35.567 35.58 35.6 35.597 35.609 35.598 35.584 35.586 35.597 35.586 35.593 35.602 35.609 35.607 35.602 35.604 35.611 35.652 35.685 35.676 35.722 35.745 35.79 35.825 35.862 35.867 35.917 35.955 35.952 35.98 36.027 36.085 36.105 36.13 36.135 36.162 36.142 36.162 36.19 36.202 36.215 36.24 36.26 36.267 36.32 36.367 36.392 36.44 36.44 36.522 36.56 36.637 36.745 36.847 36.975 37.14 37.315 37.537 37.77 38 38.237 38.435 38.645 38.8 38.947 39.097 39.17 39.242 39.337 39.432 39.547 39.65 39.807 40.7 40.455 40.382 40.122 39.58 39.537 39.435 39.37 39.435 39.427 39.385 39.347 39.285 39.212 39.16 39.07 38.935 38.802 38.635 38.472 38.37 38.24 38.075 37.957 37.85 37.755 37.637 37.562 37.495 37.46 37.4 37.357 37.387 37.372 37.352 37.352 37.35 37.35 37.352 37.36 37.322 37.337 37.325 37.35 37.382 37.385 37.402 37.382 37.375 37.367 37.367 37.355 37.35 37.372 37.367 37.395 37.372 37.397 37.44 37.46 37.472 37.535 37.542 37.587 37.637 37.71 37.77 37.782 37.83 37.865 37.882 37.887 37.907 37.92 37.927 37.937 37.96 37.945 37.955 37.965 37.947 37.88 37.882 37.887 37.867 37.85 37.842 37.847 37.81 37.782 37.792 37.782 37.782 37.752 37.727 37.687 37.69 37.625 37.59 37.585 37.617 37.585 37.622 37.605 37.628 37.635 37.671 37.685 37.699 37.689 37.698 37.7 37.672 37.694 37.68 37.663 37.645 37.609 37.575 37.562 37.532 37.53 37.475 37.482 37.477 37.47 37.49 37.482 37.505 37.497 37.552 37.545 37.59 37.642 37.705 37.69 37.695 37.705 37.72 37.762 37.74 37.737 37.697 37.722 37.757 37.735 37.785 37.815 37.862 37.847 37.877 37.937 37.96 38.03 38.055 38.125 38.18 38.24 38.24 38.26 38.29 38.375 38.415 38.47 38.552 38.627 38.73 38.857 39.017 39.157 39.312 39.475 39.565 39.715 39.847 39.977 40.095 40.227 40.36 40.462 40.587 40.687 40.765 40.837 40.885 40.95 40.975 40.977 41.045 41.107 41.122 41.252 41.915 42.69 42.462 43.635 44.307 44.627 49.145 49.45 49.097 48.875 45.65 44.2 43.957 44.045 44.282 44.21 43.995 44.73 44.51 45.142 45.972 45.522 44.155 42.785 42.12 41.697 41.387 41.082 40.87 40.677 40.607 40.577 40.55 40.502 40.442 40.412 40.397 40.152 40.405 40.435 40.482 40.337 40.507 40.477 40.497 40.465 40.452 40.46 40.45 40.452 40.43 40.415 40.407 40.41 40.39 40.39 40.385 40.387 40.375 40.385 40.457 40.487 42.867 45.25 41.397 40.635 40.642 40.905 41.935 41.59 40.807 40.79 40.79 40.91 40.94 41.012 41.73 43.445 41.982 41.617 43.127 42.235 46.035 47.76 48.33 47.812 48.197 48.207 48.34 48.052 45.627 44.16 43.597 43.632 43.647 43.655 43.647 43.65 43.597 43.657 43.677 43.705 43.737 43.767 43.775 43.857 43.88 43.885 43.922 43.93 43.992 43.995 44 44.03
35.75 35.75 35.775 35.765 35.75 35.74 35.71 35.787 36.612 36.027 36.53 35.572 35.46 35.43 35.32 35.22 35.24 35.2 35.592 36.032 36.025 35.502 35.515 35.7 35.92 35.88 36.3 35.87 35.725 36.01 36.13 35.757 35.952 36.007 35.944 35.927 35.917 35.984 36.502 36.462 36.253 36.287 36.109 35.807 35.681 35.683 35.786 35.752 35.823 36.876 35.803 35.313 35.217 35.197 35.209 35.261 35.345 35.352 35.381 35.415 35.458 35.497 35.528 35.542 35.562 35.568 35.584 35.587 35.597 35.581 35.591 35.57 35.574 35.587 35.586 35.562 35.578 35.587 35.585 35.589 35.595 35.61 35.622 35.653 35.709 35.737 35.792 35.821 35.872 35.9 35.92 35.972 35.955 35.96 36.007 36.06 36.105 36.102 36.127 36.137 36.15 36.177 36.195 36.157 36.177 36.222 36.252 36.272 36.315 36.38 36.402 36.43 36.44 36.525 36.585 36.685 36.8 36.912 37.025 37.207 37.375 37.59 37.807 38.042 38.227 38.452 38.62 38.815 38.96 39.077 39.207 39.27 39.355 39.45 39.542 39.66 39.78 40.28 40.577 40.455 40.322 39.855 39.585 39.487 39.412 39.447 39.5 39.455 39.38 39.322 39.285 39.215 39.107 38.945 38.83 38.677 38.545 38.397 38.275 38.105 38.005 37.905 37.792 37.675 37.6 37.535 37.47 37.457 37.412 37.397 37.37 37.385 37.395 37.39 37.41 37.415 37.397 37.39 37.362 37.382 37.4 37.41 37.405 37.407 37.415 37.447 37.447 37.452 37.41 37.412 37.43 37.415 37.437 37.447 37.45 37.472 37.495 37.512 37.542 37.607 37.645 37.67 37.72 37.792 37.84 37.877 37.902 37.922 37.902 37.952 37.982 38.002 38.005 38.025 38.005 37.997 38.022 38.002 37.997 37.977 37.967 37.957 37.937 37.922 37.892 37.827 37.835 37.825 37.832 37.81 37.787 37.772 37.757 37.72 37.682 37.662 37.652 37.637 37.607 37.614 37.638 37.649 37.639 37.668 37.703 37.699 37.697 37.723 37.735 37.716 37.708 37.712 37.701 37.653 37.628 37.617 37.565 37.56 37.545 37.527 37.527 37.51 37.507 37.505 37.505 37.54 37.557 37.577 37.605 37.652 37.67 37.655 37.637 37.7 37.737 37.78 37.762 37.737 37.76 37.74 37.74 37.725 37.767 37.762 37.752 37.81 37.832 37.865 37.897 37.955 37.995 38.04 38.095 38.165 38.185 38.235 38.247 38.25 38.387 38.435 38.49 38.547 38.662 38.782 38.882 39.027 39.2 39.325 39.49 39.61 39.772 39.922 40.052 40.167 40.277 40.392 40.512 40.632 40.752 40.83 40.912 40.977 41.015 41.047 41.077 41.09 41.15 41.165 41.33 41.582 42.972 46.08 45.427 47.035 44.45 43.58 46.61 48.17 45.975 43.372 43.967 43.957 44.252 44.427 44.477 44.517 44.447 44.41 45.785 45.957 44.12 43.23 43.3 43.425 42.732 42.445 41.81 41.477 41.165 40.905 40.732 40.615 40.512 40.457 40.512 40.45 40.172 40.435 40.462 40.457 40.49 40.54 40.502 40.48 40.465 40.46 40.467 40.455 40.445 40.447 40.4 40.407 40.402 40.392 40.425 40.467 40.48 40.477 40.507 40.587 40.547 43.135 44.57 41.015 40.667 40.74 40.807 47.187 42.98 40.835 42.785 43.335 41.352 40.992 41.035 42 45.845 45.96 45.697 45.687 45.257 47.527 48.737 49.07 48.892 48.212 48.497 47.135 45.252 43.712 43.695 45.83 45.967 43.71 43.752 43.697 43.647 43.615 43.7 43.68 43.755 43.8 43.8 43.82 43.84 43.847 43.912 43.89 43.877 43.972 44.037 44.165 44.27
35.802 35.795 35.8 35.762 35.755 35.747 35.807 35.66 35.917 36.325 36.122 35.39 35.375 35.457 35.657 35.497 35.612 35.212 35.327 35.475 35.56 35.64 35.667 35.55 35.557 35.997 36.212 36.215 36.337 36.277 36.28 36.99 36.765 36.06 35.78 35.817 35.905 36.082 36.361 36.48 36.544 36.461 36.366 36.277 36.071 35.78 35.588 35.641 35.74 36.638 36.126 35.305 35.2 35.205 35.236 35.239 35.302 35.328 35.372 35.423 35.459 35.491 35.502 35.53 35.549 35.562 35.583 35.579 35.589 35.575 35.583 35.565 35.57 35.585 35.566 35.574 35.579 35.583 35.573 35.577 35.59 35.607 35.622 35.623 35.666 35.698 35.766 35.805 35.832 35.863 35.895 35.92 35.945 35.972 36.005 36 36.092 36.102 36.145 36.125 36.147 36.15 36.162 36.17 36.192 36.23 36.275 36.287 36.305 36.365 36.407 36.472 36.522 36.595 36.645 36.755 36.852 36.972 37.102 37.267 37.465 37.652 37.865 38.082 38.277 38.48 38.652 38.825 38.985 39.1 39.25 39.305 39.365 39.452 39.537 39.66 39.722 39.947 40.792 40.487 40.33 40.082 39.59 39.582 39.462 39.495 39.482 39.48 39.397 39.357 39.3 39.267 39.127 39.007 38.897 38.737 38.615 38.462 38.337 38.18 38.035 37.937 37.847 37.705 37.642 37.567 37.512 37.47 37.427 37.427 37.415 37.425 37.43 37.407 37.43 37.437 37.442 37.44 37.472 37.462 37.442 37.462 37.465 37.46 37.462 37.49 37.5 37.492 37.46 37.462 37.517 37.49 37.49 37.5 37.487 37.52 37.522 37.552 37.607 37.65 37.685 37.697 37.8 37.837 37.9 37.91 37.932 37.95 37.957 38.015 38.062 38.045 38.06 38.052 38.062 38.067 38.075 38.09 38.062 38.027 38.037 38.032 37.985 37.967 37.947 37.92 37.927 37.917 37.907 37.867 37.892 37.835 37.83 37.8 37.75 37.725 37.695 37.657 37.662 37.678 37.656 37.675 37.679 37.706 37.697 37.729 37.727 37.738 37.739 37.748 37.723 37.714 37.685 37.653 37.679 37.645 37.622 37.615 37.575 37.592 37.575 37.55 37.535 37.547 37.565 37.587 37.592 37.65 37.63 37.61 37.617 37.627 37.687 37.727 37.747 37.785 37.775 37.775 37.747 37.75 37.712 37.722 37.745 37.742 37.772 37.78 37.79 37.87 37.907 37.915 37.927 37.997 38.087 38.107 38.15 38.227 38.262 38.297 38.365 38.417 38.52 38.58 38.68 38.795 38.877 39.035 39.165 39.327 39.497 39.63 39.797 39.977 40.072 40.222 40.335 40.46 40.607 40.69 40.83 40.905 40.942 41.025 41.102 41.122 41.12 41.142 41.21 41.235 41.375 41.515 42.477 44.257 43.055 42.28 42.495 45.102 45.815 44.455 46.875 43.967 43.862 43.922 44.31 44.51 44.507 44.527 44.755 44.942 46 47.125 43.597 43.255 43.13 45.38 45.895 44.24 43.672 42.677 41.99 41.567 41.307 41.017 40.79 40.617 40.545 40.48 40.422 40.407 40.575 40.462 40.54 40.552 40.5 40.477 40.467 40.475 40.44 40.45 40.452 40.445 40.44 40.455 40.452 40.505 40.542 40.562 41.612 45.837 42.067 40.67 41.002 42.627 41.512 40.707 41.68 41.535 40.807 42.51 41.92 41.785 44.415 43.81 42.865 42.167 43.3 44.362 45.827 46.12 46.612 46.567 46.407 48.312 49.342 49.082 48.56 46.147 45.27 44.142 43.74 43.68 43.675 46.152 45.272 43.92 44.307 43.737 43.687 43.715 43.73 43.75 43.805 43.792 43.797 43.802 43.842 43.862 43.935 44.04 44.132 44.202 44.267 44.362 45.642
35.815 35.817 35.807 35.792 35.777 35.805 36.13 35.685 35.505 35.472 35.447 35.577 35.437 35.4 35.465 35.482 35.672 35.82 35.392 35.197 35.362 35.597 35.497 35.47 35.72 36.345 36.482 36.43 36.397 36.065 36.67 37.87 37.037 36.152 36.105 36 36.062 36.272 36.25 36.43 36.457 36.147 36.021 36.268 36.247 36.204 35.768 35.526 35.58 36.075 35.748 35.302 35.169 35.192 35.188 35.224 35.294 35.348 35.373 35.398 35.427 35.479 35.504 35.513 35.536 35.558 35.572 35.573 35.584 35.568 35.562 35.567 35.551 35.552 35.55 35.566 35.556 35.559 35.568 35.561 35.565 35.581 35.598 35.618 35.647 35.683 35.745 35.781 35.833 35.854 35.903 35.904 35.991 35.998 36.037 36.057 36.077 36.105 36.165 36.162 36.15 36.165 36.185 36.185 36.195 36.23 36.262 36.287 36.302 36.375 36.432 36.467 36.56 36.642 36.702 36.802 36.905 37.047 37.202 37.357 37.527 37.712 37.932 38.122 38.337 38.52 38.692 38.86 38.997 39.112 39.265 39.345 39.37 39.43 39.51 39.625 39.692 39.855 40.732 40.602 40.44 40.19 39.727 39.612 39.522 39.482 39.497 39.485 39.44 39.392 39.317 39.28 39.177 39.06 38.922 38.795 38.635 38.502 38.377 38.23 38.112 37.99 37.857 37.75 37.677 37.622 37.547 37.52 37.48 37.492 37.467 37.442 37.472 37.457 37.477 37.465 37.492 37.51 37.495 37.5 37.497 37.525 37.535 37.525 37.515 37.562 37.545 37.557 37.547 37.555 37.567 37.58 37.55 37.557 37.56 37.575 37.575 37.58 37.605 37.65 37.72 37.775 37.825 37.862 37.912 37.955 37.97 37.995 38.007 38.06 38.055 38.09 38.097 38.09 38.11 38.14 38.135 38.14 38.122 38.127 38.122 38.097 38.062 38.04 38.065 38.025 38.015 38.002 37.995 37.957 37.942 37.887 37.9 37.862 37.822 37.772 37.755 37.732 37.712 37.711 37.699 37.706 37.713 37.715 37.717 37.742 37.751 37.765 37.738 37.723 37.755 37.71 37.719 37.679 37.681 37.655 37.64 37.645 37.625 37.612 37.565 37.575 37.582 37.615 37.647 37.637 37.592 37.575 37.6 37.615 37.62 37.657 37.697 37.732 37.775 37.762 37.77 37.765 37.772 37.727 37.777 37.745 37.75 37.742 37.745 37.77 37.805 37.827 37.867 37.9 37.905 37.947 38.022 38.052 38.142 38.222 38.225 38.277 38.34 38.392 38.505 38.57 38.652 38.775 38.867 39.057 39.172 39.317 39.51 39.66 39.81 39.975 40.102 40.237 40.362 40.475 40.637 40.74 40.832 40.915 40.987 41.065 41.157 41.15 41.147 41.202 41.24 41.327 41.432 41.577 42.052 42.677 44.39 45.082 47.425 44.422 42.607 45.142 47.077 44.092 43.817 43.967 44.307 46.165 50.655 48.89 46.9 46.345 47.007 46.452 43.835 43.245 43.092 43.02 43.747 44.805 45.297 45.475 44.105 42.812 42.095 41.745 41.427 41.18 40.917 40.722 40.617 40.677 40.78 41.12 40.642 40.575 40.532 40.51 40.47 40.465 40.465 40.48 40.59 40.575 40.55 40.917 44.842 40.642 40.71 41.132 41.325 42.705 40.642 40.685 41.202 45.937 42.16 40.782 41.902 46.922 44.762 45.492 44.982 46.217 46.675 46.435 46.18 46.445 47.037 46.702 47.892 47.702 47.482 47.58 47.56 47.235 46.385 44.777 44.677 43.75 43.685 43.647 43.715 43.742 43.687 48.02 44.617 43.752 44.21 43.722 43.712 43.752 43.757 43.727 43.74 43.79 43.83 43.892 43.997 44.062 44.147 44.147 44.177 45.262 44.952 46.025 45.107
35.86 35.865 35.85 35.83 35.832 35.967 37.232 35.982 35.47 35.61 35.487 35.867 35.635 35.547 35.552 35.747 36.09 36.442 35.777 35.21 35.345 35.407 35.41 35.897 37.457 36.837 36.425 35.955 35.957 35.657 36.282 36.355 36.197 35.967 36.13 36.142 36.24 36.397 36.375 36.347 36.525 36.43 36.207 36.105 36.25 36.235 35.873 35.602 35.792 36.564 35.759 35.302 35.184 35.207 35.228 35.244 35.284 35.315 35.355 35.387 35.408 35.462 35.484 35.515 35.523 35.549 35.543 35.566 35.567 35.544 35.531 35.499 35.534 35.531 35.525 35.531 35.555 35.554 35.556 35.534 35.563 35.569 35.593 35.615 35.637 35.686 35.741 35.787 35.819 35.848 35.901 35.896 35.948 35.967 35.996 36.033 36.084 36.084 36.12 36.152 36.147 36.16 36.185 36.17 36.222 36.227 36.255 36.295 36.367 36.407 36.465 36.55 36.625 36.685 36.782 36.892 37.015 37.152 37.272 37.435 37.61 37.782 37.97 38.16 38.36 38.567 38.722 38.902 39.042 39.14 39.255 39.37 39.397 39.44 39.51 39.61 39.722 39.74 40.222 40.867 40.522 40.34 39.86 39.647 39.542 39.47 39.475 39.525 39.502 39.392 39.352 39.285 39.217 39.105 38.985 38.86 38.685 38.537 38.407 38.277 38.152 38.045 37.912 37.825 37.735 37.65 37.615 37.552 37.5 37.522 37.502 37.497 37.507 37.497 37.507 37.53 37.537 37.555 37.552 37.557 37.567 37.582 37.545 37.577 37.58 37.622 37.585 37.632 37.65 37.652 37.637 37.637 37.635 37.605 37.607 37.617 37.64 37.617 37.675 37.695 37.762 37.82 37.857 37.907 37.935 37.977 38.012 38.032 38.042 38.08 38.077 38.11 38.14 38.137 38.177 38.187 38.212 38.185 38.217 38.212 38.18 38.157 38.16 38.16 38.157 38.13 38.142 38.122 38.097 38.077 38.025 37.975 37.982 37.962 37.907 37.847 37.81 37.772 37.742 37.734 37.725 37.743 37.743 37.744 37.749 37.766 37.765 37.751 37.754 37.761 37.731 37.722 37.737 37.73 37.722 37.695 37.677 37.692 37.67 37.632 37.68 37.702 37.665 37.64 37.652 37.627 37.58 37.597 37.605 37.645 37.632 37.662 37.7 37.705 37.755 37.757 37.767 37.762 37.787 37.775 37.75 37.745 37.737 37.745 37.765 37.767 37.785 37.797 37.815 37.862 37.907 37.925 38.01 38.062 38.095 38.155 38.2 38.25 38.32 38.397 38.48 38.597 38.652 38.765 38.895 39.01 39.16 39.292 39.465 39.635 39.795 39.962 40.067 40.192 40.355 40.452 40.592 40.725 40.822 40.9 40.98 41.057 41.15 41.162 41.167 41.285 41.275 41.37 41.455 41.585 41.737 43.345 45.842 45.587 44.465 43.57 44.565 42.852 43.33 44.007 43.785 44.157 44.587 49.257 52.202 52.265 52.102 52.147 48.85 45.252 44.262 43.392 43.147 43.117 43.155 43.505 44.195 44.88 46.22 46.267 44.432 42.662 42.212 41.932 41.822 41.51 41.332 41.227 41.52 41.545 41.475 40.7 40.587 40.502 40.515 40.532 40.557 40.997 43.637 43.73 40.642 40.835 41.282 40.785 40.857 40.78 40.807 40.785 40.86 40.815 40.812 41.247 40.872 40.95 43.595 46.947 46.23 46.65 46.975 47.58 47.24 47.647 46.935 47.087 47.782 46.93 48.6 47.39 45.347 44.527 44.43 43.91 43.765 43.732 43.72 43.735 43.72 43.682 43.685 43.805 43.745 44.427 44.49 46.172 43.66 43.71 43.717 43.725 43.745 43.797 43.895 43.97 44.015 44.005 44.015 44.107 44.18 45.215 46.727 47.505 43.99 43.957 44.015
35.905 35.897 35.852 35.907 36.002 36.125 37.29 37.672 35.835 35.545 35.547 35.52 35.567 35.66 35.5 35.3 35.855 36.435 36.275 35.735 35.292 35.202 35.572 36.65 38.345 38.657 36.932 35.33 35.38 35.382 35.527 35.76 35.967 36.075 36.122 36.337 36.477 36.412 36.687 36.597 36.305 36.197 36.065 36.092 35.787 35.677 35.692 35.682 36.228 36.421 35.785 35.303 35.174 35.209 35.222 35.268 35.3 35.337 35.354 35.375 35.399 35.439 35.468 35.501 35.519 35.529 35.518 35.512 35.552 35.533 35.494 35.441 35.48 35.502 35.533 35.541 35.552 35.541 35.528 35.526 35.534 35.558 35.56 35.58 35.614 35.667 35.711 35.749 35.807 35.837 35.868 35.907 35.943 35.999 36.033 36.054 36.081 36.097 36.135 36.139 36.175 36.186 36.194 36.197 36.227 36.237 36.295 36.345 36.382 36.457 36.507 36.565 36.662 36.76 36.84 36.967 37.092 37.21 37.375 37.527 37.685 37.89 38.062 38.232 38.437 38.62 38.782 38.942 39.085 39.177 39.265 39.375 39.455 39.465 39.502 39.607 39.73 39.715 39.987 41.102 40.522 40.447 40.025 39.617 39.592 39.475 39.447 39.51 39.527 39.397 39.357 39.292 39.247 39.155 39.062 38.922 38.742 38.61 38.452 38.32 38.19 38.125 37.995 37.847 37.787 37.705 37.682 37.597 37.572 37.545 37.532 37.53 37.555 37.545 37.55 37.565 37.565 37.615 37.602 37.642 37.625 37.64 37.625 37.647 37.66 37.685 37.69 37.707 37.715 37.71 37.717 37.737 37.717 37.705 37.685 37.692 37.7 37.692 37.722 37.755 37.815 37.842 37.897 37.94 37.96 38.002 38.04 38.047 38.09 38.122 38.14 38.14 38.195 38.202 38.235 38.232 38.247 38.255 38.265 38.285 38.275 38.26 38.247 38.232 38.257 38.24 38.242 38.217 38.195 38.18 38.142 38.105 38.077 38.027 37.97 37.945 37.877 37.84 37.82 37.815 37.781 37.781 37.772 37.776 37.793 37.776 37.798 37.79 37.784 37.769 37.763 37.757 37.81 37.779 37.772 37.747 37.742 37.737 37.715 37.742 37.757 37.712 37.682 37.625 37.607 37.602 37.607 37.582 37.635 37.645 37.65 37.635 37.695 37.702 37.732 37.755 37.74 37.74 37.755 37.722 37.735 37.715 37.735 37.742 37.762 37.772 37.792 37.817 37.842 37.895 37.932 37.995 38.07 38.122 38.182 38.24 38.275 38.347 38.4 38.475 38.562 38.667 38.75 38.84 38.947 39.092 39.22 39.347 39.475 39.667 39.807 39.962 40.072 40.19 40.33 40.465 40.577 40.702 40.827 40.897 41.002 41.065 41.122 41.222 41.242 41.302 41.327 41.45 41.5 41.617 41.745 43.115 42.772 42.965 42.437 42.512 42.717 42.78 44.022 43.7 43.777 44.272 44.957 48.052 49.922 51.197 52.457 51.682 47.827 45.57 44.787 43.837 43.277 43.227 43.195 43.135 43.045 43.022 43.067 44.085 45.642 45.862 44.802 43.377 42.492 42.392 42.132 42.627 42.78 42.062 41.715 41.025 40.832 40.822 41.07 40.632 41.297 40.89 43.047 41.482 41.492 42.39 44.89 40.932 41.497 41.92 40.98 40.937 41.225 42.735 42.617 44.832 42.475 46.14 47.675 47.5 46.91 47.31 49.475 49.03 47.65 46.147 46.002 49.28 50.87 45.017 44.135 44.025 43.837 43.785 43.765 43.767 43.785 43.767 43.77 43.757 43.752 43.757 43.732 43.692 43.745 43.692 43.772 43.712 43.695 43.697 43.825 43.89 43.975 44.015 44.032 44.027 44.047 44.33 44.325 44.51 44.602 44.617 44.48 44.255 44.185 44.282 44.387
35.927 35.925 35.96 36.122 36.212 36.107 36.207 36.7 36.055 35.825 35.517 36.027 36.455 35.655 35.577 35.325 35.355 35.815 36.322 36.445 36.01 35.567 35.482 36.762 38.647 38.837 37.852 35.582 35.262 35.332 35.482 35.537 35.577 35.96 36.01 35.845 36.045 36.702 37.792 38.12 36.902 36.485 37.607 36.847 35.692 35.557 35.825 35.947 36.452 36.465 35.447 35.354 35.259 35.22 35.208 35.248 35.28 35.301 35.32 35.36 35.364 35.393 35.481 35.471 35.513 35.519 35.499 35.518 35.53 35.507 35.472 35.435 35.474 35.49 35.474 35.531 35.503 35.535 35.509 35.511 35.511 35.535 35.556 35.577 35.602 35.669 35.707 35.741 35.789 35.843 35.867 35.924 35.939 35.99 36 36.024 36.059 36.121 36.12 36.136 36.18 36.189 36.186 36.206 36.23 36.244 36.297 36.372 36.447 36.5 36.555 36.63 36.732 36.857 36.975 37.09 37.212 37.345 37.48 37.637 37.802 37.967 38.142 38.332 38.502 38.677 38.83 38.992 39.09 39.205 39.29 39.397 39.472 39.472 39.495 39.582 39.68 39.72 39.845 40.887 40.627 40.532 40.207 39.697 39.605 39.515 39.46 39.46 39.497 39.377 39.355 39.332 39.26 39.17 39.085 38.96 38.787 38.662 38.535 38.387 38.255 38.135 38.027 37.95 37.847 37.767 37.725 37.672 37.622 37.592 37.56 37.58 37.6 37.585 37.61 37.63 37.652 37.64 37.66 37.67 37.692 37.695 37.692 37.7 37.737 37.772 37.77 37.785 37.81 37.785 37.792 37.797 37.797 37.787 37.767 37.747 37.737 37.757 37.772 37.797 37.832 37.88 37.92 37.97 38.002 38.025 38.085 38.095 38.107 38.135 38.172 38.185 38.217 38.255 38.28 38.277 38.292 38.332 38.35 38.347 38.3 38.355 38.365 38.325 38.325 38.35 38.35 38.335 38.285 38.275 38.26 38.225 38.2 38.157 38.07 38.037 37.967 37.937 37.908 37.881 37.832 37.837 37.822 37.804 37.804 37.802 37.821 37.832 37.817 37.777 37.783 37.816 37.829 37.807 37.795 37.757 37.792 37.81 37.785 37.795 37.74 37.715 37.682 37.64 37.612 37.64 37.665 37.627 37.6 37.655 37.667 37.65 37.672 37.69 37.672 37.7 37.757 37.77 37.79 37.767 37.747 37.742 37.777 37.795 37.802 37.817 37.875 37.922 37.965 37.995 38.027 38.105 38.145 38.187 38.242 38.32 38.365 38.427 38.527 38.582 38.655 38.74 38.88 38.965 39.057 39.177 39.33 39.457 39.595 39.757 39.897 40.045 40.187 40.3 40.432 40.525 40.64 40.777 40.875 40.95 41.05 41.105 41.207 41.267 41.32 41.355 41.4 41.462 41.497 41.64 41.767 42.382 42.917 42.505 42.662 42.76 42.872 43.3 44.112 43.572 43.842 44.462 44.855 44.882 48.187 50.68 52.2 51.21 46.39 45.21 44.86 44.29 43.717 43.667 43.787 43.697 43.52 43.325 43.187 43.122 43.1 43.727 44.477 45.245 45.49 45.192 49.135 47.227 42.937 46.042 46.857 43.272 41.475 41.467 43.857 40.842 42.472 41.052 40.885 41.435 44.362 44.352 45.897 41.122 41.59 44.565 44.44 42.98 44.44 45.085 45.83 47.995 47.635 48.287 48.68 48.832 47.887 46.395 46.66 47.072 44.902 44.52 44.277 46.697 45.667 44.337 43.832 43.815 43.84 43.835 43.805 43.785 43.807 43.795 43.825 43.81 43.8 43.757 43.79 43.767 43.722 43.707 43.742 43.832 43.955 43.997 43.957 44 44.032 44.992 44.595 44.462 44.897 44.862 44.985 45.192 45.372 45.24 44.955 44.905 45.482 46.657 45.07
36.065 36.082 36.232 36.407 36.742 37.22 36.237 35.84 35.902 35.892 35.722 35.655 35.53 35.405 35.597 35.55 35.467 35.56 36.03 36.27 36.072 35.532 35.662 35.995 36.422 36.932 35.707 35.277 35.427 35.562 35.61 35.397 35.415 35.517 35.682 36.06 36.252 37.097 37.845 36.932 36.082 36.317 36.8 36.705 35.73 35.632 35.827 36.022 36.213 36.499 35.802 35.342 35.279 35.233 35.235 35.251 35.269 35.292 35.307 35.336 35.356 35.416 35.449 35.472 35.499 35.522 35.483 35.512 35.519 35.491 35.445 35.441 35.468 35.467 35.497 35.517 35.537 35.506 35.512 35.516 35.519 35.536 35.535 35.566 35.596 35.63 35.677 35.736 35.773 35.821 35.874 35.911 35.937 35.975 36.005 36.038 36.085 36.13 36.158 36.161 36.168 36.214 36.211 36.252 36.267 36.278 36.347 36.399 36.495 36.557 36.64 36.73 36.85 36.95 37.05 37.15 37.29 37.415 37.56 37.727 37.875 38.047 38.242 38.395 38.585 38.737 38.875 39.032 39.147 39.225 39.3 39.367 39.452 39.5 39.52 39.54 39.615 39.722 39.802 40.177 40.972 40.552 40.372 39.9 39.612 39.547 39.435 39.435 39.47 39.417 39.392 39.337 39.282 39.227 39.14 38.98 38.845 38.735 38.6 38.44 38.3 38.2 38.092 38 37.895 37.815 37.747 37.715 37.702 37.68 37.66 37.655 37.632 37.65 37.66 37.67 37.695 37.712 37.752 37.757 37.752 37.772 37.777 37.787 37.822 37.817 37.852 37.875 37.872 37.872 37.852 37.847 37.857 37.842 37.852 37.837 37.81 37.83 37.845 37.862 37.87 37.922 37.962 37.97 38.035 38.065 38.107 38.13 38.137 38.185 38.187 38.225 38.22 38.285 38.332 38.327 38.345 38.377 38.412 38.405 38.385 38.432 38.447 38.455 38.455 38.455 38.457 38.465 38.417 38.432 38.385 38.357 38.342 38.29 38.212 38.17 38.122 38.059 38.001 37.933 37.917 37.913 37.866 37.85 37.84 37.84 37.856 37.848 37.851 37.827 37.831 37.835 37.845 37.832 37.837 37.862 37.872 37.832 37.815 37.775 37.752 37.745 37.692 37.685 37.685 37.652 37.657 37.66 37.647 37.635 37.637 37.662 37.635 37.662 37.672 37.692 37.72 37.775 37.805 37.837 37.8 37.8 37.807 37.832 37.872 37.947 37.96 37.982 38.017 38.072 38.122 38.177 38.21 38.287 38.345 38.387 38.465 38.522 38.61 38.677 38.747 38.842 38.935 39.045 39.137 39.275 39.44 39.602 39.757 39.892 40.052 40.182 40.3 40.442 40.567 40.68 40.805 40.882 40.997 41.095 41.167 41.212 41.29 41.365 41.402 41.46 41.482 41.52 41.52 41.66 41.717 42.317 43.005 42.705 42.832 42.88 42.977 43.805 43.567 43.567 44.06 44.697 44.87 44.95 47.487 51.212 52.2 50.665 46.677 46.805 47.327 44.492 44.16 44.17 44.14 43.995 43.962 43.91 43.747 43.547 43.267 43.157 43.155 43.347 43.642 49.522 53.872 51.897 43.995 48.22 50.54 44.862 43.11 43.07 42.322 41.702 42.505 42.212 41.985 43.225 42.492 43.065 42.787 43.222 44.432 47.445 48.005 47.772 46.282 47.92 49.965 48.432 49.387 49.72 48.71 47.99 45.432 44.67 44.485 44.18 43.982 43.93 43.88 43.882 43.852 43.8 43.817 43.877 43.887 43.882 43.905 43.885 43.865 43.85 43.835 43.812 43.795 43.797 43.842 43.905 43.897 43.955 43.872 43.87 43.967 44.38 44.3 44.61 44.745 44.8 44.905 45.167 45.635 45.895 46 49.65 46.052 49.03 46.205 45.885 48.09 51.062 48.112
37.037 36.367 36.307 36.45 37.695 37.275 36.207 36.372 35.517 35.817 35.922 35.867 35.682 35.56 35.515 35.49 35.592 35.852 35.745 35.712 35.82 35.512 35.465 35.47 35.68 35.665 35.48 35.515 35.542 35.452 35.415 35.342 35.38 35.422 35.532 35.565 35.575 35.732 35.757 35.485 35.507 35.582 35.582 35.522 35.52 35.495 35.48 35.554 35.639 35.531 35.465 35.327 35.256 35.214 35.249 35.295 35.259 35.295 35.319 35.339 35.354 35.4 35.412 35.449 35.468 35.497 35.491 35.525 35.496 35.493 35.477 35.456 35.53 35.491 35.494 35.475 35.52 35.506 35.52 35.495 35.491 35.532 35.532 35.563 35.59 35.62 35.684 35.735 35.793 35.827 35.878 35.921 35.951 35.97 36.006 36.046 36.088 36.117 36.114 36.166 36.196 36.205 36.227 36.256 36.293 36.34 36.387 36.46 36.545 36.617 36.726 36.833 36.91 37.035 37.15 37.27 37.427 37.572 37.717 37.87 38.03 38.185 38.347 38.492 38.64 38.79 38.945 39.055 39.162 39.227 39.312 39.382 39.472 39.54 39.53 39.547 39.597 39.735 39.747 39.922 41.05 40.59 40.485 40.03 39.602 39.612 39.467 39.432 39.447 39.45 39.387 39.342 39.307 39.217 39.167 39.03 38.887 38.772 38.64 38.507 38.362 38.245 38.167 38.077 37.977 37.902 37.812 37.777 37.765 37.722 37.705 37.737 37.707 37.735 37.73 37.757 37.75 37.79 37.807 37.797 37.812 37.867 37.882 37.86 37.885 37.897 37.927 37.94 37.945 37.955 37.93 37.91 37.945 37.932 37.925 37.902 37.887 37.882 37.905 37.902 37.925 37.97 38.002 38.017 38.052 38.112 38.127 38.167 38.182 38.2 38.217 38.275 38.282 38.302 38.36 38.347 38.402 38.435 38.475 38.515 38.522 38.517 38.535 38.552 38.565 38.562 38.585 38.607 38.59 38.58 38.525 38.512 38.47 38.437 38.372 38.317 38.232 38.173 38.107 38.065 38.01 37.97 37.926 37.907 37.909 37.896 37.887 37.906 37.896 37.903 37.873 37.866 37.917 37.912 37.895 37.88 37.84 37.802 37.807 37.76 37.782 37.75 37.735 37.71 37.665 37.627 37.652 37.637 37.605 37.635 37.612 37.637 37.625 37.645 37.7 37.737 37.8 37.86 37.882 37.905 37.912 37.91 37.927 37.98 38.015 38.065 38.097 38.127 38.155 38.185 38.262 38.347 38.39 38.447 38.51 38.57 38.655 38.737 38.805 38.877 38.942 39.012 39.137 39.26 39.305 39.452 39.58 39.722 39.88 40.012 40.155 40.3 40.435 40.56 40.68 40.762 40.865 40.985 41.095 41.185 41.26 41.307 41.407 41.44 41.477 41.5 41.527 41.545 41.53 41.68 41.71 42.662 49.615 43.035 42.865 43.082 43.2 43.647 43.487 43.585 44.337 45.92 44.922 45.027 48.25 51.905 51.897 49.687 48.262 49.63 49.282 45.27 44.34 44.285 44.212 44.2 44.142 44.13 44.1 44.055 44.032 43.802 43.465 43.19 43.182 44.72 53.587 51.657 44.275 44.05 45.64 45.062 44.032 44.017 43.367 43.74 45.44 45.652 46.547 47.097 46.282 46.902 47.352 48.687 47.985 48.562 48.657 48.232 47.695 47.3 47.08 44.647 45.292 45.202 45 44.237 44.112 44.067 44.017 44.002 43.987 43.975 43.957 43.945 43.947 43.862 43.935 43.97 43.932 43.927 43.877 43.875 43.855 43.832 43.885 43.945 43.95 43.915 43.945 44.18 44.562 43.86 43.917 44.065 45.38 46.525 44.837 46.61 45.412 45.655 45.982 46.217 46.595 46.665 46.712 47.71 46.855 48.315 46.952 46.775 48.435 48.447 49.342
36.657 36.527 36.285 36.257 36.67 36.21 37.625 35.475 35.492 35.58 35.66 35.627 35.512 35.38 35.352 35.332 35.37 35.44 35.377 35.292 35.32 35.262 35.117 35.15 35.21 35.19 35.175 35.197 35.185 35.19 35.2 35.197 35.185 35.2 35.162 35.135 35.155 35.135 35.135 35.167 35.18 35.225 35.235 35.285 35.262 35.269 35.307 35.325 35.319 35.28 35.299 35.263 35.23 35.217 35.257 35.296 35.278 35.295 35.286 35.355 35.392 35.461 35.414 35.461 35.475 35.496 35.49 35.505 35.52 35.522 35.555 35.484 36.014 35.522 35.474 35.516 35.494 35.488 35.512 35.499 35.52 35.504 35.539 35.561 35.572 35.624 35.672 35.729 35.796 35.833 35.865 35.91 35.956 35.98 36.011 36.044 36.09 36.11 36.149 36.182 36.212 36.263 36.287 36.286 36.339 36.415 36.456 36.524 36.642 36.741 36.839 36.962 37.068 37.168 37.284 37.422 37.564 37.68 37.83 37.967 38.102 38.287 38.427 38.58 38.725 38.855 38.987 39.117 39.197 39.287 39.372 39.412 39.49 39.53 39.527 39.527 39.582 39.7 39.745 39.882 40.79 40.692 40.542 40.237 39.705 39.6 39.5 39.417 39.445 39.467 39.437 39.36 39.307 39.257 39.197 39.035 38.93 38.815 38.72 38.56 38.42 38.31 38.227 38.117 38.042 37.97 37.87 37.855 37.815 37.787 37.772 37.762 37.762 37.8 37.807 37.84 37.84 37.862 37.875 37.86 37.895 37.935 37.942 37.96 37.975 37.995 38.042 38.02 38.007 38.04 38.022 38.015 38.025 38.022 38 37.952 37.947 37.97 37.962 37.927 37.972 38.005 38.032 38.047 38.105 38.157 38.167 38.19 38.2 38.227 38.255 38.267 38.325 38.352 38.402 38.422 38.472 38.507 38.547 38.582 38.605 38.61 38.64 38.685 38.692 38.74 38.725 38.747 38.745 38.722 38.697 38.692 38.655 38.605 38.525 38.477 38.388 38.333 38.243 38.16 38.126 38.074 38.012 37.981 37.947 37.956 37.932 37.939 37.955 37.94 37.947 37.967 37.902 37.882 37.835 37.84 37.847 37.89 37.84 37.802 37.812 37.792 37.727 37.69 37.672 37.637 37.595 37.587 37.577 37.59 37.625 37.662 37.69 37.745 37.812 37.855 37.865 37.917 37.932 38.005 38.01 38.057 38.065 38.095 38.205 38.235 38.32 38.382 38.462 38.61 38.557 38.717 39.04 38.972 38.922 38.985 39.127 39.115 39.077 39.052 39.16 39.275 39.38 39.432 39.505 39.58 39.737 39.902 40.067 40.207 40.327 40.485 40.615 40.755 40.9 40.997 41.075 41.17 41.27 41.357 41.455 41.522 41.577 41.632 41.662 41.71 41.765 41.752 41.692 41.747 41.815 42.255 44.882 42.932 43.027 43.302 43.497 43.517 43.46 43.547 44.262 46.06 44.992 45.09 45.972 50.465 50.835 48.73 48.18 47.107 46.99 45.37 44.522 44.46 44.447 44.402 44.362 44.322 44.29 44.25 44.232 44.235 44.2 44.057 43.82 46.487 53.665 48.77 44.337 46.01 44.905 45.982 45.385 45.865 45.275 46.142 48.017 48.205 47.987 48.535 48.632 49.347 50.327 50.57 48.715 46.85 45.895 44.842 44.735 44.477 44.265 44.225 44.167 44.167 44.15 44.132 44.102 44.085 44.062 44.02 44.077 44.027 44.032 44.005 43.977 44.002 43.985 43.965 43.94 43.94 43.975 43.957 43.96 44.002 44.022 44.01 45.195 43.92 43.852 44.367 43.857 43.642 43.647 44.15 44.265 45.047 45.375 45.892 46.01 46.325 46.682 47.012 47.337 47.357 47.405 47.992 47.37 47.417 47.46 47.457 47.315 47.517 49.675
35.895 35.91 35.86 35.902 35.67 35.542 38.98 35.515 35.33 35.357 35.345 35.272 35.237 35.237 35.175 35.187 35.16 35.137 35.132 35.167 35.11 35.11 35.04 35.092 35.055 35.072 35.082 35.112 35.145 35.112 35.142 35.145 35.165 35.14 35.135 35.105 35.147 35.127 35.132 35.147 35.17 35.217 35.222 35.245 35.261 35.274 35.294 35.283 35.302 35.301 35.289 35.282 35.243 35.221 35.267 35.296 35.295 35.317 35.33 35.343 35.378 35.412 35.406 35.476 35.494 35.511 35.496 35.478 35.516 35.522 35.552 35.506 35.53 35.577 35.543 35.523 35.531 35.51 35.503 35.505 35.526 35.503 35.538 35.545 35.584 35.631 35.679 35.742 35.801 35.847 35.898 35.923 35.986 35.991 36.031 36.068 36.096 36.154 36.193 36.205 36.235 36.282 36.297 36.337 36.385 36.474 36.518 36.622 36.733 36.818 36.933 37.067 37.194 37.322 37.43 37.556 37.67 37.829 37.957 38.101 38.264 38.387 38.552 38.67 38.797 38.925 39.05 39.147 39.222 39.29 39.362 39.432 39.47 39.542 39.552 39.54 39.562 39.655 39.737 39.805 40.155 40.922 40.557 40.395 39.905 39.597 39.557 39.44 39.435 39.45 39.442 39.37 39.325 39.27 39.205 39.067 39 38.872 38.75 38.63 38.502 38.405 38.287 38.21 38.12 38.062 37.967 37.917 37.887 37.882 37.865 37.832 37.852 37.862 37.9 37.912 37.91 37.93 37.95 37.972 38.01 38.03 38.027 38.055 38.095 38.097 38.112 38.11 38.092 38.1 38.117 38.105 38.082 38.085 38.052 38.04 37.997 38.015 37.995 37.995 38.027 38.02 38.057 38.097 38.16 38.152 38.165 38.217 38.232 38.245 38.287 38.322 38.34 38.375 38.41 38.48 38.525 38.575 38.6 38.652 38.675 38.725 38.767 38.81 38.832 38.89 38.872 38.875 38.892 38.922 38.875 38.837 38.802 38.755 38.71 38.617 38.583 38.497 38.375 38.3 38.24 38.148 38.115 38.066 38.041 38.008 38.001 38.009 37.99 37.98 37.985 37.915 37.855 37.83 37.857 37.877 37.852 37.852 37.84 37.8 37.775 37.732 37.722 37.65 37.652 37.635 37.635 37.64 37.625 37.655 37.71 37.747 37.757 37.85 37.872 37.915 37.96 38.025 38.065 38.127 38.137 38.537 38.78 38.877 39.095 39.297 39.707 39.657 39.732 39.71 39.54 39.677 39.752 39.922 39.967 39.97 40.022 39.945 39.977 40.03 40.075 40.18 40.31 40.36 40.347 40.422 40.362 40.52 40.605 40.63 40.705 40.91 40.907 40.94 41.05 41.115 41.185 41.255 41.345 41.465 41.522 41.63 41.677 41.71 41.792 41.85 41.89 41.942 41.932 42.027 42.12 42.577 43.115 43.645 43.487 43.445 43.477 43.477 43.522 43.577 44.007 47.212 47.105 44.995 45.15 45.19 45.462 45.942 47.67 48.42 47.305 45.017 44.682 44.65 44.612 44.56 44.54 44.497 44.47 44.45 44.402 44.382 44.417 44.437 44.525 45.65 49.3 50.135 48.132 50.247 51.462 52.562 51.317 51.015 50.505 47.465 46.952 46.472 46.525 45.657 45.285 45.342 45.27 44.835 44.577 44.377 44.372 44.292 44.26 44.297 44.25 44.217 44.177 44.19 44.167 44.132 44.165 44.147 44.13 44.077 44.095 44.042 44.01 44.04 44.035 44.015 44.022 44.057 44.097 44.122 44.09 44.062 43.99 44.332 44.372 43.762 44.03 43.515 43.435 43.427 43.405 43.632 44.625 50.165 45.672 47.815 46.082 46.315 46.655 46.887 47.137 47.435 47.782 47.935 47.96 48.337 49.795 48.915 47.985 50.6 48.092 50.137 49.725
35.737 35.692 35.61 35.542 35.45 35.352 35.332 35.17 35.172 35.167 35.19 35.165 35.145 35.135 35.112 35.12 35.12 35.122 35.12 35.1 35.09 35.067 35.105 35.08 35.062 35.087 35.08 35.125 35.107 35.127 35.152 35.15 35.18 35.137 35.125 35.12 35.125 35.065 35.065 35.125 35.137 35.175 35.187 35.21 35.215 35.246 35.271 35.282 35.294 35.284 35.257 35.278 35.259 35.259 35.271 35.276 35.278 35.325 35.334 35.342 35.361 35.432 35.417 35.457 35.495 35.457 35.475 35.481 35.519 35.499 35.521 35.499 35.526 35.565 35.542 35.526 35.515 35.562 35.521 35.509 35.51 35.526 35.564 35.57 35.616 35.639 35.684 35.726 35.779 35.85 35.862 35.937 35.968 36.018 36.059 36.086 36.119 36.153 36.206 36.237 36.279 36.315 36.363 36.397 36.48 36.547 36.615 36.73 36.85 36.949 37.078 37.21 37.332 37.447 37.577 37.71 37.835 37.95 38.103 38.225 38.365 38.481 38.606 38.722 38.86 38.975 39.09 39.18 39.27 39.315 39.38 39.447 39.47 39.527 39.552 39.535 39.562 39.62 39.72 39.745 39.942 41.185 40.585 40.505 40.162 39.615 39.59 39.49 39.44 39.437 39.437 39.392 39.35 39.28 39.245 39.125 39.04 38.957 38.805 38.695 38.575 38.437 38.352 38.272 38.192 38.112 38.052 38 37.975 37.932 37.912 37.93 37.927 37.945 37.967 37.967 37.992 38.007 38.06 38.062 38.105 38.097 38.11 38.152 38.152 38.165 38.182 38.16 38.182 38.192 38.197 38.167 38.192 38.185 38.157 38.112 38.097 38.077 38.062 38.055 38.062 38.065 38.085 38.117 38.127 38.187 38.175 38.242 38.237 38.287 38.335 38.357 38.38 38.412 38.492 38.552 38.615 38.652 38.687 38.745 38.75 38.832 38.89 38.917 38.975 38.982 39.04 39.025 39.055 39.067 39.077 39.032 38.99 38.927 38.875 38.808 38.765 38.625 38.527 38.435 38.343 38.25 38.209 38.162 38.134 38.117 38.077 38.048 38.008 37.952 37.94 37.925 37.922 37.905 37.872 37.855 37.792 37.835 37.795 37.76 37.727 37.697 37.69 37.665 37.672 37.69 37.675 37.71 37.752 37.762 37.802 37.807 37.897 37.955 38.015 38.055 38.082 38.177 38.565 38.852 39.297 39.477 39.417 39.55 39.675 39.742 39.88 39.96 40.115 40.082 39.855 39.895 40.037 40.192 40.45 40.542 40.45 40.28 40.302 40.385 40.51 40.67 40.582 40.695 40.672 40.707 40.762 40.797 40.792 40.94 41.135 41.257 41.297 41.465 41.54 41.645 41.672 42.012 42.185 42.227 42.157 41.975 42.22 42.332 42.397 42.527 42.692 42.937 42.94 42.957 43.052 43.107 43.262 43.427 43.622 43.56 43.572 43.485 43.557 43.73 44.075 44.832 44.52 44.757 45.207 45.312 45.685 45.04 46.682 50.22 46.552 45.602 44.882 44.812 44.815 44.757 44.722 44.692 44.665 44.7 44.645 44.695 44.672 44.665 44.74 45.485 46.79 46.41 47.452 47.57 47.947 51.615 49.127 46.857 47.792 45.252 45.172 46.03 44.797 44.677 44.567 44.517 44.475 44.44 44.412 44.392 44.31 44.302 44.292 44.295 44.287 44.25 44.21 44.232 44.262 44.262 44.257 44.24 44.212 44.125 44.182 44.112 44.105 44.165 44.197 44.237 44.227 44.255 44.29 44.672 44.187 43.935 44.46 43.51 43.582 43.462 43.315 43.225 43.255 43.307 43.475 43.627 44.315 47.46 47.137 49.092 46.455 46.84 47.085 48.965 50.307 47.632 47.967 49.372 49.7 49.11 52.987 49.377 52.072 55.282 50.39 54.812 50.092
35.647 35.577 35.52 35.457 35.392 35.307 35.272 35.205 35.152 35.13 35.135 35.145 35.142 35.137 35.125 35.095 35.135 35.122 35.087 35.062 35.07 35.015 35.035 35.042 35.082 35.085 35.055 35.085 35.07 35.1 35.112 35.107 35.095 35.11 35.1 35.105 35.09 35.072 35.057 35.082 35.102 35.155 35.164 35.17 35.219 35.225 35.234 35.259 35.251 35.259 35.27 35.269 35.262 35.256 35.262 35.281 35.319 35.335 35.33 35.337 35.39 35.408 35.461 35.462 35.46 35.478 35.496 35.509 35.473 35.477 35.558 35.456 35.535 35.534 35.58 35.583 35.509 35.518 35.549 35.54 35.552 35.557 35.581 35.589 35.608 35.658 35.704 35.749 35.828 35.88 35.909 35.936 35.972 36.024 36.058 36.136 36.158 36.185 36.233 36.27 36.3 36.345 36.399 36.486 36.544 36.604 36.727 36.818 36.962 37.086 37.21 37.333 37.474 37.591 37.716 37.858 37.973 38.095 38.223 38.343 38.48 38.599 38.713 38.812 38.927 39.066 39.152 39.227 39.297 39.345 39.38 39.43 39.49 39.54 39.567 39.532 39.55 39.572 39.677 39.767 39.872 40.945 40.69 40.54 40.36 39.707 39.587 39.54 39.47 39.447 39.475 39.412 39.34 39.305 39.24 39.182 39.097 38.985 38.855 38.727 38.642 38.532 38.452 38.36 38.247 38.167 38.11 38.087 38.037 38.012 37.992 38.01 38.012 38.027 38.07 38.055 38.082 38.115 38.137 38.162 38.145 38.157 38.205 38.225 38.235 38.262 38.272 38.29 38.28 38.257 38.275 38.272 38.27 38.257 38.25 38.222 38.192 38.187 38.107 38.107 38.107 38.102 38.097 38.14 38.165 38.195 38.215 38.257 38.297 38.29 38.352 38.372 38.425 38.477 38.545 38.6 38.677 38.717 38.777 38.822 38.88 38.99 39.032 39.042 39.092 39.147 39.187 39.185 39.187 39.222 39.21 39.212 39.157 39.097 39.081 38.995 38.921 38.797 38.716 38.591 38.496 38.383 38.355 38.311 38.252 38.172 38.109 38.04 38.045 37.996 37.974 37.942 37.96 37.877 37.842 37.81 37.777 37.772 37.74 37.755 37.742 37.75 37.76 37.747 37.772 37.79 37.8 37.795 37.812 37.882 37.95 38.05 38.052 38.05 38.172 38.48 38.842 39.172 39.395 39.512 39.612 39.71 39.777 39.827 40.31 39.987 40.045 40.127 40.2 40.187 40.087 40.062 40.167 40.22 40.277 40.312 40.352 40.367 40.337 40.395 40.46 41.997 41.817 40.6 40.585 40.637 40.715 40.792 40.87 40.952 41.09 41.12 41.17 41.28 41.372 41.467 41.557 41.637 41.742 41.835 41.942 42.037 42.125 42.222 42.347 42.455 42.555 42.682 42.782 42.945 46.172 43.255 43.255 43.332 43.417 43.502 43.562 43.51 43.607 43.875 44.145 44.292 44.397 44.517 44.637 44.93 45.072 44.822 45.38 47.522 46.387 45.977 45.842 45.902 45.692 46.042 46.195 46.237 46.33 45.85 45.84 45.845 45.915 45.872 45.677 45.217 45.195 45.632 46.022 45.17 45.055 44.99 44.957 44.875 44.832 44.835 44.827 44.827 44.71 44.635 44.565 44.52 44.495 44.4 44.435 44.465 44.425 44.377 44.432 44.395 44.352 44.33 44.3 44.31 44.31 44.347 44.282 44.332 44.287 44.32 45.37 44.322 44.382 44.405 44.395 44.262 44.257 44.205 44.135 44.137 43.765 43.41 43.357 43.35 43.375 44.03 43.315 43.262 43.315 43.52 43.597 44.052 49.97 51.472 46.647 47.522 46.72 47.142 47.417 49.547 56.74 54.945 48.41 49.17 49.522 49.677 51.865 49.99 51.802 53.002 53.472 51.165 50.475
35.587 35.532 35.455 35.417 35.312 35.275 35.212 35.19 35.145 35.102 35.095 35.105 35.107 35.097 35.105 35.067 35.07 35.052 35.05 35.032 35.035 35.01 35.01 35.042 35.032 35.042 35.012 35.015 35.065 35.052 35.072 35.057 35.047 35.057 35.045 35.092 35.062 35.04 35.052 35.035 35.06 35.075 35.116 35.162 35.176 35.225 35.224 35.247 35.27 35.251 35.247 35.266 35.239 35.26 35.274 35.268 35.308 35.338 35.342 35.379 35.41 35.423 35.456 35.471 35.484 35.508 35.529 35.565 35.488 35.508 35.546 35.503 35.561 35.548 35.573 35.578 35.549 35.55 35.553 35.55 35.541 35.557 35.575 35.59 35.651 35.667 35.718 35.761 35.82 35.87 35.908 35.949 35.996 36.029 36.056 36.103 36.165 36.208 36.269 36.298 36.358 36.41 36.457 36.528 36.616 36.705 36.818 36.953 37.078 37.21 37.353 37.496 37.629 37.744 37.865 37.986 38.105 38.243 38.352 38.467 38.567 38.679 38.787 38.902 38.979 39.089 39.199 39.249 39.317 39.383 39.424 39.499 39.505 39.517 39.587 39.557 39.542 39.587 39.665 39.742 39.747 40.15 40.892 40.567 40.487 39.902 39.612 39.57 39.487 39.442 39.47 39.47 39.382 39.33 39.255 39.222 39.147 39.037 38.92 38.78 38.712 38.625 38.497 38.417 38.32 38.295 38.205 38.152 38.11 38.115 38.077 38.105 38.115 38.135 38.132 38.162 38.187 38.202 38.225 38.23 38.257 38.292 38.307 38.322 38.332 38.342 38.34 38.35 38.387 38.357 38.367 38.322 38.342 38.345 38.315 38.277 38.227 38.232 38.212 38.14 38.135 38.122 38.127 38.165 38.212 38.23 38.28 38.31 38.33 38.347 38.395 38.417 38.49 38.567 38.597 38.667 38.727 38.812 38.877 38.945 39.022 39.1 39.127 39.215 39.267 39.32 39.335 39.352 39.37 39.375 39.397 39.4 39.33 39.297 39.254 39.181 39.08 39.001 38.873 38.78 38.687 38.601 38.5 38.392 38.291 38.228 38.174 38.107 38.078 38.006 37.972 37.915 37.907 37.847 37.815 37.795 37.752 37.755 37.82 37.795 37.8 37.842 37.865 37.88 37.85 37.885 37.917 37.992 38.047 38.067 38.082 38.085 38.207 38.552 38.86 39.195 39.36 39.525 39.775 39.885 39.86 39.905 39.987 40.835 42.847 40.082 40.08 40.095 40.08 40.12 40.1 40.122 40.137 40.192 40.207 40.257 40.302 40.345 40.345 40.417 40.505 40.495 40.585 40.62 40.59 40.645 40.77 40.837 40.862 40.912 41.032 41.12 41.19 41.285 41.357 41.47 41.54 41.607 41.707 41.81 41.9 41.975 42.092 42.222 42.327 42.422 42.525 42.622 42.69 42.925 46.197 43.215 43.227 43.325 43.405 43.51 43.57 43.62 43.707 43.892 44.08 44.197 44.257 44.377 44.472 44.562 44.612 44.68 44.797 44.895 44.995 45.06 45.15 45.187 45.24 45.255 45.27 45.27 45.302 45.282 45.227 45.212 45.195 45.115 45.125 45.092 45.387 46.015 45.082 45.03 44.985 44.96 44.915 44.885 44.792 44.795 44.832 44.827 44.755 44.805 44.64 44.627 44.602 44.64 44.587 44.562 44.525 44.52 44.492 44.487 44.49 44.46 44.432 44.452 44.462 44.492 44.497 44.517 44.542 44.615 44.86 45.067 44.42 44.265 44.262 44.042 44.092 44.297 44.382 44.307 43.94 43.635 43.447 43.435 43.6 43.72 43.625 43.712 43.59 43.692 43.802 44.405 45.525 47.427 46.262 46.532 46.922 47.432 47.805 48.1 49.26 49.517 49.215 52.075 51.89 50.242 50.267 54.33 56.005 54.84 53.83 54.232 52.807
35.492 35.427 35.375 35.31 35.225 35.207 35.12 35.095 35.087 35.065 35.072 35.032 35.072 35.05 35.057 35.065 35.042 35.015 35.012 35.047 35.015 35.01 34.995 35.022 34.99 34.987 34.98 35.007 35.047 35.055 35.06 35.06 35.092 35.08 35.057 35.05 35.047 35.015 35.008 35.049 35.077 35.079 35.118 35.14 35.198 35.203 35.213 35.229 35.207 35.216 35.237 35.248 35.232 35.267 35.291 35.263 35.313 35.342 35.369 35.369 35.417 35.445 35.44 35.476 35.478 35.515 35.536 35.513 35.501 35.528 35.523 35.548 35.583 35.578 35.601 35.598 35.525 35.566 35.569 35.55 35.548 35.594 35.593 35.592 35.643 35.678 35.723 35.767 35.831 35.86 35.898 35.954 36.004 36.048 36.104 36.124 36.175 36.213 36.289 36.319 36.395 36.447 36.492 36.583 36.709 36.82 36.93 37.071 37.204 37.35 37.49 37.619 37.754 37.867 38.015 38.121 38.233 38.359 38.454 38.56 38.676 38.783 38.907 38.984 39.057 39.143 39.243 39.311 39.369 39.402 39.439 39.466 39.497 39.529 39.574 39.585 39.532 39.575 39.625 39.7 39.692 39.925 41.202 40.592 40.53 40.127 39.63 39.6 39.495 39.41 39.445 39.487 39.407 39.352 39.34 39.252 39.182 39.107 38.99 38.895 38.767 38.67 38.575 38.502 38.39 38.35 38.28 38.245 38.22 38.212 38.177 38.21 38.217 38.205 38.222 38.242 38.28 38.295 38.305 38.315 38.36 38.392 38.407 38.417 38.442 38.425 38.457 38.455 38.465 38.45 38.455 38.407 38.425 38.435 38.392 38.367 38.332 38.307 38.255 38.217 38.195 38.175 38.215 38.207 38.23 38.267 38.332 38.337 38.385 38.397 38.445 38.472 38.555 38.585 38.677 38.745 38.83 38.922 38.972 39.067 39.137 39.225 39.28 39.355 39.407 39.435 39.495 39.51 39.537 39.55 39.547 39.53 39.515 39.467 39.427 39.385 39.297 39.199 39.077 38.993 38.865 38.729 38.605 38.484 38.406 38.301 38.218 38.16 38.085 38.025 37.992 37.91 37.835 37.84 37.812 37.84 37.83 37.842 37.865 37.875 37.902 37.925 37.947 38.01 38.067 38.075 38.082 38.107 38.152 38.232 38.495 38.917 39.372 39.552 39.74 40.077 39.885 39.9 39.99 40 39.99 39.96 39.972 40.005 40.06 39.98 39.995 40.042 40.017 40.042 40.015 40.045 40.045 40.065 40.087 40.1 40.142 40.195 40.215 40.212 40.372 40.45 40.475 40.457 40.452 40.465 40.602 40.732 40.79 40.872 40.91 41.017 41.055 41.122 41.24 41.332 41.4 41.53 41.647 41.732 41.842 41.952 42.027 42.122 42.255 42.385 42.5 42.605 42.655 42.765 42.982 43.102 43.18 43.265 43.345 43.49 43.57 43.717 43.785 43.9 44.012 44.095 44.225 44.325 44.425 44.507 44.605 44.645 44.767 44.88 44.942 45.017 45.042 45.112 45.155 45.215 45.255 45.225 45.19 45.175 45.227 45.215 45.157 45.132 45.092 45.122 45.075 45.062 45.06 45.03 44.955 44.932 44.875 44.867 44.827 44.847 44.802 44.91 44.862 44.787 44.727 44.727 44.722 44.667 44.647 44.662 44.642 44.597 44.635 44.655 44.61 44.622 44.625 44.642 44.615 44.922 46.15 45.365 45.28 44.577 44.445 44.352 44.25 44.11 44.012 44.445 45.705 45.01 44.957 45.1 44.91 44.64 44.32 44.465 44.385 44.505 44.67 44.665 44.542 44.577 44.625 44.86 45.71 46.337 46.685 47.137 49.257 48.032 48.512 48.725 48.87 50.302 50.555 50.337 52.135 50.515 51.93 53.572 57.837 55.5 55.835 60.992 52.925
35.497 35.402 35.302 35.24 35.167 35.127 35.07 35.057 35.09 35.052 35.07 35.042 35.055 35.075 35.035 35.062 35.052 35.032 35.01 35.02 35.042 35.01 35.025 34.98 35.002 35.035 35.027 35.042 35.05 35.082 35.095 35.102 35.117 35.097 35.087 35.067 35.085 35.078 35.053 35.057 35.101 35.101 35.117 35.167 35.207 35.212 35.218 35.218 35.233 35.235 35.224 35.246 35.257 35.29 35.293 35.296 35.33 35.369 35.377 35.409 35.394 35.431 35.443 35.517 35.509 35.508 35.546 35.526 35.501 35.531 35.545 35.524 35.578 35.573 35.612 35.593 35.577 35.565 35.544 35.604 35.545 35.604 35.619 35.612 35.648 35.682 35.72 35.789 35.823 35.86 35.926 35.971 36.008 36.052 36.085 36.114 36.162 36.228 36.319 36.374 36.407 36.497 36.586 36.663 36.776 36.899 37.039 37.188 37.341 37.477 37.632 37.756 37.888 38.004 38.151 38.252 38.366 38.484 38.574 38.663 38.773 38.851 38.962 39.063 39.129 39.187 39.258 39.32 39.371 39.414 39.424 39.474 39.485 39.531 39.534 39.571 39.548 39.573 39.572 39.667 39.7 39.827 40.79 40.622 40.535 40.302 39.73 39.575 39.54 39.44 39.472 39.507 39.445 39.39 39.33 39.282 39.225 39.147 39.06 38.945 38.857 38.75 38.667 38.585 38.515 38.455 38.387 38.34 38.29 38.272 38.275 38.267 38.297 38.327 38.33 38.345 38.39 38.405 38.405 38.417 38.452 38.475 38.51 38.527 38.547 38.53 38.555 38.55 38.517 38.532 38.522 38.527 38.512 38.482 38.49 38.462 38.415 38.375 38.335 38.3 38.287 38.28 38.242 38.265 38.295 38.317 38.372 38.425 38.41 38.455 38.47 38.55 38.595 38.66 38.727 38.82 38.922 39.002 39.072 39.19 39.272 39.332 39.37 39.475 39.527 39.58 39.625 39.652 39.682 39.687 39.707 39.72 39.702 39.651 39.605 39.549 39.5 39.427 39.295 39.157 39.01 38.857 38.721 38.604 38.461 38.382 38.291 38.19 38.12 38.07 38.025 37.997 37.97 37.932 37.965 37.952 37.957 37.975 37.982 37.995 38.075 38.107 38.147 38.192 38.21 38.282 38.385 38.622 39.067 39.842 39.96 39.742 39.832 40.095 40.09 40.867 41.715 39.94 39.987 39.987 39.975 39.945 39.91 39.852 39.89 39.882 39.867 39.855 39.832 39.822 39.855 39.907 39.915 39.947 39.95 40.007 40.025 40.052 40.15 40.147 40.152 40.282 40.35 40.287 40.36 40.422 40.52 40.577 40.67 40.745 40.837 40.937 41.005 41.107 41.202 41.275 41.355 41.462 41.597 41.7 41.82 41.965 42.075 42.132 42.27 42.38 42.47 42.597 42.74 42.845 42.98 43.1 43.182 43.335 43.422 43.565 43.65 43.787 43.89 44.015 44.107 44.215 44.277 44.36 44.47 44.54 44.622 44.705 44.81 44.885 44.977 45.03 45.075 45.15 45.19 45.225 45.242 45.235 45.237 45.25 45.27 45.232 45.19 45.167 45.155 45.16 45.157 45.072 45.022 45.032 45.025 45.02 44.967 44.935 44.905 44.9 44.915 44.897 44.862 44.86 44.837 44.822 44.805 44.835 44.792 44.812 44.827 44.867 44.817 44.775 44.765 44.775 44.805 44.832 44.977 46.132 45.762 44.557 44.387 44.422 44.335 44.23 44.175 44.275 44.732 45.615 46.32 46.64 46.605 46.36 45.915 45.84 45.585 45.662 45.635 46.097 45.867 46.892 45.87 45.812 45.807 45.912 46.475 47.06 47.392 50.237 48.29 48.84 49.27 49.607 50.635 51.132 53.025 50.512 55.367 51.627 51.962 56.582 59.87 56.85 54.095 62.292 53.422
35.42 35.32 35.272 35.202 35.145 35.087 35.07 35.07 35.06 35.085 35.07 35.042 35.062 35.067 35.082 35.115 35.07 35.077 35.052 35.032 35.05 35.027 35.01 35.02 35.027 35 35.032 35.085 35.1 35.12 35.117 35.107 35.092 35.102 35.082 35.1 35.091 35.087 35.066 35.071 35.08 35.103 35.121 35.167 35.206 35.211 35.226 35.25 35.229 35.223 35.249 35.262 35.278 35.258 35.315 35.352 35.38 35.378 35.417 35.416 35.416 35.465 35.488 35.518 35.516 35.476 35.503 35.515 35.545 35.536 35.591 35.546 35.553 35.609 35.612 35.591 35.601 35.599 35.576 35.583 35.568 35.602 35.573 35.608 35.644 35.692 35.743 35.802 35.824 35.881 35.941 35.997 36.023 36.053 36.084 36.139 36.194 36.244 36.316 36.397 36.473 36.549 36.66 36.74 36.868 37.001 37.141 37.303 37.476 37.623 37.759 37.891 38.007 38.114 38.244 38.355 38.471 38.558 38.67 38.761 38.874 38.944 39.027 39.107 39.156 39.214 39.281 39.333 39.358 39.405 39.41 39.464 39.501 39.533 39.54 39.558 39.531 39.535 39.556 39.636 39.746 39.715 40.185 40.945 40.575 40.43 39.955 39.567 39.567 39.44 39.48 39.502 39.512 39.397 39.347 39.31 39.245 39.197 39.135 39.025 38.932 38.827 38.735 38.667 38.577 38.53 38.452 38.437 38.402 38.38 38.365 38.385 38.395 38.405 38.43 38.47 38.46 38.502 38.507 38.527 38.56 38.55 38.58 38.605 38.63 38.647 38.637 38.612 38.622 38.605 38.63 38.617 38.62 38.617 38.557 38.52 38.482 38.48 38.44 38.377 38.36 38.337 38.31 38.335 38.34 38.37 38.407 38.45 38.47 38.522 38.562 38.617 38.692 38.745 38.81 38.907 39.022 39.117 39.202 39.295 39.382 39.445 39.497 39.57 39.662 39.725 39.762 39.795 39.837 39.86 39.857 39.88 39.87 39.837 39.815 39.742 39.675 39.547 39.394 39.265 39.146 38.975 38.839 38.716 38.548 38.462 38.36 38.289 38.238 38.207 38.162 38.14 38.082 38.087 38.082 38.047 38.1 38.105 38.17 38.24 38.267 38.295 38.415 38.595 38.835 39.557 40.14 40.512 40.747 40.305 40.085 40.06 40.077 40.077 40.032 39.987 39.965 39.947 39.93 39.872 39.837 39.812 39.835 39.8 39.745 39.772 39.76 39.74 39.842 42.007 39.77 39.717 39.76 39.805 39.827 39.85 39.882 39.94 39.967 40.007 40.047 40.037 40.127 40.177 40.225 40.33 40.402 40.487 40.587 40.672 40.77 40.83 40.932 40.992 41.11 41.18 41.325 41.455 41.547 41.662 41.752 41.897 42.02 42.117 42.23 42.332 42.495 42.575 42.69 42.82 42.952 43.072 43.202 43.332 43.422 43.542 43.665 43.775 43.905 44 44.105 44.205 44.275 44.392 44.46 44.557 44.655 44.727 44.805 44.92 44.992 45.055 45.155 45.18 45.222 45.212 45.227 45.257 45.295 45.282 45.262 45.27 45.212 45.185 45.182 45.152 45.147 45.097 45.105 45.097 45.175 45.127 45.105 45.055 45.002 45.002 45.015 45.035 45.05 45.02 44.975 45.002 45.197 45.022 45.005 45.037 45.01 45.115 44.985 44.927 45.227 44.692 44.62 44.765 44.46 44.417 44.41 44.405 44.395 44.272 44.11 44.255 44.655 45.422 46.292 47.202 48.027 48.545 48.025 47.345 47.142 46.962 46.79 46.755 46.877 47.38 47.025 47.202 47.365 47.265 47.22 47.282 47.505 48.087 48.217 48.65 49.32 49.622 50.105 50.57 51.265 51.122 57.447 54.71 60.032 58.287 52.8 54.815 56.027 58.342 53.747 54.025 54.137
